# .PCD v0.7 - Point Cloud Data file format
VERSION 0.7
FIELDS x y z rgb
SIZE 4 4 4 4
TYPE F F F F
COUNT 1 1 1 1
WIDTH 1049
HEIGHT 1
VIEWPOINT 0 0 0 1 0 0 0
POINTS 1049
DATA ascii
2.9361837 -1.3007832 -8.845109 6.1767345e-39
2.9629903 -1.2746924 -8.9068727 6.2689315e-39
2.9995611 -1.2386221 -8.992259 6.2689357e-39
3.0610473 -1.2003689 -9.0829163 6.3611299e-39
3.1214566 -1.1417395 -9.2217093 6.5444436e-39
3.1430645 -1.1211615 -9.2704258 6.3611313e-39
3.1534884 -1.1160544 -9.2825384 4.7966909e-39
2.647311 -1.5283008 -8.3062601 5.9930495e-39
2.6666298 -1.5156071 -8.336338 4.2438758e-39
2.669271 -1.5078949 -8.3545713 5.9923516e-39
2.6918941 -1.485543 -8.4074831 5.9927075e-39
2.7099676 -1.4679428 -8.4491472 6.1760212e-39
2.7434962 -1.4492942 -8.4933586 4.520104e-39
2.7904413 -1.4040213 -8.6005344 4.520104e-39
2.8051643 -1.3936446 -8.6251173 6.1763799e-39
2.8306825 -1.3684942 -8.6846552 6.3600523e-39
2.8670821 -1.3351972 -8.7634878 4.6122996e-39
2.8737047 -1.3318954 -8.7713194 4.7966909e-39
2.8783569 -1.3232818 -8.7916908 6.2689343e-39
2.9137187 -1.2880107 -8.8751831 6.3611299e-39
2.9260719 -1.2699209 -8.9179792 5.2551453e-39
2.9638636 -1.2388017 -8.9916735 6.2692958e-39
3.0495872 -1.1724812 -9.1487522 4.7966909e-39
3.0520189 -1.1741682 -9.1447773 6.3611285e-39
3.0913432 -1.1352031 -9.2370157 6.5444408e-39
3.1205506 -1.1108612 -9.2946587 4.7045009e-39
2.6262414 -1.5227253 -8.3193378 4.7966909e-39
2.6436079 -1.5078623 -8.3545313 4.1513215e-39
2.6476209 -1.4963378 -8.3817787 5.9923488e-39
2.6646461 -1.4796584 -8.4212627 6.0841843e-39
2.6858389 -1.4640723 -8.4581833 5.0703953e-39
2.7259648 -1.4386839 -8.5183487 6.0841857e-39
2.7511039 -1.413615 -8.5776901 6.1767345e-39
2.7731071 -1.392773 -8.6270323 4.520104e-39
2.7969899 -1.3681321 -8.6853571 6.1763841e-39
2.821475 -1.3438245 -8.742898 6.0849046e-39
2.8414044 -1.3242984 -8.7891207 6.0852577e-39
2.8694987 -1.2961916 -8.8556547 6.177096e-39
2.9050405 -1.2729236 -8.9107895 4.6122996e-39
2.9264758 -1.254259 -8.9549847 4.7044953e-39
2.9496181 -1.2338567 -9.0032921 4.6122996e-39
3.024121 -1.1639147 -9.1688766 4.7044953e-39
3.0320554 -1.1574991 -9.1840706 6.3611285e-39
3.0612061 -1.1286774 -9.2522974 6.6366364e-39
3.0946627 -1.1021523 -9.3151178 4.7966909e-39
2.5934601 -1.51666 -8.333519 6.0845262e-39
2.6205859 -1.5001183 -8.3727245 4.2435227e-39
2.6204848 -1.4904907 -8.3954697 6.0841843e-39
2.6373785 -1.4737836 -8.4350195 6.0841843e-39
2.6901603 -1.43669 -8.5228968 4.520104e-39
2.7108645 -1.4182842 -8.5664768 4.520104e-39
2.7233081 -1.4076163 -8.5917368 6.0841857e-39
2.7492843 -1.3847591 -8.6458578 4.6122996e-39
2.7701876 -1.3662543 -8.6896725 4.520104e-39
2.7912769 -1.339908 -8.7520151 5.2547852e-39
2.821589 -1.3088435 -8.8255453 6.177096e-39
2.8407431 -1.2899511 -8.8702679 6.2692958e-39
2.8803611 -1.2646214 -8.9302921 4.6122996e-39
2.90167 -1.2459146 -8.9745865 4.6122996e-39
2.9239502 -1.2288857 -9.0149202 6.2685756e-39
2.9600523 -1.1923574 -9.1013861 6.2685756e-39
3.0021524 -1.151019 -9.1992455 6.3611285e-39
3.0310469 -1.1221629 -9.2675524 6.4529682e-39
3.0687754 -1.0934441 -9.3355751 4.7966909e-39
2.5803943 -1.5073028 -8.3555679 4.1538452e-39
2.597564 -1.4923736 -8.3909178 4.2435227e-39
2.6163514 -1.475728 -8.4303312 4.2435227e-39
2.6352 -1.4590515 -8.4698153 4.520104e-39
2.6666889 -1.4287944 -8.5414448 4.427907e-39
2.6730816 -1.4256074 -8.5490036 4.5197509e-39
2.6954918 -1.4016272 -8.6057615 6.1763799e-39
2.7254617 -1.3767455 -8.6646833 4.520104e-39
2.748404 -1.3475634 -8.7337341 6.0849046e-39
2.7617929 -1.3356315 -8.7619858 5.2551425e-39
2.8007612 -1.307358 -8.8289614 4.6122996e-39
2.8201764 -1.2903994 -8.8691168 4.7045009e-39
2.8479755 -1.268705 -8.9204979 5.3466235e-39
2.876864 -1.2375699 -8.9941893 4.6119465e-39
2.8946688 -1.2225643 -9.0297222 6.2689357e-39
2.9326828 -1.183453 -9.1223011 6.2685798e-39
2.9586251 -1.162232 -9.1725559 4.7045009e-39
2.9722266 -1.1445485 -9.2143965 6.5440877e-39
3.0195782 -1.1054561 -9.3069725 4.7966965e-39
3.0428879 -1.084736 -9.3560314 4.7966965e-39
2.5574708 -1.4995915 -8.373683 4.1541983e-39
2.5757387 -1.4884175 -8.4001656 5.9923432e-39
2.5924125 -1.4716794 -8.4397869 6.175647e-39
2.6099837 -1.453975 -8.4816952 5.9927019e-39
2.6307514 -1.434487 -8.527833 4.427907e-39
2.6496103 -1.4177119 -8.5675516 4.520104e-39
2.6826236 -1.3855852 -8.6436043 4.520104e-39
2.7256992 -1.3563195 -8.712944 6.1763799e-39
2.7016082 -1.3541689 -8.7179155 5.2551453e-39
2.7461631 -1.3237867 -8.7898989 4.0566077e-39
2.7827201 -1.2992001 -8.8481531 6.177096e-39
2.8016753 -1.2802492 -8.893013 6.3607726e-39
2.8273604 -1.2540536 -8.9550209 6.2685756e-39
2.8557928 -1.2249066 -9.0240126 6.3607726e-39
2.9030628 -1.177065 -9.1372585 6.2685784e-39
2.9236684 -1.1564358 -9.1860905 6.5440877e-39
2.9445271 -1.1355467 -9.2355385 6.6362791e-39
2.9777133 -1.1140468 -9.2864857 4.7966965e-39
3.0170007 -1.0760278 -9.3764887 5.2547978e-39
2.4810143 -1.531291 -8.2984428 3.3154315e-39
2.4973435 -1.5146167 -8.3379126 5.6217488e-39
2.5345476 -1.4918803 -8.391798 4.5204543e-39
2.5486522 -1.4826025 -8.4137831 5.9919901e-39
2.5651946 -1.4658358 -8.4534712 6.2671378e-39
2.5826256 -1.4480993 -8.4954538 5.9923516e-39
2.6001048 -1.4303267 -8.5375233 6.0845486e-39
2.6260858 -1.4031415 -8.6018696 6.1763827e-39
2.6713285 -1.3639528 -8.694663 4.9782109e-39
2.6918182 -1.3453373 -8.7387371 4.4275538e-39
2.7108173 -1.3283986 -8.7788429 4.6119465e-39
2.7314408 -1.3097165 -8.8230753 4.6122996e-39
2.7521331 -1.2909997 -8.8673897 4.6122996e-39
2.7728994 -1.2740475 -8.9075356 6.2685756e-39
2.7983551 -1.2478206 -8.9696159 6.3607726e-39
2.8179402 -1.2280253 -9.0164728 6.3607726e-39
2.8734205 -1.1706876 -9.1521921 6.5444394e-39
2.8938618 -1.1500232 -9.2011061 6.7284747e-39
2.9451327 -1.1089102 -9.2984743 4.7044953e-39
2.9553421 -1.1102728 -9.2953005 6.6362791e-39
2.9924257 -1.0717944 -9.3863792 6.4529696e-39
2.996834 -1.0691998 -9.3925295 4.0584042e-39
3.0343783 -1.0298318 -9.4857111 6.4533255e-39
2.5116236 -1.4841684 -8.409914 4.520104e-39
2.5215454 -1.4767965 -8.4273767 5.9005133e-39
2.5379562 -1.4600009 -8.4671326 6.0841843e-39
2.562767 -1.4337792 -8.5291977 6.0845444e-39
2.5801151 -1.4159644 -8.5713663 6.0845444e-39
2.5983477 -1.3971721 -8.6158476 6.08455e-39
2.629096 -1.3643904 -8.6934376 6.0845458e-39
2.6678689 -1.3372808 -8.7576637 4.4275538e-39
2.6867554 -1.3203044 -8.7978573 4.5197509e-39
2.7072527 -1.3015796 -8.8421898 4.6119465e-39
2.7254426 -1.2868786 -8.8770065 6.177103e-39
2.7441015 -1.2678554 -8.9220352 6.2685756e-39
2.7816434 -1.2314141 -9.0083027 4.6122996e-39
2.8024466 -1.2125366 -9.0529976 4.7045009e-39
2.8390028 -1.1763546 -9.1386471 4.6119465e-39
2.859982 -1.1573896 -9.1835499 4.6119465e-39
2.9195261 -1.1002959 -9.3187103 4.7045009e-39
2.9405334 -1.0870372 -9.350132 6.6359175e-39
2.9652257 -1.0586112 -9.4174042 4.7044953e-39
2.9881907 -1.037711 -9.4668865 4.7966909e-39
2.996887 -1.0305047 -9.4839516 6.5451652e-39
2.4704804 -1.4931957 -8.388401 3.5066611e-39
2.4886999 -1.4764577 -8.4280291 4.427907e-39
2.505476 -1.4613963 -8.4636889 4.2438758e-39
2.5057011 -1.4598366 -8.4673748 6.0838284e-39
2.5422134 -1.4277719 -8.5432978 4.4275538e-39
2.5474789 -1.415717 -8.5718021 6.1763813e-39
2.5780535 -1.3827043 -8.6499386 6.1763827e-39
2.6114931 -1.3616575 -8.6998158 4.4275538e-39
2.6375585 -1.3421603 -8.7459974 6.2689357e-39
2.6626942 -1.3122104 -8.8168726 4.5197509e-39
2.6798427 -1.2980274 -8.8504581 6.177103e-39
2.7035046 -1.2746415 -8.9058189 4.6119465e-39
2.7152815 -1.2616733 -8.936511 6.2685798e-39
2.7569642 -1.2231117 -9.0278053 4.6122996e-39
2.7680049 -1.206015 -9.0682497 6.3607754e-39
2.7999406 -1.1835067 -9.1215725 4.7044953e-39
2.8082266 -1.1644623 -9.166605 6.3611285e-39
2.8572667 -1.1281354 -9.2526541 4.6122996e-39
2.8833578 -1.1086086 -9.2989073 6.4533255e-39
2.9036901 -1.0877899 -9.3481865 6.5451596e-39
2.9418411 -1.0472437 -9.4441538 6.5451624e-39
2.9471138 -1.0431546 -9.4538393 6.5451638e-39
2.9692516 -1.0254213 -9.4958363 4.7966909e-39
2.4237797 -1.5087694 -8.3513937 4.8874404e-39
2.4389343 -1.4911685 -8.3930464 4.9785598e-39
2.4541209 -1.4735314 -8.4347849 4.9785626e-39
2.4784853 -1.4540172 -8.4810009 6.176017e-39
2.5069807 -1.4336758 -8.5291891 4.427907e-39
2.5252986 -1.4167954 -8.5691547 4.4275538e-39
2.5557244 -1.3861295 -8.6417446 4.4275538e-39
2.5912321 -1.3550661 -8.7152967 6.0849004e-39
2.6093888 -1.3361192 -8.7601433 6.2689329e-39
2.6273875 -1.3173728 -8.8045149 6.1763827e-39
2.6596611 -1.2824 -8.887289 6.177103e-39
2.6836693 -1.2568831 -8.9476852 6.3611271e-39
2.6970079 -1.2434804 -8.9794111 6.3607754e-39
2.7322848 -1.2148097 -9.0473089 4.6119465e-39
2.7386961 -1.1997383 -9.0829468 6.3607726e-39
2.7585154 -1.179064 -9.1318817 6.3611313e-39
2.7785892 -1.1581119 -9.1814747 6.3607754e-39
2.8329589 -1.1231974 -9.2642107 6.3611313e-39
2.8527951 -1.1004913 -9.3179474 4.7045009e-39
2.8734467 -1.0812987 -9.3633852 6.5451695e-39
2.8830655 -1.0638773 -9.4045887 5.5313707e-39
2.9165168 -1.0365825 -9.4692278 6.4529724e-39
2.943224 -1.0166662 -9.5164042 4.7966965e-39
2.416523 -1.4834417 -8.4112015 5.8093925e-39
2.4310706 -1.4747506 -8.4317999 4.1513215e-39
2.4358561 -1.464373 -8.4563408 5.9923516e-39
2.4657023 -1.4427818 -8.5074883 4.427907e-39
2.4933362 -1.4244534 -8.5509157 6.1763799e-39
2.5152314 -1.4008988 -8.6066666 6.1767345e-39
2.5331171 -1.3820124 -8.6513691 6.1767387e-39
2.5631881 -1.3490707 -8.7293348 6.1767359e-39
2.5825262 -1.3286629 -8.7776375 4.520104e-39
2.5990479 -1.3113101 -8.8187103 6.2689357e-39
2.6346891 -1.2771699 -8.8995323 4.5197509e-39
2.6498268 -1.2564347 -8.9485903 6.3607726e-39
2.6736166 -1.2410983 -8.9849329 4.6122996e-39
2.6939373 -1.2221444 -9.0298061 4.6122996e-39
2.728029 -1.1875031 -9.111805 4.6122996e-39
2.7404113 -1.1596485 -9.1776714 6.3611285e-39
2.774174 -1.1464816 -9.2089329 5.3473381e-39
2.8065872 -1.1110873 -9.2927027 4.6122996e-39
2.817452 -1.1022106 -9.3137245 6.4533227e-39
2.8368013 -1.0820554 -9.3614321 6.453327e-39
2.8742349 -1.0413593 -9.4577503 6.4533185e-39
2.885896 -1.0300211 -9.4845915 6.4533185e-39
2.4020464 -1.4701746 -8.442481 3.8772513e-39
2.4013753 -1.4655052 -8.4535103 5.9923516e-39
2.4172139 -1.4486197 -8.4934759 5.9923516e-39
2.4426804 -1.4350368 -8.5256824 4.2435227e-39
2.460712 -1.4181112 -8.565753 4.427907e-39
2.4876001 -1.3950119 -8.620451 5.9927117e-39
2.5220819 -1.3547792 -8.715661 4.427907e-39
2.5522153 -1.3238839 -8.7887917 4.4275538e-39
2.5587037 -1.3206494 -8.796463 4.5197509e-39
2.5661316 -1.3069335 -8.8289022 5.3466221e-39
2.6210074 -1.2502774 -8.9630079 6.360774e-39
2.6580181 -1.2338923 -9.0018873 6.3607754e-39
2.6693845 -1.2138852 -9.0492086 4.6119465e-39
2.6991029 -1.1900551 -9.1056452 6.4529682e-39
2.7251017 -1.1583312 -9.1807146 4.0616496e-39
2.7455409 -1.1392132 -9.225976 4.6122996e-39
2.7660489 -1.1200608 -9.2713184 4.6122996e-39
2.7881494 -1.0991229 -9.3208876 4.6122996e-39
2.8065913 -1.0755805 -9.3765936 6.4533227e-39
2.8336213 -1.0464181 -9.4456158 6.4533255e-39
2.8687267 -1.0202628 -9.5075693 4.7044953e-39
2.3532276 -1.4811752 -8.4162693 5.437373e-39
2.3578312 -1.4775742 -8.424798 5.6257229e-39
2.3854482 -1.459404 -8.4678526 4.2435227e-39
2.4032488 -1.4424998 -8.5078716 4.2435227e-39
2.4311659 -1.4196531 -8.5619764 6.1763827e-39
2.4375777 -1.410329 -8.584034 4.4275538e-39
2.4599471 -1.389134 -8.6342115 6.2682154e-39
2.4923294 -1.3527493 -8.7203226 6.2689315e-39
2.5283923 -1.3158703 -8.8076172 4.427907e-39
2.5348811 -1.3126353 -8.8152895 4.520104e-39
2.5423028 -1.2992152 -8.8470297 6.3607712e-39
2.5601146 -1.280084 -8.8923101 6.2685756e-39
2.5921648 -1.2441301 -8.9774017 6.0852675e-39
2.6247635 -1.2246642 -9.0235395 4.5197509e-39
2.6560175 -1.1980828 -9.086483 6.360774e-39
2.6802814 -1.1716177 -9.1491203 6.3611313e-39
2.7005491 -1.1498603 -9.2006168 6.1774589e-39
2.720468 -1.1307791 -9.2457886 4.6122996e-39
2.7453682 -1.101429 -9.3152447 6.4529682e-39
2.7735047 -1.0705302 -9.3883753 6.4533312e-39
2.7940283 -1.0485746 -9.440341 6.4533298e-39
2.8206153 -1.0326717 -9.478034 5.2547978e-39
2.853832 -1.0092133 -9.5336075 6.453327e-39
2.3450096 -1.4686422 -8.4458427 3.6932202e-39
2.362637 -1.4517303 -8.4858789 4.2435227e-39
2.380662 -1.4396982 -8.5143881 5.9923516e-39
2.4037595 -1.4138061 -8.5756664 6.0841871e-39
2.4203095 -1.3958336 -8.6182041 6.0845458e-39
2.4377072 -1.3768587 -8.6631136 6.084543e-39
2.4590623 -1.3531655 -8.7191877 6.2685742e-39
2.4891076 -1.3190371 -8.7999573 6.2685742e-39
2.5110583 -1.3046219 -8.8341141 4.427907e-39
2.5138972 -1.2931827 -8.8611526 6.3607684e-39
2.5315604 -1.2740149 -8.9065199 6.3607684e-39
2.5687139 -1.2494763 -8.9646645 4.520104e-39
2.6001062 -1.2215505 -9.0307837 6.3607754e-39
2.618645 -1.2015452 -9.0781336 6.3604153e-39
2.650847 -1.1653481 -9.1638002 6.452964e-39
2.6684728 -1.1485157 -9.2036486 5.4388191e-39
2.6986849 -1.1126908 -9.2884264 6.4526109e-39
2.7305686 -1.0855156 -9.3527765 4.7044953e-39
2.7347755 -1.0721117 -9.3844633 3.9662085e-39
2.7544758 -1.046422 -9.4452477 5.5310147e-39
2.7948682 -1.0240108 -9.4983797 4.6119465e-39
2.8169522 -1.0028461 -9.5484838 4.6119465e-39
2.3062663 -1.4761961 -8.4278202 3.1375185e-39
2.3223107 -1.4610069 -8.4637794 3.6928671e-39
2.3333449 -1.4564869 -8.4745083 5.9923516e-39
2.348851 -1.4395372 -8.5146255 6.1756639e-39
2.3692212 -1.4166713 -8.5687408 6.1763827e-39
2.3927407 -1.3899639 -8.6319475 6.1767373e-39
2.4099901 -1.370953 -8.67694 6.1767429e-39
2.4382794 -1.338501 -8.7537413 6.1763827e-39
2.4562325 -1.3186897 -8.8006296 6.1771016e-39
2.4785635 -1.3176943 -8.8030825 3.7811026e-39
2.5248792 -1.2603792 -8.9387064 4.978564e-39
2.5480618 -1.2410872 -8.9843912 6.3607726e-39
2.5698838 -1.2241451 -9.024518 5.439175e-39
2.6293218 -1.1565959 -9.1843805 3.9658484e-39
2.6421931 -1.1372286 -9.230197 5.4395338e-39
2.6835883 -1.0980521 -9.3229437 4.6119465e-39
2.7052293 -1.0769912 -9.3728008 4.6119465e-39
2.7254648 -1.0576576 -9.4185705 4.7045009e-39
2.7472551 -1.0365223 -9.4686041 4.6119465e-39
2.7743254 -1.0155232 -9.5183401 6.452971e-39
2.7947288 -0.99341488 -9.5706663 6.6373567e-39
2.3125331 -1.4430004 -8.506278 5.992346e-39
2.321671 -1.433772 -8.5281229 6.0845402e-39
2.3651502 -1.3841038 -8.6456671 6.1763799e-39
2.3868213 -1.3594301 -8.7040606 6.0845528e-39
2.4148958 -1.3387556 -8.7530336 4.7019771e-39
2.4341178 -1.3198227 -8.7978525 4.427907e-39
2.4519789 -1.3026062 -8.8386087 4.427907e-39
2.4859123 -1.2717019 -8.9117785 6.3607684e-39
2.5113893 -1.2426748 -8.9804745 6.1770988e-39
2.5215118 -1.2324488 -9.0046806 6.3607726e-39
2.5399275 -1.2140864 -9.0481472 4.427907e-39
2.6039999 -1.1457809 -9.2098179 4.520104e-39
2.6253164 -1.1247641 -9.2595692 4.520104e-39
2.6281807 -1.1122886 -9.2890577 5.4391764e-39
2.6836171 -1.0730801 -9.3819427 3.8740129e-39
2.6999989 -1.0490913 -9.438695 4.6119465e-39
2.7216485 -1.0279087 -9.4888391 4.6119465e-39
2.7433746 -1.0066886 -9.539073 4.6122996e-39
2.7692666 -0.98739648 -9.5847702 5.4398925e-39
2.166678 -1.5633566 -8.221261 1.2921822e-39
2.2567787 -1.4671036 -8.4490786 5.1618482e-39
2.2944698 -1.4280156 -8.5415993 6.0841871e-39
2.3330431 -1.3838682 -8.6460791 6.3607712e-39
2.3544893 -1.3591719 -8.704525 6.2685784e-39
2.4008267 -1.3293551 -8.7751799 6.1767429e-39
2.4140186 -1.318157 -8.8016968 3.8732955e-39
2.4349976 -1.2912641 -8.8653297 6.3607684e-39
2.4588506 -1.261523 -8.9357052 4.520104e-39
2.4747357 -1.2463759 -8.9715633 6.4525955e-39
2.5089908 -1.2092088 -9.0595312 4.4275538e-39
2.5107062 -1.2062629 -9.0664988 6.360774e-39
2.5361331 -1.1770083 -9.1357327 6.3607754e-39
2.5685911 -1.141628 -9.2194691 5.2558614e-39
2.6003704 -1.1163722 -9.2792826 4.5197509e-39
2.6201773 -1.0970421 -9.3250437 4.5197509e-39
2.6545498 -1.0599432 -9.4128494 4.520104e-39
2.6568325 -1.0667484 -9.3967819 5.5313735e-39
2.6785018 -1.0402845 -9.4594049 5.4395338e-39
2.7176275 -0.99802756 -9.5594196 4.6119465e-39
2.7417543 -0.97728002 -9.6085472 5.6232104e-39
2.2300394 -1.4633678 -8.4577837 5.717194e-39
2.2458377 -1.4454056 -8.5002937 5.9005147e-39
2.2603707 -1.4290823 -8.5389252 6.1767373e-39
2.30547 -1.3780221 -8.6597662 6.1763827e-39
2.3311536 -1.3476772 -8.731576 6.0852633e-39
2.3679531 -1.3229647 -8.7901297 4.427907e-39
2.3974042 -1.2946831 -8.8570814 6.2689315e-39
2.4111688 -1.2796272 -8.8927155 6.3604153e-39
2.4349017 -1.2534671 -8.9546299 4.5197509e-39
2.4460533 -1.2403123 -8.9857597 6.360774e-39
2.4846768 -1.2010295 -9.0787458 4.4275538e-39
2.5026309 -1.1835796 -9.1200542 4.6119465e-39
2.5543885 -1.1290914 -9.2490244 4.4275538e-39
2.575424 -1.107981 -9.298996 4.5197509e-39
2.5951047 -1.0886079 -9.3448563 4.6119465e-39
2.6121118 -1.0786796 -9.3683901 5.6232047e-39
2.6298738 -1.0567477 -9.4202881 5.4395366e-39
2.6467512 -1.0359128 -9.4695902 5.5313721e-39
2.7018776 -0.99117875 -9.5755291 4.2409962e-39
2.6978507 -0.97275132 -9.6190481 5.7154046e-39
2.2489378 -1.4052734 -8.5951252 6.1763813e-39
2.3447676 -1.3175031 -8.802928 6.1767359e-39
2.3743906 -1.2818979 -8.8871841 4.2438758e-39
2.3783438 -1.2792772 -8.8933935 6.1771002e-39
2.4109528 -1.2454103 -8.9735565 4.520104e-39
2.417347 -1.2342584 -8.9999342 6.6362791e-39
2.4603624 -1.1928502 -9.0979595 4.427907e-39
2.4782043 -1.1753625 -9.1393576 4.061644e-39
2.4963727 -1.1570716 -9.1826553 3.9654911e-39
2.5124831 -1.1365384 -9.2312412 4.0576853e-39
2.5447412 -1.1180838 -9.2749872 5.439175e-39
2.5675054 -1.0895742 -9.3424492 5.622846e-39
2.5926259 -1.0581137 -9.4168921 5.4395338e-39
2.6096842 -1.0367864 -9.4673576 5.6232118e-39
2.6661336 -0.98070544 -9.600112 4.4275538e-39
2.6714554 -0.9672932 -9.6318235 6.453327e-39
2.2687137 -1.3690966 -8.6806879 6.1763799e-39
2.3018534 -1.3405507 -8.7482805 3.8732898e-39
2.328104 -1.3025439 -8.8381968 5.346978e-39
2.3499827 -1.2732985 -8.9073906 6.0852633e-39
2.3746116 -1.2533048 -8.9547396 4.520104e-39
2.3886187 -1.2282146 -9.014082 6.2689343e-39
2.4360485 -1.1846712 -9.1171741 4.520104e-39
2.4392807 -1.1887039 -9.1076612 3.8743773e-39
2.4667606 -1.1533334 -9.1913528 4.0576895e-39
2.4854696 -1.1351737 -9.2343426 5.4391778e-39
2.5137022 -1.1138539 -9.2848406 5.4388191e-39
2.5407214 -1.0795604 -9.3659868 5.4388191e-39
2.5610538 -1.0538076 -9.4269228 5.715043e-39
2.5779307 -1.0324568 -9.4774437 5.6232104e-39
2.6403868 -0.97204381 -9.6204596 4.5197509e-39
2.0962007 -1.5003313 -8.3698473 1.2928898e-39
2.2193336 -1.387554 -8.6368561 6.1763813e-39
2.2737646 -1.3370597 -8.7564011 3.78146e-39
2.3265898 -1.2586415 -8.9419136 6.360774e-39
2.3313935 -1.254838 -8.950922 6.2689343e-39
2.3674357 -1.2122073 -9.0518055 6.2689343e-39
2.4117339 -1.1764921 -9.1363878 4.427907e-39
2.4216557 -1.1746843 -9.1407051 6.4529668e-39
2.4384131 -1.1517122 -9.195055 5.4391792e-39
2.4545124 -1.1310062 -9.2440481 5.6232061e-39
2.4826317 -1.1096534 -9.2946243 5.4395352e-39
2.5093544 -1.0752946 -9.3759232 5.5313735e-39
2.5261497 -1.0537759 -9.4268389 5.7146857e-39
2.5461447 -1.0281575 -9.4874573 5.7154032e-39
2.1919088 -1.3817781 -8.6503773 6.1763841e-39
2.3827918 -1.1787933 -9.1308212 6.2685826e-39
2.3983016 -1.1581019 -9.1797771 5.4391764e-39
2.4218447 -1.1325788 -9.2401848 6.4533298e-39
2.4400728 -1.1112231 -9.2907238 6.3607712e-39
2.4652209 -1.092628 -9.3347712 3.6903391e-39
2.5074382 -1.0307167 -9.4812355 6.4529682e-39
2.1644616 -1.3760115 -8.6638784 6.1763855e-39
2.2846408 -1.2550868 -8.9501228 6.3604139e-39
2.353709 -1.1726723 -9.1451502 6.360774e-39
2.3675661 -1.1539855 -9.1893625 5.5310147e-39
2.4040844 -1.1302822 -9.2455301 4.3331918e-39
2.4139411 -1.1081549 -9.2978544 5.5313707e-39
2.4888585 -1.0268162 -9.490366 4.4275538e-39
2.1782398 -1.3187861 -8.7991428 6.1767457e-39
2.3246026 -1.1665615 -9.1594563 6.3611299e-39
2.3416336 -1.1462302 -9.2075682 6.4529682e-39
2.3663197 -1.1089858 -9.2956753 5.5310175e-39
2.3936758 -1.0882065 -9.3448925 5.4395366e-39
2.462476 -1.0273911 -9.4888887 6.5448093e-39
2.1031287 -1.3712193 -8.6749229 6.1763827e-39
2.1352067 -1.3312845 -8.7694187 6.1760282e-39
2.1630187 -1.2957743 -8.8534422 6.2685756e-39
2.2156672 -1.2570467 -8.9451799 6.3607698e-39
2.2954719 -1.1604602 -9.1737394 6.2696433e-39
2.3164601 -1.1344696 -9.23524 6.4529668e-39
2.3484845 -1.0938959 -9.3312464 6.360774e-39
2.3668325 -1.0899849 -9.3405695 4.3331918e-39
2.0465393 -1.4012911 -8.6036177 5.9923544e-39
2.0638158 -1.389498 -8.6315584 4.0584224e-39
2.1015511 -1.3315108 -8.768733 6.2682252e-39
2.1160116 -1.3138379 -8.8105516 6.2682266e-39
2.1698976 -1.2732894 -8.9065962 6.2685784e-39
2.2592208 -1.1619351 -9.1700907 6.3611285e-39
2.2686315 -1.1517515 -9.1941929 6.360774e-39
2.2966897 -1.1155165 -9.2799301 6.360774e-39
2.3187914 -1.0877006 -9.3457489 6.4529696e-39
2.3558438 -1.0701745 -9.3873253 6.4526109e-39
1.9951342 -1.4248782 -8.547657 4.6980016e-39
2.114692 -1.3001825 -8.8428087 5.1636713e-39
2.1455765 -1.2618718 -8.9334621 6.360774e-39
2.2116103 -1.1767703 -9.1348248 6.360774e-39
2.2301106 -1.1558448 -9.1843481 6.3611285e-39
2.3521886 -1.0303384 -9.4814253 6.5451624e-39
2.3691223 -1.0096943 -9.5302773 6.5451624e-39
1.9764684 -1.4076715 -8.5882263 5.713943e-39
2.0107307 -1.3927176 -8.6237106 6.0841955e-39
2.0495791 -1.3421286 -8.7434111 6.084906e-39
2.064991 -1.3227317 -8.7893076 6.1767429e-39
2.0729439 -1.3142054 -8.8094883 6.1771016e-39
2.0877373 -1.295766 -8.8531208 6.1771016e-39
2.2577615 -1.1062011 -9.3017635 6.4526095e-39
2.2708166 -1.0871021 -9.3469467 5.6228502e-39
2.2917128 -1.0640674 -9.4014635 6.4533227e-39
2.3220632 -1.0240551 -9.4961348 6.4533241e-39
1.9493464 -1.4020426 -8.6014023 5.6228264e-39
2.0372207 -1.3169556 -8.8028297 6.2685784e-39
2.0405147 -1.3128967 -8.8124342 5.3473395e-39
2.0496063 -1.2968128 -8.8504753 4.9781997e-39
2.1045461 -1.2585282 -8.9411764 6.5440905e-39
2.162077 -1.1841677 -9.1171236 6.360774e-39
2.1846237 -1.1569517 -9.1815271 6.5447939e-39
2.1954501 -1.1459167 -9.2076473 5.5306532e-39
2.2437308 -1.0769869 -9.3707218 5.4395352e-39
2.2697639 -1.0464854 -9.4429035 6.360774e-39
1.9539788 -1.3825947 -8.6473713 5.9934264e-39
2.0025861 -1.3214788 -8.7919855 6.2685784e-39
2.0172746 -1.3026701 -8.8364897 6.2685784e-39
2.1332462 -1.1781815 -9.1311359 6.360774e-39
2.1631136 -1.1427698 -9.2149363 5.5313693e-39
2.2441454 -1.0339627 -9.472374 6.360774e-39
1.9101933 -1.3990154 -8.6083775 5.7157437e-39
1.923618 -1.3817155 -8.6493111 5.8097554e-39
1.9838567 -1.3028928 -8.8358126 6.0845514e-39
1.9977462 -1.285055 -8.8780203 6.1763785e-39
2.1043906 -1.1722051 -9.1451263 6.4526095e-39
2.1224005 -1.1531415 -9.1902475 5.5313707e-39
2.1364522 -1.1327145 -9.2385731 5.5317266e-39
2.1525245 -1.1120282 -9.2875195 4.0576839e-39
2.1904397 -1.0570229 -9.4176474 6.360774e-39
2.1845429 -1.067005 -9.3940372 4.0580426e-39
1.8726634 -1.4063352 -8.5909138 2.9477364e-39
1.8865861 -1.3880004 -8.6342945 5.8083121e-39
1.8963938 -1.3760879 -8.6624842 5.7179185e-39
1.947863 -1.306307 -8.8275833 6.0845402e-39
1.9620266 -1.2877808 -8.871418 6.0849046e-39
1.9973691 -1.2657938 -8.9235249 4.1488005e-39
2.0718753 -1.1717521 -9.1460485 6.4526095e-39
2.0981002 -1.1352842 -9.2323275 6.4529682e-39
2.1134501 -1.1154107 -9.2793512 6.5448065e-39
2.1409962 -1.0770631 -9.3700771 6.5451624e-39
2.1814191 -1.050783 -9.4323502 3.9662071e-39
1.8639125 -1.3787858 -8.6559629 5.9015867e-39
1.9259076 -1.2939434 -8.8566952 6.084906e-39
1.9706657 -1.2615204 -8.9335012 6.0856248e-39
1.9685535 -1.2626114 -8.930913 3.8740115e-39
2.0466075 -1.16028 -9.1730385 6.4529668e-39
2.0689471 -1.1292509 -9.2464504 6.4526095e-39
2.0882025 -1.1031271 -9.3082581 6.4526095e-39
2.1307819 -1.0446792 -9.4465418 6.4526095e-39
2.1638956 -1.0321825 -9.4762173 6.4529696e-39
1.8265835 -1.383368 -8.644968 5.4369988e-39
1.8536278 -1.3620769 -8.6953936 3.5088289e-39
1.8587147 -1.3539195 -8.7146893 3.965847e-39
1.92551 -1.2791109 -8.891737 6.2682182e-39
1.9425458 -1.2557343 -8.9470444 6.360774e-39
2.0290692 -1.1508447 -9.1952515 3.9662071e-39
2.0424347 -1.1300178 -9.2445183 4.0580426e-39
2.0947645 -1.0794281 -9.3642797 6.4526095e-39
2.1264715 -1.0376019 -9.4632435 6.5448051e-39
1.8089921 -1.3657708 -8.6864634 5.7182758e-39
1.8837283 -1.2919652 -8.8611765 6.1767429e-39
1.8975571 -1.2733589 -8.9052 6.2685784e-39
1.9144032 -1.2499565 -8.9605675 5.9934292e-39
1.9286227 -1.239121 -8.9862328 4.1513271e-39
2.0029013 -1.1580691 -9.1780643 6.4526095e-39
2.0245023 -1.1275949 -9.2501612 6.4526095e-39
2.0433745 -1.1014731 -9.3119631 6.360774e-39
2.0588434 -1.0807847 -9.3609123 6.4526137e-39
2.096622 -1.0314618 -9.4776154 6.5444492e-39
1.8088477 -1.3470128 -8.7307816 4.1513271e-39
1.8456347 -1.3006564 -8.8404713 4.0591315e-39
1.8662546 -1.2730372 -8.905818 6.1771016e-39
1.8828973 -1.249619 -8.9612226 6.1770988e-39
1.9006729 -1.224412 -9.0208578 6.2692902e-39
1.9075781 -1.2076288 -9.0605421 5.4395324e-39
1.9980463 -1.1259232 -9.2539911 5.5313749e-39
2.0140421 -1.0954411 -9.3260813 6.4526095e-39
2.0254979 -1.0808867 -9.3605204 6.4526095e-39
2.0453792 -1.0528886 -9.4267597 6.4529668e-39
2.0667481 -1.025331 -9.4919643 6.5448037e-39
1.7735404 -1.3574132 -8.706049 5.7179185e-39
1.784309 -1.3521383 -8.7185602 5.2551467e-39
1.8031217 -1.3156172 -8.8049316 5.9934306e-39
1.8229357 -1.2930207 -8.8584089 4.1509768e-39
1.8380322 -1.2716186 -8.9090424 4.1488061e-39
1.863924 -1.2622676 -8.9312525 4.2409962e-39
1.8666636 -1.2207283 -9.0294065 5.3476997e-39
1.9500034 -1.1493489 -9.1984282 5.6228474e-39
1.9662384 -1.1155928 -9.2782545 6.5448079e-39
1.9896852 -1.0871644 -9.3455267 5.5317294e-39
2.0156953 -1.0467931 -9.4410257 6.4526137e-39
2.0271311 -1.0321308 -9.4757195 6.3611327e-39
1.7462746 -1.3518388 -8.7190962 5.8097554e-39
1.7849382 -1.300145 -8.841404 5.1640273e-39
1.8698057 -1.2039267 -9.0691175 5.4395324e-39
1.9193777 -1.1455779 -9.2071991 5.6224929e-39
1.9323133 -1.1250095 -9.2558527 5.622853e-39
1.709674 -1.3522083 -8.7180567 5.0721904e-39
1.7244375 -1.3484313 -8.7270479 5.438459e-39
1.7700086 -1.2906635 -8.8637381 3.4162746e-39
1.8159212 -1.2386696 -8.9867878 5.3476969e-39
1.8278276 -1.2193261 -9.0325441 5.3476983e-39
1.8396181 -1.2001919 -9.0778046 5.4395352e-39
1.8726536 -1.1459134 -9.2061939 5.5310161e-39
1.9478503 -1.0530173 -9.4260139 4.2424255e-39
1.6898445 -1.3317435 -8.7663183 5.2555096e-39
1.7558917 -1.2775979 -8.8945436 6.1767415e-39
1.7688503 -1.2638239 -8.927145 5.6224873e-39
1.7823449 -1.2414143 -8.9801521 5.2555068e-39
1.7944573 -1.2214131 -9.027462 5.3480584e-39
1.8149451 -1.1919565 -9.0971489 6.0852675e-39
1.8382914 -1.1558188 -9.1826353 6.2696602e-39
1.66213 -1.3362684 -8.7555017 5.7171926e-39
1.7313167 -1.271464 -8.9089241 5.3473409e-39
1.7407318 -1.2538326 -8.9506235 6.0852689e-39
1.7787501 -1.1953423 -9.0889864 6.4529626e-39
1.7925633 -1.1753656 -9.1362467 6.3614873e-39
1.8470179 -1.1119568 -9.2863045 2.9498846e-39
1.8699851 -1.0947633 -9.3270311 4.9771333e-39
1.9005586 -1.0549796 -9.4211636 3.0428019e-39
1.6602343 -1.319689 -8.7946644 3.5084758e-39
1.701704 -1.2678845 -8.9172468 5.4395352e-39
1.7145286 -1.2459084 -8.9692268 5.2558572e-39
1.734675 -1.2106947 -9.0525141 5.440233e-39
1.7459674 -1.1915065 -9.0979013 4.9785388e-39
1.8101627 -1.1206942 -9.2654953 1.568039e-39
1.8473418 -1.0875196 -9.3440418 2.7694422e-39
1.6300117 -1.3363822 -8.7550879 5.0718302e-39
1.6407311 -1.3178233 -8.7989845 5.2551383e-39
1.7015483 -1.2106553 -9.0524578 2.9516825e-39
1.7156513 -1.187879 -9.1063347 4.6493962e-40
1.7602671 -1.1629274 -9.1654882 2.1244357e-39
1.789027 -1.1156639 -9.2772846 1.9361517e-39
1.7800665 -1.1176202 -9.2726212 2.7680255e-39
1.8162441 -1.0837315 -9.3528519 3.0424712e-39
1.8305938 -1.0592002 -9.4108753 5.5313664e-39
1.640622 -1.264075 -8.925971 2.5836244e-39
1.6713951 -1.2070621 -9.060811 1.6595438e-39
1.7192147 -1.1695783 -9.1495876 2.0286794e-39
1.7316551 -1.1571308 -9.1790533 5.5328196e-39
1.7511361 -1.1260622 -9.2525444 6.3622117e-39
1.7939187 -1.0632113 -9.4012318 5.7161206e-39
1.8070253 -1.0477715 -9.4377708 4.5175859e-39
1.6771015 -1.1865644 -9.1092653 5.3473339e-39
1.6874447 -1.1725943 -9.1423187 6.545524e-39
1.6979146 -1.1577997 -9.1773205 6.4529738e-39
1.724975 -1.1386849 -9.2226048 3.506301e-39
1.7315391 -1.1147686 -9.2791395 5.4398939e-39
1.7472566 -1.0979574 -9.3189287 4.150597e-39
1.7626191 -1.0594369 -9.4100084 5.8072415e-39
1.7765446 -1.0348645 -9.4681263 5.8075974e-39
1.5746036 -1.2933345 -8.8565435 1.8485831e-39
1.6082929 -1.2558063 -8.9453611 2.3988814e-39
1.6659163 -1.1491005 -9.1977291 5.440254e-39
1.6979439 -1.1274915 -9.2489271 4.5175817e-39
1.7202297 -1.0888423 -9.3403425 4.1505984e-39
1.5792836 -1.2529764 -8.9519157 3.6917713e-39
1.6027112 -1.2048955 -9.0656185 6.3611327e-39
1.6735796 -1.1135601 -9.2817316 4.1505984e-39
1.7011667 -1.0747248 -9.3736095 5.5320895e-39
1.7233644 -1.0485572 -9.4355354 6.2692972e-39
1.5139647 -1.2909088 -8.8619995 3.6013749e-39
1.5200057 -1.2878977 -8.8691416 3.8747346e-39
1.532637 -1.2717006 -8.907465 3.9669302e-39
1.5387048 -1.2686759 -8.9146395 3.6010218e-39
1.5580715 -1.2317102 -9.0020638 4.2409948e-39
1.5708526 -1.2030822 -9.0697594 5.715043e-39
1.5945598 -1.1644835 -9.1610603 6.2689413e-39
1.6073852 -1.1442863 -9.2088375 6.2693014e-39
1.6596301 -1.0957412 -9.3237686 6.2693014e-39
1.6666843 -1.0753784 -9.3719101 5.6235663e-39
1.6705703 -1.0579255 -9.4131622 4.3339107e-39
1.6964849 -1.0470041 -9.4390831 5.6239236e-39
1.5042917 -1.2672315 -8.9178963 3.8747346e-39
1.5156305 -1.2418041 -8.9780226 6.2689371e-39
1.5343361 -1.2145139 -9.0425854 6.2693e-39
1.6097171 -1.1183861 -9.2700405 5.5320951e-39
1.6290442 -1.0761818 -9.3698416 4.1505984e-39
1.6717585 -1.029572 -9.4801569 5.7157605e-39
1.5659021 -1.1421943 -9.2135916 6.2693014e-39
1.5833155 -1.1155624 -9.2765923 6.4526137e-39
1.6264184 -1.059281 -9.4097595 4.0591216e-39
1.6274542 -1.0425622 -9.4492655 6.2693014e-39
1.6402047 -1.0258883 -9.4887171 5.8072387e-39
1.5372623 -1.1364527 -9.2270279 6.3604181e-39
1.5497566 -1.1161369 -9.2750835 6.2692972e-39
1.569925 -1.1087252 -9.2926855 4.2420738e-39
1.5804034 -1.0736996 -9.3754854 5.623925e-39
1.5897852 -1.0559651 -9.417429 5.6232118e-39
1.6008823 -1.046397 -9.4400845 4.059479e-39
1.5085975 -1.1307197 -9.2404442 6.4526137e-39
1.520939 -1.1103687 -9.2885809 6.3611327e-39
1.5596977 -1.0648478 -9.3963051 4.0591216e-39
1.5899183 -1.03391 -9.4695377 6.3611341e-39
1.5984112 -1.0154729 -9.5131359 4.0591258e-39
1.4799082 -1.1249945 -9.2538395 6.5448093e-39
1.5244038 -1.0683676 -9.3878307 4.2427926e-39
1.5477127 -1.0491954 -9.4332323 6.4526095e-39
1.560499 -1.0280255 -9.4833069 6.4529724e-39
1.4421068 -1.125381 -9.2527552 5.6239278e-39
1.5160131 -1.0485929 -9.4345121 6.4533255e-39
1.5310537 -1.0221506 -9.4970531 6.4529682e-39
4.2944469 -1.9041669 -7.425683 1.4693749e-39
4.2882485 -1.9035486 -7.4271159 2.3027243e-39
4.3216982 -1.8851725 -7.4706836 5.8972581e-39
4.2656293 -1.8998886 -7.4356613 4.5917748e-40
4.2690268 -1.896068 -7.4447041 1.7481423e-39
4.2927418 -1.8808734 -7.4807096 6.3575314e-39
4.2402091 -1.8917893 -7.4546814 4.5917748e-40
4.2637858 -1.8765744 -7.4907351 6.0812962e-39
4.2113914 -1.8875107 -7.4646597 7.3468397e-40
4.2348294 -1.8722755 -7.5007615 5.896905e-39
4.2608075 -1.8555739 -7.5403385 4.7948818e-39
4.4063511 -1.7628032 -7.76018 6.1731415e-39
4.1825738 -1.8832321 -7.474638 1.6534075e-39
4.205873 -1.8679764 -7.510788 3.5948911e-39
4.1503592 -1.8827744 -7.475574 3.2221597e-39
4.1735034 -1.8675164 -7.5117278 1.6544739e-39
4.1769171 -1.8636771 -7.5208139 2.7589044e-40
4.1149607 -1.8791199 -7.4840479 1.8431755e-39
4.0927243 -1.8742174 -7.4955301 2.3027201e-39
4.115591 -1.858918 -7.5317798 0
4.1106176 -1.8572574 -7.5356817 3.5023241e-39
4.0866346 -1.8546191 -7.5418062 1.011631e-39
4.0900488 -1.8507799 -7.5508924 5.067496e-39
4.0576787 -1.8503197 -7.5518322 1.102026e-39
4.0536642 -1.8502229 -7.5520439 3.2257512e-39
4.1088076 -1.8142058 -7.6373887 5.9887503e-39
4.0287223 -1.8460207 -7.5618582 1.1038294e-39
4.0570216 -1.8253181 -7.6108994 6.0816493e-39
4.0279098 -1.8209956 -7.6209798 6.173845e-39
4.0503058 -1.8055201 -7.6576447 5.9887503e-39
3.9418535 -1.8331234 -7.5919375 2.2987769e-39
3.9696853 -1.8123511 -7.6411395 6.3582348e-39
3.8473055 -1.8750443 -7.4924655 2.0283039e-39
3.8668036 -1.857829 -7.533227 2.3963549e-39
3.9070621 -1.8278484 -7.6042418 2.0250584e-39
3.8385296 -1.8549578 -7.5398827 2.3963549e-39
3.8528659 -1.8435625 -7.5668707 2.4867583e-39
3.8839409 -1.8245251 -7.611989 3.2221597e-39
3.9114609 -1.803707 -7.6612997 5.6235481e-39
3.9333026 -1.7881485 -7.6981573 6.0809459e-39
3.8102591 -1.8520976 -7.5465121 2.2119692e-39
3.8333657 -1.8357106 -7.5853329 4.1448377e-39
3.8549848 -1.8202261 -7.6220155 3.4969249e-39
3.8823485 -1.7993844 -7.67138 5.6231949e-39
3.9040515 -1.7838057 -7.7082853 6.0809459e-39
3.7819917 -1.8492497 -7.553113 2.2123196e-39
3.8045478 -1.8314322 -7.5953112 4.0529924e-39
3.8498044 -1.7989219 -7.6723256 5.1593399e-39
3.8453157 -1.7978663 -7.6747994 3.9651183e-39
3.8748009 -1.7794628 -7.7184138 6.1738506e-39
3.7544212 -1.8426424 -7.5685978 3.3183e-39
3.7632728 -1.8316472 -7.5946164 2.6718558e-39
3.7928722 -1.8151084 -7.6338263 1.8420923e-39
3.8206925 -1.7945998 -7.6824055 5.067496e-39
3.8166153 -1.7949991 -7.6814442 4.0573098e-39
3.8455503 -1.7751199 -7.7285419 5.8068757e-39
3.7210314 -1.8389269 -7.5772257 2.1201323e-39
3.7408226 -1.8236061 -7.613513 2.6722355e-39
3.768116 -1.8073288 -7.6520939 3.3143553e-39
3.79158 -1.7902775 -7.6924858 5.342285e-39
3.795012 -1.7864177 -7.7016206 6.0812962e-39
3.8162992 -1.7707771 -7.7386699 5.8068757e-39
3.8376191 -1.7550997 -7.775806 6.3575314e-39
3.7123723 -1.8207757 -7.6200709 2.6707894e-39
3.7391598 -1.8030294 -7.6621199 3.3143553e-39
3.7624679 -1.7859554 -7.7025657 5.341213e-39
3.7658999 -1.7820954 -7.7117004 6.0812962e-39
3.7870486 -1.7664344 -7.7487979 6.1738506e-39
3.8082297 -1.7507365 -7.7859817 6.4497284e-39
3.7034523 -1.8025782 -7.6630249 2.0254172e-39
3.7235639 -1.7867854 -7.700429 3.3165119e-39
3.7367876 -1.777773 -7.7217813 6.0812962e-39
3.6726496 -1.8022493 -7.663662 2.6725943e-39
3.7042434 -1.777311 -7.7227263 4.6058158e-39
3.7076755 -1.7734509 -7.7318616 5.9891006e-39
3.6110263 -1.8213528 -7.6182489 2.9484623e-39
3.6522913 -1.790132 -7.6921988 2.9491685e-39
3.6751318 -1.7729884 -7.7328062 4.5139705e-39
3.6785636 -1.7691287 -7.7419415 5.9891006e-39
3.5823472 -1.8170948 -7.6281791 2.9491685e-39
3.5945117 -1.8041805 -7.6587467 2.9491756e-39
3.6233349 -1.7858331 -7.7022247 2.7647549e-39
3.6149001 -1.7855686 -7.7028117 2.6729418e-39
3.649451 -1.7648063 -7.7520213 6.0816493e-39
3.5536685 -1.812837 -7.6381092 2.7644045e-39
3.5710669 -1.7978703 -7.6735482 2.9480867e-39
3.589973 -1.7824225 -7.7101316 2.2101686e-39
3.6169071 -1.764344 -7.7529669 4.052642e-39
3.6203392 -1.7604841 -7.7621017 6.0816493e-39
3.5249891 -1.808579 -7.6480393 2.8562667e-39
3.5425553 -1.7950877 -7.6799936 3.1332039e-39
3.587795 -1.7600217 -7.7630467 3.4097908e-39
3.5939162 -1.7581061 -7.7675996 4.1480677e-39
3.6115437 -1.7403772 -7.8095665 6.4500787e-39
3.4910684 -1.8021991 -7.6629591 1.7517072e-39
3.4996912 -1.8005184 -7.6669683 4.2402605e-39
3.5326746 -1.7755158 -7.7261906 1.9357341e-39
3.5457559 -1.7639561 -7.7535605 2.213044e-39
3.562115 -1.7518396 -7.7822618 6.2642427e-39
3.5785298 -1.7360898 -7.8195467 4.2413479e-39
3.4626412 -1.799443 -7.669342 1.6587927e-39
3.4752207 -1.7881935 -7.6959777 2.9491812e-39
3.4994626 -1.7684851 -7.7426515 2.119775e-39
3.5295706 -1.7513769 -7.7832069 3.7760551e-39
3.5330024 -1.7475173 -7.7923422 6.2649462e-39
3.5495617 -1.7332845 -7.8260431 4.4253776e-39
3.4342158 -1.7966987 -7.6756978 1.7502778e-39
3.4363568 -1.7929511 -7.6845608 3.1339157e-39
3.4785538 -1.7643375 -7.7523556 3.9604464e-39
3.5004582 -1.7470549 -7.7932873 3.7760551e-39
3.5022073 -1.7460889 -7.795577 4.054793e-39
3.520596 -1.7304919 -7.8325109 4.4250147e-39
3.733974 -1.5628533 -8.2295446 6.7273873e-39
3.4299192 -1.7758114 -7.7250271 5.1593399e-39
3.4495976 -1.7600383 -7.7623816 4.0529924e-39
3.4788108 -1.7301118 -7.83322 4.2395346e-39
3.5327253 -1.6935737 -7.9197903 6.4511605e-39
3.4111917 -1.762632 -7.7560802 2.8555352e-39
3.3824964 -1.759899 -7.7624068 2.6718628e-39
3.614202 -1.5725044 -8.2062006 6.8188641e-39
3.4600201 -1.6683263 -7.9791107 6.4511605e-39
3.4814599 -1.6507715 -8.0206823 6.6351917e-39
3.3898485 -1.6974415 -7.9100046 5.2544054e-39
3.4145439 -1.6760269 -7.960711 6.8177851e-39
3.61955 -1.5083532 -8.35779 7.0028952e-39
3.6081929 -1.4883937 -8.4048958 7.0028952e-39
3.4564114 -1.5476444 -8.2642212 4.8856327e-39
3.5051954 -1.5124639 -8.3475609 6.7284677e-39
3.3150992 -1.6423552 -8.0398149 6.8188641e-39
3.3264973 -1.6024781 -8.1340809 6.7284677e-39
3.3451977 -1.586217 -8.1725855 6.7284677e-39
3.3829069 -1.5545403 -8.2475958 6.7281146e-39
3.3955586 -1.5419877 -8.2773104 5.25263e-39
3.2135117 -1.6712611 -7.9710612 4.6983618e-39
3.2296956 -1.6535047 -8.0130854 4.6094116e-39
3.2830732 -1.6033221 -8.1318903 4.7023274e-39
3.3524601 -1.5500201 -8.2581377 6.7284677e-39
3.1841223 -1.6668974 -7.9812379 3.4097964e-39
3.1817946 -1.6682006 -7.9781475 4.5168362e-39
3.2112091 -1.6414038 -8.0415926 6.8188641e-39
3.2462578 -1.6113726 -8.1127033 7.0028952e-39
3.2665052 -1.5935711 -8.1548538 7.0028952e-39
3.2849286 -1.5772685 -8.1934538 6.7284677e-39
3.1547329 -1.662534 -7.9914136 2.3935089e-39
3.1581974 -1.6586374 -8.0006361 6.4489647e-39
3.2547939 -1.5727944 -8.2038879 6.9121485e-39
3.1253436 -1.6581707 -8.0015898 1.3811226e-39
3.128808 -1.654274 -8.0108118 5.4344821e-39
3.1322727 -1.6503774 -8.0200338 7.0043077e-39
3.1521184 -1.6326306 -8.0620527 6.7281146e-39
3.2246592 -1.5683206 -8.2143221 6.9121485e-39
3.3617907 -1.4471186 -8.5012989 7.2805611e-39
3.0959539 -1.6538069 -8.0117655 1.6566445e-39
3.0994189 -1.6499108 -8.0209885 5.341213e-39
3.1028833 -1.6460136 -8.0302095 7.0043077e-39
3.1225731 -1.6282438 -8.0722828 7.0036042e-39
3.1945248 -1.5638467 -8.2247562 6.9124988e-39
3.3305297 -1.4424769 -8.5121231 7.2805611e-39
3.0665646 -1.6494437 -8.0219421 1.0127016e-39
3.0700293 -1.6455469 -8.0311642 4.9738627e-39
3.073494 -1.6416508 -8.0403852 7.0043077e-39
3.0930278 -1.6238574 -8.0825129 7.0028952e-39
3.1643903 -1.5593727 -8.2351894 7.0050532e-39
3.2199781 -1.5093808 -8.3535528 7.0050532e-39
3.2415626 -1.4897456 -8.4000416 7.0050532e-39
3.2992687 -1.4378358 -8.5229473 7.2798422e-39
3.0371752 -1.64508 -8.0321178 2.2072875e-39
3.0406399 -1.6411837 -8.0413399 5.0660583e-39
3.0441043 -1.6372875 -8.0505619 7.0036042e-39
3.0634823 -1.6194708 -8.0927439 7.0028952e-39
3.1342559 -1.5548985 -8.2456245 7.0050532e-39
3.1697814 -1.5228972 -8.3213911 7.0036042e-39
3.2877717 -1.4149438 -8.5769815 7.3724064e-39
2.9416115 -1.7056096 -7.8886776 1.6580822e-39
3.0077858 -1.6407167 -8.0422945 2.7608088e-39
3.0080156 -1.6368544 -8.0514212 4.7952251e-39
3.033937 -1.6150839 -8.1029739 6.728818e-39
3.1575649 -1.5011551 -8.3727045 4.8867187e-39
3.2469115 -1.4132509 -8.5807953 5.4377359e-39
3.4228728 -1.2570086 -8.9507351 7.2802051e-39
3.468107 -1.2149512 -9.0503054 7.3731098e-39
2.9011316 -1.7029582 -7.8947582 1.750638e-39
2.9217563 -1.6824745 -7.9432468 2.8562484e-39
2.9818611 -1.6324567 -8.0616932 5.0646262e-39
2.9931564 -1.6196829 -8.0919237 4.977471e-39
3.0043914 -1.6106973 -8.113204 6.728818e-39
3.127001 -1.4983965 -8.3790846 5.162221e-39
3.1843233 -1.4437352 -8.5084887 7.2798422e-39
3.2054861 -1.4239117 -8.5554199 7.2805611e-39
3.2155263 -1.4104292 -8.5873194 5.3451815e-39
3.3900523 -1.2521358 -8.9621 7.2802051e-39
3.4349225 -1.2100242 -9.0617962 7.4653083e-39
2.8723252 -1.7003783 -7.9007235 1.9353866e-39
2.8987226 -1.6728959 -7.9657736 2.3949172e-39
2.9353268 -1.6443697 -8.0333357 2.3027201e-39
2.9524713 -1.6280935 -8.0718679 3.5923701e-39
2.9559362 -1.624197 -8.08109 7.1890885e-39
3.1532354 -1.4391198 -8.5192528 7.2805611e-39
3.4017382 -1.2050977 -9.0732861 7.4649551e-39
2.8535674 -1.6902405 -7.9245906 3.4094404e-39
2.8697011 -1.6702803 -7.9718218 2.4871128e-39
2.8858299 -1.6535078 -8.0115223 2.4871184e-39
2.8958104 -1.6423831 -8.0378504 5.5208917e-40
2.9109805 -1.6264564 -8.0755482 1.933939e-39
2.9265466 -1.6198335 -8.0912666 7.0968929e-39
2.8247499 -1.685962 -7.9345684 3.4097908e-39
2.8406787 -1.6676773 -7.9778409 2.0272024e-39
2.8566537 -1.6508955 -8.0175619 2.3949172e-39
2.8716679 -1.6349841 -8.0552225 6.4357715e-40
2.8936927 -1.6193664 -8.0922213 1.1038294e-39
2.8971572 -1.6154699 -8.1014433 7.0968929e-39
2.805829 -1.6705614 -7.9708681 2.3030789e-39
2.8372469 -1.637182 -8.0498743 1.8474719e-40
2.8643556 -1.6212841 -8.0875578 6.4356594e-40
2.8722801 -1.6119167 -8.109725 5.1633014e-39
2.8995228 -1.5806547 -8.1837091 6.7281146e-39
2.8531814 -1.5926816 -8.1550846 7.3731098e-39
2.9530668 -1.4952921 -8.3856325 7.2805611e-39
2.9715509 -1.4770904 -8.4287195 7.2798576e-39
3.2036512 -1.2496876 -8.9670391 7.3727595e-39
2.9226203 -1.4907712 -8.3961744 7.2798422e-39
2.9409487 -1.4725467 -8.4393158 7.0050532e-39
3.1892598 -1.2272496 -9.0199871 7.5575053e-39
2.8776093 -1.5004412 -8.3731241 7.2809142e-39
2.9103463 -1.468003 -8.4499111 7.2809142e-39
3.0577011 -1.3210149 -8.7978582 7.1890885e-39
3.1564393 -1.2223772 -9.0313501 7.5575053e-39
3.0257642 -1.3162733 -8.808917 7.2816373e-39
3.0457022 -1.2960622 -8.8567581 7.4649551e-39
3.2076228 -1.1323212 -9.2443504 7.5575053e-39
2.7511029 -1.5586188 -8.2350998 7.095451e-39
2.9581449 -1.3476784 -8.7344112 7.3727595e-39
2.9938276 -1.3115313 -8.8199749 7.3731098e-39
2.7179198 -1.558147 -8.2360649 6.4511339e-39
2.9460847 -1.3227949 -8.7931471 7.4653083e-39
2.7230427 -1.5173852 -8.3323927 7.0050532e-39
2.7389541 -1.500731 -8.3718128 7.1890941e-39
3.029027 -1.1985345 -9.0871048 7.4653083e-39
2.6930463 -1.5129319 -8.3427782 7.0050532e-39
2.7088192 -1.4962569 -8.382247 7.0972488e-39
2.8479352 -1.3496413 -8.7292747 7.4649551e-39
2.996206 -1.193661 -9.0984697 7.5571522e-39
3.0611517 -1.1240792 -9.2631598 5.7146787e-39
2.6288674 -1.5449256 -8.2668991 4.6983618e-39
2.6494584 -1.5227664 -8.3193455 7.0050532e-39
2.7954085 -1.3677198 -8.6863251 7.2802051e-39
2.8830643 -1.2702392 -8.9170322 5.5302917e-39
2.9633856 -1.1887884 -9.1098337 7.4653083e-39
2.5991836 -1.5405183 -8.2771769 4.6039983e-39
2.6196184 -1.5183362 -8.3296785 7.0050532e-39
2.7641478 -1.3630784 -8.6971493 7.3727595e-39
2.7813978 -1.344478 -8.7411728 7.4649551e-39
2.9266958 -1.188267 -9.1108999 7.4649551e-39
2.9871218 -1.1231527 -9.2650146 7.6497009e-39
2.9910564 -1.1187278 -9.2754869 7.5575053e-39
2.5897782 -1.5139059 -8.3400097 7.0050476e-39
2.6388559 -1.4604475 -8.4665337 7.3724064e-39
2.556421 -1.5134315 -8.3409796 7.2808988e-39
2.5599389 -1.5094754 -8.3503418 7.0050532e-39
2.6568244 -1.4029298 -8.6025085 7.3727595e-39
2.6869214 -1.3698863 -8.6807146 7.3727595e-39
2.7087765 -1.33684 -8.7588902 5.4384562e-39
2.9039724 -1.1311942 -9.2456388 7.6497009e-39
2.977577 -1.0503838 -9.4368973 7.7418966e-39
2.498637 -1.5400425 -8.2778454 6.1677311e-39
2.5136309 -1.5233611 -8.3173256 7.3730944e-39
2.5300984 -1.5050449 -8.3606749 7.0050532e-39
2.6558335 -1.365271 -8.6914787 7.3727595e-39
2.6740503 -1.3450098 -8.7394304 7.4649551e-39
2.690851 -1.3263193 -8.7836657 7.4653083e-39
2.7604973 -1.248899 -8.966897 7.4653083e-39
2.7789371 -1.2283876 -9.0154409 7.5571522e-39
2.7974176 -1.2078302 -9.0640945 7.5571522e-39
2.5002584 -1.5006144 -8.371007 6.7299054e-39
2.7283874 -1.2441311 -8.9780159 7.5571522e-39
2.7794626 -1.1867085 -9.1139154 7.5571522e-39
2.853622 -1.1033322 -9.3112383 7.6497009e-39
2.4395461 -1.5312696 -8.2983055 3.7738845e-39
2.454263 -1.514547 -8.337882 7.5571522e-39
2.4704187 -1.4961842 -8.3813391 7.0972488e-39
2.4866111 -1.4777803 -8.4248934 7.0968929e-39
2.517694 -1.4424584 -8.5084867 7.3727595e-39
2.4110019 -1.5235467 -8.3164225 3.1321165e-39
2.5802674 -1.3310858 -8.771903 7.4653083e-39
2.7673221 -1.1158867 -9.2811861 7.7415434e-39
2.7868717 -1.0934216 -9.3343515 7.7418966e-39
2.3811004 -1.5210299 -8.3222332 2.2119622e-39
2.3891068 -1.5099843 -8.3483667 5.4391708e-39
2.5029457 -1.3800832 -8.6557894 7.2816429e-39
2.5314829 -1.3468083 -8.7345352 7.3734868e-39
2.5490069 -1.3264444 -8.7827272 7.4653083e-39
2.7341383 -1.1109596 -9.292676 7.7415434e-39
2.3448565 -1.5276929 -8.3063269 1.104907e-39
2.3511963 -1.5185243 -8.3280182 2.3005621e-39
2.3591056 -1.5074867 -8.3541307 5.4395267e-39
2.3808985 -1.4828935 -8.4123354 7.0968929e-39
2.5177455 -1.3218035 -8.7935514 7.5571522e-39
2.7048655 -1.1016331 -9.31458 7.6493478e-39
2.7240562 -1.0790864 -9.3679361 7.7415434e-39
2.3193512 -1.5199721 -8.3244534 1.5665984e-39
2.3666272 -1.4599668 -8.4664373 7.1890885e-39
2.6026778 -1.1789168 -9.1315231 7.6493478e-39
2.6552174 -1.1176159 -9.2765923 5.8068771e-39
2.6716809 -1.0967059 -9.3260698 7.7415434e-39
2.6906815 -1.0741311 -9.3794928 7.9259305e-39
2.7050354 -1.0541048 -9.4268723 5.8065198e-39
2.3058429 -1.4925109 -8.3892727 7.3727385e-39
2.3212187 -1.4740325 -8.4329996 7.2812898e-39
2.4842923 -1.2773256 -8.8984842 7.6489947e-39
2.5762463 -1.173977 -9.1430759 5.8072345e-39
2.5977876 -1.1459394 -9.2094154 5.7153948e-39
2.6447785 -1.0849748 -9.3536654 5.8065198e-39
2.2195227 -1.556875 -8.2368135 3.8707675e-39
2.3030992 -1.4550369 -8.4777985 7.1897976e-39
2.4358122 -1.2931688 -8.8608322 7.5571522e-39
2.2172482 -1.5279312 -8.3051863 3.0413768e-39
2.2419915 -1.4937069 -8.386158 3.7785761e-39
2.2731037 -1.4505831 -8.488184 6.8224542e-39
2.2766399 -1.446606 -8.4975958 7.1890885e-39
2.5315711 -1.1404223 -9.2221498 5.7150388e-39
2.1905742 -1.502158 -8.3659582 2.2108888e-39
2.2167907 -1.4792893 -8.4201078 7.1883444e-39
2.3614411 -1.2985967 -8.8476725 7.5571522e-39
2.2131116 -1.4416763 -8.5089569 7.1897976e-39
2.2266665 -1.4246722 -8.5491924 7.1890885e-39
2.2415085 -1.4059999 -8.5933752 7.3727595e-39
2.2875154 -1.3480985 -8.7303829 7.3738399e-39
2.3264949 -1.2981005 -8.8486872 7.3738399e-39
2.1831157 -1.4372227 -8.5193424 7.0972432e-39
2.196532 -1.4201974 -8.5596275 7.3727595e-39
2.2112179 -1.4015021 -8.6038647 7.3724064e-39
2.2531114 -1.3476092 -8.7313833 7.4649551e-39
2.2679281 -1.3287677 -8.7759666 7.5571522e-39
2.295234 -1.2934591 -8.8595114 7.3734868e-39
2.3101447 -1.2745111 -8.9043455 7.3738399e-39
2.1663969 -1.4157233 -8.5700617 7.1890885e-39
2.1809273 -1.3970052 -8.6143513 7.2816429e-39
2.2223356 -1.3430402 -8.7420387 7.4649551e-39
2.2369962 -1.3241748 -8.7866764 7.5571522e-39
2.263973 -1.2888174 -8.8703356 7.5571522e-39
2.2787278 -1.2698469 -8.9152231 7.3738399e-39
2.3392813 -1.1911805 -9.1013575 7.5582242e-39
2.3879037 -1.1285743 -9.2494926 7.9255802e-39
2.465605 -1.0271895 -9.4893789 7.7415434e-39
2.1362629 -1.4112495 -8.5804949 7.2812898e-39
2.1506371 -1.3925083 -8.6248388 7.2816429e-39
2.1915603 -1.3384711 -8.7526951 7.5571522e-39
2.2060649 -1.3195826 -8.7973871 7.2816429e-39
2.2327125 -1.2841766 -8.8811588 7.3738399e-39
2.2473114 -1.2651819 -8.9261017 7.6493478e-39
2.3071721 -1.1864133 -9.1124754 7.7415434e-39
2.3552744 -1.1237293 -9.2607908 7.7415434e-39
2.4320571 -1.022209 -9.5009947 7.7415434e-39
2.106128 -1.4067752 -8.59093 7.2816429e-39
2.1203463 -1.3880111 -8.6353283 7.1897976e-39
2.1346011 -1.3692051 -8.6798239 7.2812898e-39
2.1607842 -1.3339018 -8.7633514 7.5571522e-39
2.2014513 -1.2795353 -8.891983 7.6497009e-39
2.2750616 -1.1816459 -9.1235933 7.7418966e-39
2.3985083 -1.0172274 -9.5126114 7.7415434e-39
2.0526588 -1.4341599 -8.5259886 7.2816373e-39
2.0759935 -1.4023013 -8.6013641 7.2816429e-39
2.0900557 -1.3835135 -8.6458168 7.2816429e-39
2.1442013 -1.3103976 -8.8188076 7.464602e-39
2.2429516 -1.1768782 -9.1347122 7.557871e-39
2.3227875 -1.0702457 -9.3870068 7.9255746e-39
2.0228188 -1.4297297 -8.5363207 7.4653083e-39
2.0840805 -1.3453281 -8.7360077 7.4649551e-39
2.00314 -1.4105016 -8.5816593 7.2816373e-39
2.2211123 -1.1084325 -9.2963247 5.89907e-39
1.9891429 -1.3848839 -8.6421223 7.4649551e-39
2.1498854 -1.1644219 -9.1637201 5.8079533e-39
2.2046454 -1.0810646 -9.3609114 7.6493478e-39
2.2135086 -1.0665996 -9.3951263 5.8990756e-39
1.9590079 -1.3804095 -8.6525574 7.4649551e-39
2.0241213 -1.2879268 -8.8713541 7.5571522e-39
2.171824 -1.0761918 -9.3722754 7.6493478e-39
2.2031872 -1.03213 -9.4765186 7.7415434e-39
1.8999411 -1.4159646 -8.5682869 4.2366886e-39
1.9288731 -1.3759354 -8.6629906 7.2816429e-39
2.153929 -1.050127 -9.4337749 7.7415434e-39
1.8987386 -1.3714616 -8.6734247 7.2812898e-39
1.8402612 -1.4071038 -8.5889511 3.8686011e-39
1.843779 -1.4031475 -8.5983143 7.7415434e-39
2.0733612 -1.0627478 -9.4035921 5.9912712e-39
1.8349174 -1.366509 -8.6848373 7.2816373e-39
1.975497 -1.110032 -9.2914343 5.8997902e-39
1.8348846 -1.2644736 -8.925909 7.3738399e-39
1.8504281 -1.2401749 -8.9833889 5.7154032e-39
