# .PCD v0.7 - Point Cloud Data file format
VERSION 0.7
FIELDS x y z rgb
SIZE 4 4 4 4
TYPE F F F F
COUNT 1 1 1 1
WIDTH 75
HEIGHT 1
VIEWPOINT 0 0 0 1 0 0 0
POINTS 75
DATA ascii
0.51473039 1.944229 -2.2842579 2.3509528e-38
0.51460952 1.982342 -2.2533033 2.3509532e-38
0.43685523 2.0065591 -2.2768731 2.3509537e-38
0.41478896 1.9998969 -2.2945786 2.3509542e-38
0.40797341 2.0026662 -2.2961183 2.3509547e-38
0.37291861 2.0089476 -2.3105185 2.3509552e-38
0.37426785 2.0163174 -2.3037689 2.3509556e-38
0.37561691 2.0236876 -2.297019 2.3509561e-38
0.37696603 2.0310574 -2.2902694 2.3509566e-38
0.38236246 2.0605376 -2.2632706 2.350957e-38
0.35958034 2.0940561 -2.2486694 2.3509576e-38
0.36093986 2.1014829 -2.2418678 2.350958e-38
0.36229944 2.1089096 -2.2350659 2.3509584e-38
0.30528823 2.1658642 -2.2204425 2.350959e-38
0.27546236 2.1707635 -2.2330573 2.3509594e-38
0.23951624 2.1862595 -2.2404532 2.35096e-38
0.20856488 2.1914511 -2.2534564 2.3509604e-38
0.17151274 2.1654482 -2.2952459 2.3509608e-38
0.16423792 2.1684041 -2.2968893 2.3509614e-38
0.17579772 2.1888573 -2.273807 2.3509618e-38
0.11253002 2.2501788 -2.2591119 2.3509624e-38
0.12138415 2.2551103 -2.2501695 2.3509628e-38
0.14645398 2.2522669 -2.2385292 2.3509632e-38
0.16990826 2.251193 -2.2263474 2.3509638e-38
0.20177424 2.2453699 -2.2133493 2.3509642e-38
0.24794374 2.2322979 -2.1982894 2.3509647e-38
0.2653209 2.2402997 -2.1821036 2.3509652e-38
0.27520278 2.2526381 -2.1665602 2.3509656e-38
0.28529978 2.2631965 -2.1523459 2.3509661e-38
0.3074781 2.2821238 -2.1245947 2.3509666e-38
0.35960984 2.260983 -2.1127839 2.3509671e-38
0.38211137 2.2648046 -2.0971479 2.3509675e-38
0.40700546 2.260386 -2.0868874 2.350968e-38
0.43596384 2.2575645 -2.0730646 2.3509685e-38
0.46413431 2.2541749 -2.0601428 2.3509689e-38
0.48292217 2.2495818 -2.0534234 2.3509695e-38
0.51127279 2.2425444 -2.04337 2.3509699e-38
0.56792593 2.2558806 -2.0009801 2.3509703e-38
0.57854778 2.2454033 -2.0035954 2.3509709e-38
0.59113407 2.2373459 -2.0031478 2.3509713e-38
0.6029368 2.2161696 -2.0138142 2.3509719e-38
0.64095849 2.1767409 -2.0247426 2.3509723e-38
0.68391329 2.1583426 -2.0158074 2.3509727e-38
0.69018376 2.1557949 -2.0143907 2.3509733e-38
0.72538471 2.1513088 -1.998448 2.3509737e-38
0.73393798 2.1503141 -1.9944966 2.3509743e-38
0.76459652 2.1499364 -1.9777383 2.3509747e-38
0.737625 2.1344061 -2.0053926 2.3509751e-38
0.72604883 2.1125336 -2.0296392 2.3509757e-38
0.67947626 2.0767977 -2.0846503 2.3509761e-38
0.684008 2.0631449 -2.0932405 2.3509767e-38
0.67798674 2.0523596 -2.1053708 2.3509771e-38
0.67675555 2.0456338 -2.1115305 2.3509775e-38
0.67552447 2.038908 -2.1176901 2.3509781e-38
0.67429316 2.0321822 -2.1238501 2.3509785e-38
0.67306197 2.0254564 -2.1300099 2.350979e-38
0.6669693 2.0142815 -2.1424971 2.3509795e-38
0.66572922 2.0075068 -2.1487014 2.3509799e-38
0.66448915 2.0007324 -2.1549058 2.3509804e-38
0.66324902 1.9939576 -2.1611104 2.3509809e-38
0.66200894 1.9871831 -2.1673148 2.3509814e-38
0.66076881 1.9804084 -2.1735191 2.3509818e-38
0.65952873 1.973634 -2.1797235 2.3509823e-38
0.65828866 1.9668595 -2.1859279 2.3509828e-38
0.65704864 1.960085 -2.1921322 2.3509832e-38
0.6506424 1.9484247 -2.205189 2.3509838e-38
0.6493929 1.9415988 -2.2114403 2.3509842e-38
0.64814335 1.9347727 -2.2176919 2.3509846e-38
0.6468938 1.9279468 -2.2239435 2.3509852e-38
0.64564437 1.9211209 -2.2301948 2.3509856e-38
0.63790375 1.9021719 -2.249927 2.3509862e-38
0.61099738 1.9057153 -2.2620199 2.3509866e-38
0.56623918 1.9011066 -2.2906854 2.350987e-38
0.51213622 1.9300573 -2.2972369 2.3509876e-38
0.51343334 1.9371431 -2.2907474 2.350988e-38
