# .PCD v0.7 - Point Cloud Data file format
VERSION 0.7
FIELDS x y z rgb
SIZE 4 4 4 4
TYPE F F F F
COUNT 1 1 1 1
WIDTH 112
HEIGHT 1
VIEWPOINT 0 0 0 1 0 0 0
POINTS 112
DATA ascii
-2.282485 -0.48189694 2.1610281 2.3509528e-38
-2.2797861 -0.51085591 2.1508794 2.3509531e-38
-2.2497969 -0.5281803 2.1608992 2.3509534e-38
-2.2348139 -0.53325015 2.1673512 2.3509537e-38
-2.2057512 -0.55007184 2.1770482 2.3509541e-38
-2.1799459 -0.54540324 2.1935651 2.3509544e-38
-2.1719413 -0.54682487 2.1975315 2.3509547e-38
-2.1639369 -0.5482465 2.2014973 2.3509549e-38
-2.1338394 -0.55600047 2.2154384 2.3509554e-38
-2.1104987 -0.55336261 2.2297382 2.3509556e-38
-2.1026287 -0.55476028 2.2336376 2.3509559e-38
-2.094759 -0.55615777 2.2375369 2.3509563e-38
-2.081394 -0.56092036 2.2431955 2.3509566e-38
-2.0735903 -0.56230623 2.247062 2.3509569e-38
-2.0657868 -0.56369203 2.2509284 2.3509572e-38
-2.0579829 -0.56507802 2.2547951 2.3509576e-38
-2.0451665 -0.5696435 2.260222 2.3509579e-38
-2.0374262 -0.57101804 2.2640569 2.3509582e-38
-2.029686 -0.57239264 2.2678919 2.3509584e-38
-2.0219455 -0.57376742 2.2717273 2.3509589e-38
-1.9927164 -0.58790421 2.2826014 2.3509591e-38
-1.9710602 -0.58509356 2.296016 2.3509594e-38
-1.9557062 -0.58782041 2.3036237 2.3509598e-38
-1.9346397 -0.58494848 2.3167284 2.3509601e-38
-1.9041953 -0.59998792 2.3279281 2.3509604e-38
-1.8940771 -0.60259295 2.3326154 2.3509607e-38
-1.8833565 -0.60723865 2.3368213 2.3509611e-38
-1.8608705 -0.6112321 2.3479621 2.3509614e-38
-1.8533752 -0.61256313 2.351676 2.3509617e-38
-1.8260046 -0.61102086 2.3678198 2.3509621e-38
-1.8185698 -0.61234128 2.3715034 2.3509624e-38
-1.8081895 -0.61634195 2.3757768 2.3509626e-38
-1.7860585 -0.62027228 2.3867421 2.3509629e-38
-1.7770307 -0.61334938 2.3946538 2.3509633e-38
-1.7532486 -0.60904676 2.4098754 2.3509636e-38
-1.7181808 -0.60064656 2.4331498 2.3509639e-38
-1.7083648 -0.5802142 2.4469566 2.3509642e-38
-1.6685699 -0.5590905 2.4780433 2.3509646e-38
-1.6591189 -0.5607993 2.4827139 2.3509649e-38
-1.6395532 -0.55489707 2.4961901 2.3509652e-38
-1.6294385 -0.54728645 2.5049953 2.3509656e-38
-1.637563 -0.52693874 2.508594 2.3509659e-38
-1.6367817 -0.48555848 2.5257261 2.3509661e-38
-1.6456465 -0.47443336 2.5251853 2.3509664e-38
-1.6881588 -0.40800554 2.5278673 2.3509668e-38
-1.6864814 -0.39964035 2.532192 2.3509671e-38
-1.6867514 -0.38690162 2.5371764 2.3509674e-38
-1.6850612 -0.37847218 2.5415349 2.3509678e-38
-1.6833708 -0.37004265 2.545893 2.3509681e-38
-1.6816803 -0.36161301 2.5502512 2.3509684e-38
-1.6799899 -0.35318342 2.5546093 2.3509687e-38
-1.6782994 -0.34475395 2.5589674 2.3509691e-38
-1.6766094 -0.33632454 2.5633256 2.3509694e-38
-1.6735437 -0.3056097 2.5774517 2.3509696e-38
-1.6718391 -0.29710948 2.5818465 2.3509699e-38
-1.6701345 -0.28860921 2.586241 2.3509703e-38
-1.6684301 -0.28010923 2.590636 2.3509706e-38
-1.6667255 -0.27160898 2.5950308 2.3509709e-38
-1.6650212 -0.26310891 2.5994256 2.3509713e-38
-1.6633164 -0.2546086 2.6038201 2.3509716e-38
-1.6616119 -0.24610844 2.6082149 2.3509719e-38
-1.6599073 -0.23760818 2.6126099 2.3509722e-38
-1.659999 -0.22330958 2.6183243 2.3509726e-38
-1.6582811 -0.21474187 2.6227541 2.3509729e-38
-1.6565629 -0.20617412 2.6271834 2.3509731e-38
-1.654845 -0.19760641 2.6316135 2.3509734e-38
-1.6666176 -0.19240215 2.6270361 2.3509738e-38
-1.6932299 -0.19078942 2.6125946 2.3509741e-38
-1.7427449 -0.22077814 2.5724204 2.3509744e-38
-1.7608917 -0.2119734 2.5656805 2.3509748e-38
-1.7843026 -0.2078158 2.5540812 2.3509751e-38
-1.8059672 -0.19494897 2.5469842 2.3509754e-38
-1.8077135 -0.2036581 2.5424817 2.3509757e-38
-1.80946 -0.21236725 2.5379789 2.3509761e-38
-1.8112066 -0.22107634 2.5334761 2.3509764e-38
-1.8196982 -0.24118289 2.5205519 2.3509767e-38
-1.8242493 -0.24581762 2.5161014 2.3509771e-38
-1.8228016 -0.26023713 2.511107 2.3509774e-38
-1.8125178 -0.28890181 2.5053785 2.3509776e-38
-1.8111256 -0.30294552 2.500504 2.3509779e-38
-1.8086028 -0.33001208 2.4910188 2.3509783e-38
-1.810321 -0.33857986 2.4865892 2.3509786e-38
-1.8435886 -0.36389825 2.4575121 2.3509789e-38
-1.8721102 -0.36358723 2.4414632 2.3509792e-38
-1.8799137 -0.36220133 2.4375968 2.3509796e-38
-1.8877176 -0.36081553 2.4337304 2.3509799e-38
-1.9073128 -0.35296154 2.4257858 2.3509802e-38
-1.9151824 -0.35156384 2.4218862 2.3509806e-38
-1.9230521 -0.3501662 2.4179871 2.3509809e-38
-1.9423431 -0.35111439 2.4066648 2.3509811e-38
-1.9641618 -0.35196102 2.3939505 2.3509814e-38
-1.9844984 -0.34405154 2.3856075 2.3509818e-38
-1.9985939 -0.33237642 2.3823223 2.3509821e-38
-2.0133007 -0.33445966 2.3731422 2.3509824e-38
-2.0391061 -0.33912838 2.3566256 2.3509828e-38
-2.0693328 -0.32450879 2.3453798 2.3509831e-38
-2.0884287 -0.31216377 2.3395295 2.3509834e-38
-2.097223 -0.30574787 2.3371296 2.3509837e-38
-2.1233749 -0.28231519 2.3317497 2.3509841e-38
-2.1315885 -0.2808567 2.3276801 2.3509844e-38
-2.1354597 -0.2944009 2.3200221 2.3509846e-38
-2.1453171 -0.30689809 2.309392 2.3509849e-38
-2.165421 -0.32231441 2.2917738 2.3509853e-38
-2.2037909 -0.34398004 2.2612767 2.3509856e-38
-2.2120047 -0.34252131 2.2572072 2.3509859e-38
-2.2220569 -0.35022944 2.2483978 2.3509863e-38
-2.2421606 -0.36564559 2.2307796 2.3509866e-38
-2.2468143 -0.43127203 2.2016735 2.3509869e-38
-2.2587047 -0.44814706 2.1881251 2.3509872e-38
-2.2687569 -0.45585504 2.1793158 2.3509876e-38
-2.2788086 -0.46356314 2.1705067 2.3509879e-38
-2.2806468 -0.47272989 2.1657674 2.3509881e-38
