# .PCD v0.7 - Point Cloud Data file format
VERSION 0.7
FIELDS x y z rgb
SIZE 4 4 4 4
TYPE F F F F
COUNT 1 1 1 1
WIDTH 71
HEIGHT 1
VIEWPOINT 0 0 0 1 0 0 0
POINTS 71
DATA ascii
-0.68906212 -0.39669076 3.0476274 2.3509528e-38
-0.6999889 -0.36207393 3.0400231 2.3509532e-38
-0.73788285 -0.29794848 3.0092714 2.3509538e-38
-0.73660457 -0.28801721 3.0112562 2.3509542e-38
-0.73532635 -0.27808589 3.0132415 2.3509548e-38
-0.73404807 -0.26815453 3.0152264 2.3509552e-38
-0.73276997 -0.25822318 3.0172114 2.3509558e-38
-0.73149145 -0.24829181 3.0191963 2.3509563e-38
-0.76101518 -0.23864612 2.9920785 2.3509568e-38
-0.76668328 -0.23486374 2.9870231 2.3509573e-38
-0.78926021 -0.21906897 2.9669454 2.3509577e-38
-0.79664123 -0.21665758 2.9601662 2.3509583e-38
-0.8038922 -0.22270715 2.9528461 2.3509589e-38
-0.81262273 -0.2302891 2.9440093 2.3509593e-38
-0.82906073 -0.23588167 2.9280519 2.3509598e-38
-0.84331083 -0.24013157 2.9142647 2.3509603e-38
-0.85369807 -0.24817224 2.9038281 2.3509608e-38
-0.86335808 -0.25695425 2.8940201 2.3509614e-38
-0.88629705 -0.31250244 2.8680105 2.3509618e-38
-0.88756484 -0.32235536 2.8660409 2.3509624e-38
-0.88096499 -0.33399373 2.8713603 2.3509628e-38
-0.86658603 -0.34830475 2.8838143 2.3509633e-38
-0.85041374 -0.34315416 2.8994865 2.3509639e-38
-0.82929862 -0.35087371 2.9188166 2.3509643e-38
-0.82191801 -0.3532851 2.9255965 2.3509649e-38
-0.81453675 -0.35569653 2.9323757 2.3509653e-38
-0.7923941 -0.3629308 2.952714 2.3509659e-38
-0.7850135 -0.36534217 2.9594939 2.3509663e-38
-0.76414895 -0.38250786 2.9778471 2.3509668e-38
-0.77437538 -0.46195871 2.961967 2.3509674e-38
-0.79275084 -0.49763963 2.9418225 2.3509678e-38
-0.81021196 -0.51280344 2.924149 2.3509684e-38
-0.79566574 -0.57049716 2.9333613 2.3509688e-38
-0.81755114 -0.6010074 2.9103084 2.3509694e-38
-0.82895005 -0.61252856 2.8986437 2.3509699e-38
-0.88749796 -0.62061274 2.8427339 2.3509703e-38
-0.89548606 -0.6199528 2.8352442 2.3509709e-38
-0.88950658 -0.64947587 2.8385758 2.3509713e-38
-0.88391358 -0.68065041 2.8414137 2.3509719e-38
-0.92869121 -0.74248499 2.7942927 2.3509724e-38
-0.93394101 -0.7454688 2.7891023 2.3509729e-38
-0.93373823 -0.75065935 2.7888875 2.3509734e-38
-0.9333322 -0.76104051 2.7884574 2.3509738e-38
-0.93312925 -0.76623106 2.7882423 2.3509744e-38
-0.93272316 -0.77661216 2.7878122 2.350975e-38
-0.93036664 -0.78060913 2.7897239 2.3509754e-38
-0.92699772 -0.78220868 2.7927792 2.3509759e-38
-0.90507478 -0.79883641 2.8121743 2.3509764e-38
-0.90229106 -0.79904109 2.8147867 2.3509769e-38
-0.89950711 -0.79924577 2.8173985 2.3509774e-38
-0.86580175 -0.78588307 2.8502676 2.3509779e-38
-0.85859549 -0.78823751 2.8568866 2.3509785e-38
-0.85138947 -0.79059184 2.8635058 2.3509789e-38
-0.83101869 -0.80735123 2.8814247 2.3509795e-38
-0.82642311 -0.81598693 2.8850868 2.3509799e-38
-0.81927526 -0.81832224 2.8916526 2.3509804e-38
-0.78944546 -0.81804562 2.9198375 2.350981e-38
-0.77904546 -0.7536031 2.9347057 2.3509814e-38
-0.75714469 -0.70013386 2.9595721 2.350982e-38
-0.74127573 -0.66790295 2.9770796 2.3509824e-38
-0.72839952 -0.64256322 2.9912219 2.350983e-38
-0.72712147 -0.6326319 2.993207 2.3509835e-38
-0.71945167 -0.57304376 3.0051169 2.3509839e-38
-0.71079236 -0.56552374 3.0138817 2.3509845e-38
-0.70602733 -0.54684174 3.0198443 2.3509849e-38
-0.7056793 -0.52579832 3.0218217 2.3509855e-38
-0.70440131 -0.51586699 3.023807 2.350986e-38
-0.68827516 -0.46916705 3.042691 2.3509865e-38
-0.68698639 -0.45915383 3.0446923 2.350987e-38
-0.67334312 -0.43174341 3.0597212 2.3509874e-38
-0.67204344 -0.42164823 3.0617387 2.350988e-38
