# .PCD v0.7 - Point Cloud Data file format
VERSION 0.7
FIELDS x y z rgb
SIZE 4 4 4 4
TYPE F F F F
COUNT 1 1 1 1
WIDTH 61
HEIGHT 1
VIEWPOINT 0 0 0 1 0 0 0
POINTS 61
DATA ascii
1.8282254 0.86844093 0.55586368 2.3509528e-38
1.8250639 0.87216419 0.56408721 2.3509534e-38
1.8242064 0.86688763 0.57250148 2.3509539e-38
1.82122 0.86050093 0.59001136 2.3509545e-38
1.8162593 0.84696078 0.62198162 2.3509551e-38
1.8095639 0.82950538 0.66432381 2.3509556e-38
1.8084835 0.81730217 0.68038893 2.3509563e-38
1.8051927 0.81212336 0.69785583 2.3509569e-38
1.8064228 0.76767159 0.73695368 2.3509575e-38
1.8051395 0.76580149 0.74361813 2.350958e-38
1.8019233 0.76448512 0.75700516 2.3509586e-38
1.7989749 0.75757611 0.77488643 2.3509591e-38
1.8084074 0.67832071 0.8173787 2.3509598e-38
1.808514 0.67142284 0.82376319 2.3509604e-38
1.8101257 0.64456034 0.84412593 2.350961e-38
1.8081639 0.6248759 0.87086362 2.3509615e-38
1.8077203 0.61400121 0.88322747 2.3509621e-38
1.8143728 0.5934909 0.87838989 2.3509628e-38
1.8162974 0.58636343 0.87816411 2.3509633e-38
1.8184363 0.57956529 0.87680912 2.3509639e-38
1.8205752 0.57276732 0.87545413 2.3509645e-38
1.8257166 0.55298865 0.87557787 2.350965e-38
1.8291306 0.54557502 0.87003416 2.3509656e-38
1.8370745 0.5232504 0.86212552 2.3509663e-38
1.842253 0.51011324 0.85557753 2.3509668e-38
1.8485469 0.4959138 0.84588104 2.3509674e-38
1.8633331 0.45585549 0.82968968 2.350968e-38
1.8716227 0.45666873 0.79772234 2.3509685e-38
1.8849159 0.43686026 0.7672261 2.3509692e-38
1.8878009 0.43944877 0.75383377 2.3509698e-38
1.8889382 0.44176474 0.74727982 2.3509703e-38
1.8897359 0.44592378 0.74018991 2.3509709e-38
1.8911254 0.45359722 0.72741771 2.3509715e-38
1.8885355 0.46713692 0.72383779 2.350972e-38
1.8774921 0.49517739 0.73777771 2.3509727e-38
1.8752116 0.50019813 0.74141335 2.3509733e-38
1.8629978 0.54248714 0.74573833 2.3509738e-38
1.8598859 0.56835479 0.73199481 2.3509744e-38
1.8433809 0.65440255 0.7094124 2.350975e-38
1.8448007 0.65757322 0.70095593 2.3509757e-38
1.8569301 0.65298748 0.65986222 2.3509762e-38
1.8571566 0.65700668 0.65505713 2.3509768e-38
1.8541824 0.71513194 0.60906702 2.3509774e-38
1.857197 0.71808344 0.59482986 2.3509779e-38
1.8584054 0.72014588 0.58825773 2.3509785e-38
1.8621897 0.72160655 0.57259345 2.3509792e-38
1.8698899 0.72652221 0.53880662 2.3509797e-38
1.8758333 0.72329944 0.51963085 2.3509803e-38
1.873544 0.73155189 0.52012098 2.3509809e-38
1.8714324 0.73633325 0.52335697 2.3509814e-38
1.86851 0.74164891 0.52911615 2.3509821e-38
1.8565412 0.77265966 0.54361385 2.3509827e-38
1.8528315 0.78609139 0.54434967 2.3509832e-38
1.8499565 0.80054021 0.54094702 2.3509838e-38
1.8457352 0.82418615 0.53355962 2.3509844e-38
1.8448285 0.83255339 0.5287382 2.3509849e-38
1.8428055 0.83898365 0.53001994 2.3509856e-38
1.8402441 0.84729111 0.53147906 2.3509862e-38
1.8580126 0.54357708 0.76340997 2.3509867e-38
1.8659889 0.52507138 0.75162321 2.3509873e-38
1.8701705 0.51178056 0.74897408 2.3509879e-38
