# .PCD v0.7 - Point Cloud Data file format
VERSION 0.7
FIELDS x y z rgb
SIZE 4 4 4 4
TYPE F F F F
COUNT 1 1 1 1
WIDTH 95
HEIGHT 1
VIEWPOINT 0 0 0 1 0 0 0
POINTS 95
DATA ascii
-1.4257387 1.6623993 -0.089615263 2.3509528e-38
-1.4251401 1.6522415 -0.060521107 2.3509531e-38
-1.4399177 1.6435252 -0.037113238 2.3509535e-38
-1.4436121 1.6413461 -0.031261254 2.3509539e-38
-1.4573272 1.6349893 -0.014488541 2.3509542e-38
-1.4598176 1.6326921 -0.0081763566 2.3509547e-38
-1.4639112 1.6304879 -0.0022929979 2.3509551e-38
-1.4746758 1.6236844 0.016056497 2.3509554e-38
-1.4773905 1.6188372 0.029634498 2.3509558e-38
-1.4816566 1.6165516 0.035732947 2.3509562e-38
-1.4887319 1.6145086 0.040851571 2.3509565e-38
-1.5180928 1.6034513 0.069465935 2.3509569e-38
-1.5295049 1.5959399 0.089772955 2.3509573e-38
-1.5369352 1.5915574 0.10154252 2.3509576e-38
-1.5395348 1.5919921 0.10003494 2.350958e-38
-1.5744494 1.5958894 0.085339934 2.3509584e-38
-1.5774815 1.5960332 0.084620163 2.3509587e-38
-1.5835456 1.5963207 0.083180673 2.3509591e-38
-1.5963439 1.6015259 0.06699995 2.3509596e-38
-1.6076864 1.6099912 0.041649327 2.35096e-38
-1.6171553 1.6134869 0.0306936 2.3509603e-38
-1.6505902 1.6210676 0.0056206211 2.3509607e-38
-1.6828681 1.625867 -0.011384133 2.3509611e-38
-1.7263988 1.6252568 -0.014073205 2.3509614e-38
-1.7329301 1.6254199 -0.015204424 2.3509618e-38
-1.7654994 1.6249609 -0.017209204 2.3509622e-38
-1.7757103 1.6237973 -0.014923374 2.3509625e-38
-1.7976927 1.6288275 -0.031539384 2.3509629e-38
-1.8207052 1.6302078 -0.037827987 2.3509633e-38
-1.8313898 1.6342896 -0.05058334 2.3509636e-38
-1.8703077 1.6380495 -0.065293156 2.350964e-38
-1.8861098 1.6454724 -0.088118523 2.3509645e-38
-1.8939804 1.6492289 -0.099657245 2.3509647e-38
-1.9256635 1.6542456 -0.11722254 2.3509652e-38
-1.9624003 1.6678206 -0.15976423 2.3509656e-38
-1.9797927 1.6712648 -0.17137982 2.3509659e-38
-1.9897236 1.6793705 -0.19555917 2.3509663e-38
-2.0155509 1.684709 -0.21344793 2.3509667e-38
-2.0419199 1.6867523 -0.22197376 2.3509671e-38
-2.0733132 1.690369 -0.23550804 2.3509674e-38
-2.0975518 1.6953681 -0.25226483 2.3509678e-38
-2.0999465 1.6961879 -0.25485179 2.3509682e-38
-2.1103246 1.7068003 -0.28624171 2.3509685e-38
-2.1119602 1.7141361 -0.30737558 2.3509689e-38
-2.1085677 1.7143332 -0.30759358 2.3509694e-38
-2.0683134 1.7133806 -0.30077106 2.3509696e-38
-2.0343533 1.7067674 -0.27841094 2.3509701e-38
-1.9876935 1.7015204 -0.25866181 2.3509705e-38
-1.9477248 1.7112169 -0.28230625 2.3509708e-38
-1.9424489 1.7140437 -0.28984863 2.3509712e-38
-1.9253697 1.7091079 -0.27400118 2.3509716e-38
-1.8405374 1.7070813 -0.2595697 2.3509719e-38
-1.8076069 1.7265201 -0.31177637 2.3509723e-38
-1.7701651 1.7405876 -0.3481712 2.3509727e-38
-1.7608232 1.7413843 -0.3494972 2.350973e-38
-1.7375244 1.7420595 -0.3490544 2.3509734e-38
-1.712274 1.746154 -0.35818607 2.3509738e-38
-1.6641064 1.7482497 -0.35927024 2.3509743e-38
-1.6505102 1.7463392 -0.35242522 2.3509745e-38
-1.6369537 1.7444354 -0.34560317 2.350975e-38
-1.6040449 1.7396584 -0.32859799 2.3509754e-38
-1.5909984 1.7336015 -0.30995688 2.3509757e-38
-1.5717871 1.7272621 -0.28988138 2.3509761e-38
-1.5359669 1.7149158 -0.25094479 2.3509765e-38
-1.5222882 1.7105794 -0.23715763 2.3509768e-38
-1.5164751 1.7069849 -0.22629166 2.3509772e-38
-1.5018791 1.6984361 -0.20037097 2.3509776e-38
-1.4958271 1.6950214 -0.18999474 2.3509779e-38
-1.4884182 1.6915153 -0.17921884 2.3509783e-38
-1.479502 1.6878502 -0.16783537 2.3509788e-38
-1.4712832 1.6842945 -0.15683486 2.350979e-38
-1.4606053 1.6804444 -0.14474301 2.3509795e-38
-1.456923 1.673551 -0.1246652 2.3509799e-38
-1.4413773 1.6666447 -0.10334217 2.3509802e-38
-1.6088831 1.6611762 -0.10477091 2.3509806e-38
-1.6715702 1.6348013 -0.035769612 2.350981e-38
-1.6969002 1.6425471 -0.060488589 2.3509814e-38
-1.7001836 1.6456746 -0.069761895 2.3509817e-38
-1.7115005 1.6550553 -0.097726576 2.3509821e-38
-1.7186261 1.6583962 -0.10800153 2.3509825e-38
-1.7300786 1.6719124 -0.1478001 2.3509828e-38
-1.677599 1.6884927 -0.18984522 2.3509832e-38
-1.6638412 1.6913151 -0.19651143 2.3509837e-38
-1.6471642 1.6943694 -0.20354292 2.3509839e-38
-1.6289178 1.6967224 -0.20841004 2.3509844e-38
-1.5935098 1.7001106 -0.21448855 2.3509848e-38
-1.5157478 1.7012125 -0.20971888 2.3509851e-38
-1.5007656 1.694103 -0.18787242 2.3509855e-38
-1.4950082 1.6907655 -0.17774689 2.3509859e-38
-1.491135 1.6891226 -0.17265657 2.3509862e-38
-1.4848632 1.6856802 -0.16217858 2.3509866e-38
-1.4719977 1.6790124 -0.14181024 2.350987e-38
-1.5329622 1.6561165 -0.082577273 2.3509873e-38
-1.5919172 1.6624174 -0.10659099 2.3509877e-38
-1.6035998 1.6633487 -0.11044235 2.3509881e-38
