# .PCD v0.7 - Point Cloud Data file format
VERSION 0.7
FIELDS x y z rgb
SIZE 4 4 4 4
TYPE F F F F
COUNT 1 1 1 1
WIDTH 92
HEIGHT 1
VIEWPOINT 0 0 0 1 0 0 0
POINTS 92
DATA ascii
2.1494758 1.8665911 -1.3927064 2.3509528e-38
2.1440139 1.8695759 -1.4018039 2.3509531e-38
2.1404567 1.8687866 -1.3990426 2.3509535e-38
2.1177316 1.8569047 -1.3596634 2.3509539e-38
2.1036437 1.8544033 -1.3507111 2.3509544e-38
2.0687778 1.8529583 -1.3436385 2.3509547e-38
2.0674956 1.851739 -1.3396723 2.3509551e-38
2.0615594 1.8467621 -1.3234326 2.3509555e-38
2.0518408 1.8202721 -1.2385508 2.3509559e-38
2.0267439 1.8168446 -1.2258724 2.3509562e-38
2.0063465 1.8079728 -1.1962254 2.3509566e-38
1.9910512 1.803571 -1.1811476 2.350957e-38
1.9757739 1.7991862 -1.1661255 2.3509575e-38
1.9385707 1.7928973 -1.1434919 2.3509579e-38
1.9241402 1.7887163 -1.1291773 2.3509582e-38
1.9033494 1.7783608 -1.094787 2.3509586e-38
1.8771118 1.7715614 -1.0713108 2.350959e-38
1.8665153 1.7704942 -1.0671654 2.3509594e-38
1.8441983 1.7694603 -1.062292 2.3509597e-38
1.8411015 1.7687732 -1.059888 2.3509601e-38
1.8283527 1.7601783 -1.0316651 2.3509605e-38
1.8155276 1.7564636 -1.0189469 2.350961e-38
1.8027173 1.7527635 -1.0062757 2.3509612e-38
1.8016175 1.7517174 -1.0028732 2.3509617e-38
1.8005177 1.7506715 -0.99947065 2.3509621e-38
1.7972183 1.7475338 -0.98926342 2.3509625e-38
1.8342739 1.7479936 -0.99336076 2.3509629e-38
1.8423685 1.7469255 -0.99054193 2.3509632e-38
1.850463 1.7458574 -0.98772305 2.3509636e-38
1.8585573 1.7447894 -0.98490423 2.350964e-38
1.8856473 1.7358654 -0.95846897 2.3509645e-38
1.9017253 1.7337438 -0.95287001 2.3509647e-38
1.9097642 1.7326831 -0.9500705 2.3509652e-38
1.959006 1.7196697 -0.91221404 2.3509656e-38
1.9669893 1.7186162 -0.90943396 2.350966e-38
1.974973 1.7175628 -0.9066537 2.3509664e-38
1.9829563 1.7165093 -0.90387356 2.3509667e-38
1.9909399 1.715456 -0.90109342 2.3509671e-38
1.9989233 1.7144026 -0.89831316 2.3509675e-38
2.0057147 1.7131563 -0.89483583 2.350968e-38
2.0136464 1.7121098 -0.89207381 2.3509682e-38
2.0228736 1.7112422 -0.88997269 2.3509687e-38
2.0537105 1.7171229 -0.91085619 2.3509691e-38
2.1166725 1.7025812 -0.86911821 2.3509695e-38
2.1204021 1.7093381 -0.89085823 2.3509698e-38
2.1355045 1.716053 -0.91327381 2.3509702e-38
2.1510077 1.7262384 -0.94674742 2.3509706e-38
2.1448395 1.7387952 -0.98621655 2.350971e-38
2.1474018 1.7443684 -1.0041119 2.3509715e-38
2.1565828 1.7491071 -1.0198253 2.3509717e-38
2.1574564 1.7654511 -1.0718317 2.3509722e-38
2.1702759 1.7704995 -1.0887883 2.3509726e-38
2.1782269 1.7737687 -1.0997436 2.350973e-38
2.1950295 1.7779617 -1.1142656 2.3509733e-38
2.2185163 1.7864162 -1.1428058 2.3509737e-38
2.244312 1.7894715 -1.1543511 2.3509741e-38
2.3354681 1.7912338 -1.166436 2.3509745e-38
2.3536112 1.7956308 -1.1817008 2.3509748e-38
2.3607757 1.7990139 -1.1929626 2.3509752e-38
2.4185097 1.8023255 -1.2075939 2.3509757e-38
2.443563 1.8032948 -1.2124563 2.3509761e-38
2.485033 1.7990875 -1.2020347 2.3509765e-38
2.5010684 1.7956843 -1.1923596 2.3509768e-38
2.5408673 1.7875533 -1.1693487 2.3509772e-38
2.5448964 1.7879393 -1.1708616 2.3509776e-38
2.5703092 1.7921569 -1.186074 2.3509781e-38
2.5743737 1.7925462 -1.1876001 2.3509783e-38
2.5455718 1.801778 -1.2148919 2.3509788e-38
2.5396972 1.804659 -1.2236303 2.3509792e-38
2.5155537 1.8073148 -1.2303534 2.3509796e-38
2.4738142 1.8115543 -1.240859 2.35098e-38
2.4311719 1.8235077 -1.2758156 2.3509803e-38
2.4254937 1.8262922 -1.2842615 2.3509807e-38
2.3856781 1.8368591 -1.3150133 2.3509811e-38
2.3637562 1.8391396 -1.3207018 2.3509816e-38
2.3301764 1.8337032 -1.301035 2.3509818e-38
2.2964742 1.8331583 -1.2969061 2.3509823e-38
2.2523212 1.8405559 -1.317277 2.3509827e-38
2.2428007 1.8418123 -1.3205924 2.3509831e-38
2.2168441 1.8480583 -1.3385975 2.3509834e-38
2.2073238 1.8493146 -1.341913 2.3509838e-38
2.197803 1.8505709 -1.3452284 2.3509842e-38
2.1787622 1.8530834 -1.3518592 2.3509846e-38
2.1053102 1.8202471 -1.2422745 2.3509851e-38
2.17856 1.8105816 -1.216766 2.3509853e-38
2.1955349 1.8394785 -1.3098135 2.3509858e-38
2.1860874 1.8407252 -1.3131036 2.3509862e-38
2.1766396 1.8419719 -1.3163936 2.3509866e-38
2.1401415 1.8481876 -1.3335524 2.3509869e-38
2.1306942 1.8494341 -1.3368424 2.3509873e-38
2.1212463 1.8506809 -1.3401326 2.3509877e-38
2.0961542 1.8214551 -1.245463 2.3509881e-38
