# .PCD v0.7 - Point Cloud Data file format
VERSION 0.7
FIELDS x y z rgb
SIZE 4 4 4 4
TYPE F F F F
COUNT 1 1 1 1
WIDTH 88
HEIGHT 1
VIEWPOINT 0 0 0 1 0 0 0
POINTS 88
DATA ascii
0.20031759 -1.2352319 2.9369845 2.3509528e-38
0.18508275 -1.2407708 2.9327374 2.3509531e-38
0.17677057 -1.2421031 2.9304204 2.3509535e-38
0.18278652 -1.2199429 2.9321041 2.3509539e-38
0.1793419 -1.1887009 2.931155 2.3509544e-38
0.19367015 -1.1652083 2.9351554 2.3509548e-38
0.19738971 -1.1222202 2.9362063 2.3509552e-38
0.2022575 -1.0896457 2.9375737 2.3509556e-38
0.20110939 -1.0792319 2.9372571 2.3509561e-38
0.20712517 -1.0570716 2.9389412 2.3509565e-38
0.21151739 -1.034521 2.9401727 2.3509568e-38
0.21199289 -1.0244974 2.9403086 2.3509572e-38
0.22365107 -0.98982531 2.9435689 2.3509576e-38
0.22249328 -0.97932315 2.9432497 2.350958e-38
0.16932005 -0.92895132 2.9284489 2.3509584e-38
0.19430375 -0.90741295 2.9354184 2.3509589e-38
0.20237741 -0.88261729 2.9376764 2.3509593e-38
0.20536923 -0.87369907 2.9385133 2.3509597e-38
0.23143068 -0.82826239 2.945791 2.3509601e-38
0.23749749 -0.80591446 2.9474893 2.3509605e-38
0.23775487 -0.7978099 2.9475636 2.3509608e-38
0.24356422 -0.78356665 2.9491873 2.3509612e-38
0.24963114 -0.76121867 2.9508855 2.3509617e-38
0.25453997 -0.7283687 2.9522645 2.3509621e-38
0.25338218 -0.71786666 2.9519453 2.3509625e-38
0.25944909 -0.69551873 2.9536433 2.3509629e-38
0.27147067 -0.65764809 2.9570062 2.3509633e-38
0.29509807 -0.63146073 2.9635994 2.3509638e-38
0.29859808 -0.59516549 2.964587 2.3509642e-38
0.30599722 -0.58297944 2.9666529 2.3509646e-38
0.31211743 -0.56038576 2.9683661 2.3509649e-38
0.32397717 -0.54225564 2.9716768 2.3509653e-38
0.3265042 -0.53877395 2.9723823 2.3509657e-38
0.32137987 -0.57745492 2.9709415 2.3509661e-38
0.32138038 -0.58298087 2.9709396 2.3509666e-38
0.31112823 -0.62166137 2.9680698 2.350967e-38
0.31112874 -0.62718731 2.9680679 2.3509674e-38
0.31112918 -0.63271326 2.9680665 2.3509678e-38
0.30600247 -0.64376462 2.966634 2.3509682e-38
0.30087665 -0.66586781 2.965198 2.3509687e-38
0.29575086 -0.687971 2.9637623 2.3509689e-38
0.29575136 -0.69349694 2.9637606 2.3509694e-38
0.29575187 -0.69902283 2.9637587 2.3509698e-38
0.28668559 -0.73128444 2.9612217 2.3509702e-38
0.29177049 -0.75319606 2.9626312 2.3509706e-38
0.29177088 -0.75867379 2.9626298 2.350971e-38
0.28668994 -0.78058439 2.9612062 2.3509715e-38
0.28669038 -0.78606224 2.9612045 2.3509719e-38
0.28669083 -0.79154003 2.9612029 2.3509723e-38
0.28669128 -0.79701781 2.9612012 2.3509726e-38
0.28669187 -0.80249554 2.9611993 2.350973e-38
0.28669232 -0.80797333 2.9611976 2.3509734e-38
0.2880545 -0.83374196 2.9615686 2.3509738e-38
0.28669563 -0.84631777 2.9611857 2.3509743e-38
0.28669602 -0.85179555 2.9611843 2.3509747e-38
0.28669652 -0.85727334 2.9611824 2.3509751e-38
0.2830171 -0.86633033 2.9601541 2.3509755e-38
0.28161621 -0.89013952 2.9597557 2.3509759e-38
0.28302038 -0.90435076 2.9601424 2.3509764e-38
0.28302094 -0.90978223 2.9601405 2.3509767e-38
0.28302228 -0.92607665 2.9601355 2.3509771e-38
0.27798414 -0.94780207 2.9587243 2.3509775e-38
0.27798459 -0.9532336 2.9587226 2.3509779e-38
0.27653936 -0.96135014 2.9583173 2.3509783e-38
0.26790822 -0.99668455 2.9559 2.3509788e-38
0.26790866 -1.002116 2.9558983 2.3509792e-38
0.26790917 -1.0075475 2.9558966 2.3509796e-38
0.26790962 -1.0129789 2.9558949 2.35098e-38
0.26791006 -1.0184104 2.9558933 2.3509804e-38
0.26791063 -1.023842 2.9558914 2.3509807e-38
0.26791102 -1.0292734 2.9558899 2.3509811e-38
0.25783223 -1.0455669 2.9530759 2.3509816e-38
0.25428274 -1.0635889 2.9520805 2.350982e-38
0.25279507 -1.0781553 2.9516611 2.3509824e-38
0.24775667 -1.0998807 2.9502499 2.3509828e-38
0.24605408 -1.1092473 2.9497721 2.3509832e-38
0.24271865 -1.1216061 2.9488385 2.3509837e-38
0.23929724 -1.1335949 2.9478812 2.3509841e-38
0.23929909 -1.1551356 2.9478745 2.3509845e-38
0.2392996 -1.1605209 2.9478729 2.3509848e-38
0.23768285 -1.1704891 2.9474189 2.3509852e-38
0.23264447 -1.1922145 2.9460077 2.3509856e-38
0.23264499 -1.1976459 2.9460058 2.350986e-38
0.23430678 -1.208987 2.9464653 2.3509865e-38
0.23430723 -1.2143722 2.9464636 2.3509869e-38
0.23264734 -1.2248034 2.9459975 2.3509873e-38
0.22573273 -1.2352343 2.9440672 2.3509877e-38
0.22064972 -1.2352338 2.9426508 2.3509881e-38
