# .PCD v0.7 - Point Cloud Data file format
VERSION 0.7
FIELDS x y z rgb
SIZE 4 4 4 4
TYPE F F F F
COUNT 1 1 1 1
WIDTH 203
HEIGHT 1
VIEWPOINT 0 0 0 1 0 0 0
POINTS 203
DATA ascii
1.5873501 1.2224478 -0.3679474 2.3509528e-38
1.6087407 1.217412 -0.35608023 2.350953e-38
1.6218094 1.214541 -0.34930757 2.3509531e-38
1.6423415 1.2077712 -0.33341965 2.3509532e-38
1.6770715 1.2042937 -0.32506561 2.3509535e-38
1.6948166 1.2019665 -0.31951869 2.3509537e-38
1.7172176 1.1962149 -0.30598104 2.3509538e-38
1.7253276 1.194935 -0.30294308 2.3509539e-38
1.7514938 1.1888242 -0.28854117 2.3509542e-38
1.7752565 1.1678946 -0.23974007 2.3509544e-38
1.7803285 1.1662176 -0.23580432 2.3509545e-38
1.8013661 1.1648422 -0.23244198 2.3509547e-38
1.8198391 1.1635718 -0.22934344 2.3509549e-38
1.8509048 1.1501496 -0.19792084 2.3509551e-38
1.867192 1.1433142 -0.1819151 2.3509552e-38
1.8857051 1.13965 -0.17325608 2.3509554e-38
1.8968712 1.1358275 -0.16428909 2.3509556e-38
1.9100374 1.1341448 -0.16027534 2.3509558e-38
1.9263 1.1312102 -0.15332943 2.3509559e-38
1.9396586 1.1267662 -0.14290133 2.3509561e-38
1.9525704 1.1221788 -0.13214298 2.3509563e-38
1.9586699 1.1216689 -0.13091022 2.3509565e-38
1.9702718 1.120343 -0.12773773 2.3509566e-38
2.0014641 1.1114126 -0.1067467 2.3509568e-38
2.0188565 1.1094048 -0.10194455 2.350957e-38
2.0401952 1.1068169 -0.095763318 2.3509572e-38
2.0510089 1.1042464 -0.089706458 2.3509573e-38
2.0613046 1.1040159 -0.089088991 2.3509575e-38
2.0831707 1.1003563 -0.080414228 2.3509577e-38
2.0986018 1.0955102 -0.069035381 2.3509579e-38
2.10869 1.0926567 -0.062327299 2.350958e-38
2.1164136 1.0898905 -0.055840515 2.3509582e-38
2.1186457 1.0894405 -0.05477763 2.3509584e-38
2.1575825 1.0870752 -0.048972927 2.3509586e-38
2.1759598 1.0806268 -0.033849001 2.3509587e-38
2.2079222 1.074051 -0.018320471 2.3509589e-38
2.2189767 1.0713768 -0.012020845 2.3509591e-38
2.2338579 1.0664881 -0.00054761767 2.3509593e-38
2.2549088 1.055107 0.026054535 2.3509594e-38
2.2648609 1.0491962 0.039862536 2.3509596e-38
2.2708294 1.0461597 0.046962906 2.3509598e-38
2.2897916 1.039385 0.062849425 2.35096e-38
2.3058779 1.0317202 0.080780253 2.3509601e-38
2.3247507 1.025098 0.096311912 2.3509604e-38
2.3568988 1.0212679 0.10546459 2.3509605e-38
2.3732977 1.0187793 0.11137577 2.3509607e-38
2.400933 1.0122535 0.12675324 2.3509608e-38
2.4218535 1.0037179 0.14674544 2.3509611e-38
2.4393902 1.0037662 0.1467734 2.3509612e-38
2.470412 0.99690521 0.16295667 2.3509614e-38
2.4742594 0.99701828 0.16272485 2.3509615e-38
2.506846 0.99351126 0.17113064 2.3509618e-38
2.5108478 0.99419135 0.16958304 2.3509619e-38
2.5156791 0.99783397 0.16116135 2.3509621e-38
2.5117226 0.99763888 0.16158271 2.3509622e-38
2.5077662 0.99744385 0.16200417 2.3509625e-38
2.4695101 0.99987012 0.15606311 2.3509626e-38
2.4665005 1.0003935 0.15482339 2.3509628e-38
2.4420435 1.0066024 0.14020714 2.3509629e-38
2.4327462 1.0095584 0.13326702 2.3509632e-38
2.399049 1.0153775 0.11948234 2.3509633e-38
2.3975353 1.0158589 0.11835234 2.3509635e-38
2.3858621 1.0185078 0.11210658 2.3509636e-38
2.3641498 1.0212551 0.10555219 2.3509639e-38
2.359338 1.0222349 0.10323799 2.350964e-38
2.3407807 1.0273584 0.091189861 2.3509642e-38
2.3236616 1.0338256 0.076032214 2.3509643e-38
2.3137553 1.0363587 0.070069589 2.3509646e-38
2.2967072 1.0429152 0.054705303 2.3509647e-38
2.2717528 1.0520275 0.033341747 2.3509649e-38
2.2638831 1.0578392 0.019780412 2.350965e-38
2.2892857 1.0914725 -0.058133632 2.3509653e-38
2.3308156 1.0918392 -0.05865353 2.3509654e-38
2.3770728 1.0807337 -0.032489873 2.3509656e-38
2.3972127 1.0784236 -0.026963338 2.3509657e-38
2.4186032 1.0720099 -0.011896033 2.350966e-38
2.4308033 1.0670003 -0.00016294443 2.3509661e-38
2.4385409 1.065014 0.0045119859 2.3509663e-38
2.466747 1.0605408 0.015126957 2.3509664e-38
2.5076053 1.0596162 0.01760089 2.3509667e-38
2.5451264 1.0529708 0.033335552 2.3509668e-38
2.5702996 1.0514133 0.037154194 2.350967e-38
2.5816281 1.0497599 0.041084975 2.3509673e-38
2.6009305 1.0503465 0.039876763 2.3509674e-38
2.6147771 1.05035 0.039979395 2.3509675e-38
2.6292305 1.0489378 0.043374646 2.3509677e-38
2.6560004 1.0481163 0.045496579 2.350968e-38
2.6848335 1.0519382 0.036850441 2.3509681e-38
2.6969895 1.0740097 -0.014315845 2.3509682e-38
2.7010131 1.0795422 -0.027133361 2.3509684e-38
2.7240534 1.095602 -0.064250126 2.3509687e-38
2.7316329 1.0986432 -0.071253002 2.3509688e-38
2.7494705 1.1093972 -0.096087582 2.3509689e-38
2.7699323 1.130385 -0.1446705 2.3509691e-38
2.7757182 1.132929 -0.15053284 2.3509694e-38
2.7815516 1.1407362 -0.16861942 2.3509695e-38
2.7873585 1.1450812 -0.17866457 2.3509696e-38
2.7985742 1.1503811 -0.19088471 2.3509698e-38
2.8076265 1.1570525 -0.20630753 2.3509701e-38
2.8263717 1.1701432 -0.23656218 2.3509702e-38
2.8280883 1.1740236 -0.24556114 2.3509703e-38
2.8491375 1.1875608 -0.27683446 2.3509705e-38
2.8590734 1.1953107 -0.29475501 2.3509708e-38
2.8626685 1.1985924 -0.30234843 2.3509709e-38
2.8668118 1.2033473 -0.31335893 2.350971e-38
2.9212706 1.2164103 -0.34326369 2.3509712e-38
2.8969524 1.2431085 -0.40546775 2.3509715e-38
2.9239154 1.2571239 -0.43780437 2.3509716e-38
2.9299707 1.2612803 -0.44740993 2.3509717e-38
2.9791367 1.2741276 -0.47685593 2.3509719e-38
2.9720275 1.2879825 -0.50909245 2.3509722e-38
2.9737868 1.291959 -0.51831424 2.3509723e-38
2.9816513 1.3001263 -0.53722066 2.3509724e-38
2.9760489 1.317426 -0.57744581 2.3509726e-38
2.9838815 1.3253328 -0.59574735 2.3509729e-38
2.9867785 1.3269013 -0.59936732 2.350973e-38
2.9667892 1.3410244 -0.63232982 2.3509731e-38
2.9589045 1.3436317 -0.63844836 2.3509733e-38
2.9431343 1.3488462 -0.65068549 2.3509736e-38
2.9340479 1.3392841 -0.62854916 2.3509737e-38
2.9159987 1.3322711 -0.61240494 2.3509738e-38
2.9075675 1.323027 -0.59100217 2.350974e-38
2.9103796 1.3071849 -0.55418473 2.3509743e-38
2.918016 1.3046601 -0.54825926 2.3509744e-38
2.9537117 1.2754102 -0.4800382 2.3509745e-38
2.92135 1.2608553 -0.44649172 2.3509748e-38
2.8918622 1.2505126 -0.42270526 2.350975e-38
2.8266492 1.2546903 -0.4329294 2.3509751e-38
2.8050594 1.2697079 -0.46798211 2.3509752e-38
2.8027451 1.2808633 -0.49391004 2.3509755e-38
2.8063312 1.2886564 -0.51198179 2.3509757e-38
2.7977436 1.3162997 -0.57625479 2.3509758e-38
2.772367 1.3152053 -0.57391602 2.3509759e-38
2.7400217 1.3189871 -0.58295792 2.3509762e-38
2.7240968 1.3260244 -0.59943014 2.3509764e-38
2.6964555 1.3262868 -0.60026056 2.3509765e-38
2.67453 1.3279907 -0.60439318 2.3509767e-38
2.6550679 1.3331544 -0.61654192 2.3509769e-38
2.6465364 1.3361319 -0.62352592 2.3509771e-38
2.6192701 1.3361845 -0.62386596 2.3509772e-38
2.5773208 1.3472067 -0.64980161 2.3509774e-38
2.5721042 1.3508356 -0.65827143 2.3509776e-38
2.5532827 1.3610206 -0.68207759 2.3509778e-38
2.5126767 1.3580616 -0.67552966 2.3509779e-38
2.4962361 1.3594733 -0.67893976 2.3509781e-38
2.4712412 1.3634912 -0.68847162 2.3509783e-38
2.4623139 1.3665746 -0.69570446 2.3509785e-38
2.442934 1.3754811 -0.71654594 2.3509786e-38
2.433022 1.3742468 -0.71375823 2.3509788e-38
2.3847816 1.3742164 -0.71407306 2.350979e-38
2.3692949 1.3790935 -0.72552431 2.3509792e-38
2.3561654 1.3809315 -0.72989821 2.3509793e-38
2.3039451 1.3906405 -0.75286579 2.3509795e-38
2.2764091 1.405362 -0.78727812 2.3509797e-38
2.2748287 1.4090543 -0.79586625 2.3509799e-38
2.2479694 1.4074134 -0.79226971 2.35098e-38
2.2087064 1.4154092 -0.81115514 2.3509802e-38
2.1903536 1.418932 -0.81948376 2.3509804e-38
2.1673677 1.4257283 -0.83545256 2.3509806e-38
2.0781059 1.4313117 -0.84913397 2.3509807e-38
2.0667212 1.4328029 -0.85268849 2.3509809e-38
2.0122855 1.4427571 -0.87624305 2.3509811e-38
1.9998755 1.4472957 -0.8868838 2.3509813e-38
1.9828026 1.4508185 -0.89520222 2.3509814e-38
1.9584049 1.4519827 -0.89810109 2.3509817e-38
1.948796 1.4532186 -0.90104824 2.3509818e-38
1.9152378 1.4562349 -0.90832233 2.350982e-38
1.904616 1.4567808 -0.909675 2.3509821e-38
1.8938525 1.4578923 -0.91234267 2.3509824e-38
1.8859826 1.4593587 -0.91581142 2.3509825e-38
1.8492564 1.4584588 -0.91401482 2.3509827e-38
1.8341291 1.4584919 -0.91421247 2.3509828e-38
1.8151892 1.4573462 -0.91170317 2.3509831e-38
1.7860248 1.4432234 -0.879134 2.3509832e-38
1.7543508 1.4328779 -0.85535914 2.3509834e-38
1.7656791 1.4067754 -0.79464257 2.3509835e-38
1.757212 1.3947712 -0.76682943 2.3509838e-38
1.733092 1.3856596 -0.74585921 2.3509839e-38
1.7264239 1.3738115 -0.71839416 2.3509841e-38
1.7081618 1.3535041 -0.6713739 2.3509842e-38
1.6869895 1.3423865 -0.6457215 2.3509845e-38
1.6760241 1.336772 -0.63276857 2.3509846e-38
1.6772472 1.3339148 -0.62612283 2.3509848e-38
1.6707432 1.3200433 -0.59395695 2.3509849e-38
1.6702454 1.31446 -0.58099312 2.3509852e-38
1.660695 1.3054224 -0.56007874 2.3509853e-38
1.63351 1.2938044 -0.53331184 2.3509855e-38
1.630813 1.2873117 -0.51825351 2.3509856e-38
1.6199242 1.2741574 -0.48778823 2.3509859e-38
1.612533 1.2664579 -0.46996421 2.350986e-38
1.6003737 1.2595313 -0.45397362 2.3509862e-38
1.5911511 1.2548823 -0.44324979 2.3509863e-38
1.5923686 1.2522265 -0.43707162 2.3509866e-38
1.5931579 1.2437725 -0.41742992 2.3509867e-38
1.5852672 1.2346493 -0.39630345 2.3509869e-38
1.9778798 1.1669719 -0.23597755 2.350987e-38
1.9348009 1.1773469 -0.26041907 2.3509873e-38
1.906425 1.1772652 -0.26045597 2.3509874e-38
1.8943942 1.1409347 -0.17617074 2.3509876e-38
1.9019909 1.1380177 -0.16933477 2.3509877e-38
1.921057 1.1334651 -0.15860838 2.350988e-38
1.98773 1.156708 -0.21205983 2.3509881e-38
1.9838444 1.1623206 -0.22512673 2.3509883e-38
