# .PCD v0.7 - Point Cloud Data file format
VERSION 0.7
FIELDS x y z rgb
SIZE 4 4 4 4
TYPE F F F F
COUNT 1 1 1 1
WIDTH 103
HEIGHT 1
VIEWPOINT 0 0 0 1 0 0 0
POINTS 103
DATA ascii
0.92208332 0.35636339 2.7627034 2.3509528e-38
0.92196369 0.35124284 2.7626386 2.3509531e-38
0.92709357 0.3141714 2.751091 2.3509534e-38
0.92906147 0.30163702 2.7467556 2.3509538e-38
0.93040729 0.27700263 2.7428932 2.3509541e-38
0.93016964 0.26684687 2.7427645 2.3509545e-38
0.9299317 0.2566911 2.7426357 2.3509548e-38
0.92981309 0.25161314 2.7425714 2.3509552e-38
0.93701714 0.20402341 2.7266052 2.3509555e-38
0.93530267 0.18993957 2.7289844 2.3509559e-38
0.94328141 0.15769044 2.7124453 2.3509562e-38
0.94385672 0.14956425 2.710928 2.3509566e-38
0.94971257 0.099863544 2.6973341 2.3509569e-38
0.95762753 0.071962282 2.6811552 2.3509573e-38
0.96396977 0.040410526 2.6676776 2.3509576e-38
0.97379243 0.013638694 2.6480389 2.350958e-38
0.97742999 -0.011385472 2.6399212 2.3509583e-38
0.9794206 -0.027117008 2.635365 2.3509587e-38
0.98014617 -0.030443562 2.6338394 2.350959e-38
0.9847402 -0.075033344 2.6228614 2.3509594e-38
0.9843989 -0.083946951 2.6229935 2.3509597e-38
0.9842661 -0.10953328 2.6218085 2.35096e-38
0.98513216 -0.12427124 2.619385 2.3509604e-38
0.98498684 -0.14571941 2.6184547 2.3509607e-38
0.97424018 -0.19453593 2.6355743 2.3509611e-38
0.98223978 -0.19552937 2.6207438 2.3509614e-38
0.9877615 -0.19556135 2.6105433 2.3509618e-38
0.99575335 -0.19659603 2.5957248 2.3509621e-38
0.99662447 -0.19546695 2.5941792 2.3509625e-38
1.0150396 -0.16594753 2.5618167 2.3509628e-38
1.0301344 -0.15308091 2.534656 2.3509632e-38
1.033908 -0.14986427 2.5278659 2.3509635e-38
1.0376817 -0.14664768 2.5210757 2.3509639e-38
1.0606093 -0.14099567 2.4790444 2.3509642e-38
1.0843441 -0.12541598 2.4360771 2.3509646e-38
1.093554 -0.11436644 2.4196846 2.3509649e-38
1.1050949 -0.11072794 2.3985727 2.3509653e-38
1.119236 -0.10481746 2.3727841 2.3509656e-38
1.1200306 -0.10378736 2.3713739 2.350966e-38
1.1208254 -0.10275716 2.3699636 2.3509663e-38
1.1346287 -0.093557805 2.3449836 2.3509667e-38
1.1405265 -0.092694186 2.3341389 2.350967e-38
1.1444792 -0.092800491 2.3268321 2.3509673e-38
1.145454 -0.092700131 2.325037 2.3509677e-38
1.1505297 -0.08362297 2.3161695 2.350968e-38
1.1546608 -0.075017758 2.3090205 2.3509684e-38
1.1597016 -0.06600327 2.3002145 2.3509687e-38
1.1598012 -0.061745174 2.3002684 2.3509691e-38
1.1567093 -0.027381038 2.3079 2.3509694e-38
1.1549883 -0.019762184 2.3115048 2.3509698e-38
1.1532109 -0.010631661 2.3152981 2.3509701e-38
1.1503861 -0.0066450257 2.3207381 2.3509705e-38
1.1455864 -0.00198484 2.329864 2.3509708e-38
1.1380357 0.010158642 2.3444889 2.3509712e-38
1.1270099 0.047084406 2.3669171 2.3509715e-38
1.1262143 0.05579355 2.3688736 2.3509719e-38
1.1254185 0.064502694 2.3708301 2.3509722e-38
1.1193719 0.07413663 2.3825371 2.3509726e-38
1.1146672 0.1312021 2.3944161 2.3509729e-38
1.1147714 0.13563976 2.3944724 2.3509733e-38
1.1148753 0.14007741 2.3945284 2.3509736e-38
1.114979 0.14451495 2.3945847 2.350974e-38
1.115083 0.14895262 2.3946409 2.3509743e-38
1.110324 0.1727529 2.4047608 2.3509745e-38
1.1028186 0.21005349 2.4207084 2.350975e-38
1.1020057 0.21894915 2.4227068 2.3509752e-38
1.1010878 0.22334428 2.4246483 2.3509757e-38
1.095288 0.26157844 2.4374979 2.3509759e-38
1.0953941 0.2661123 2.4375553 2.3509764e-38
1.0884391 0.28639689 2.451535 2.3509767e-38
1.0858591 0.30890277 2.4575586 2.3509771e-38
1.0859658 0.31346798 2.4576166 2.3509774e-38
1.0790871 0.35273951 2.4725168 2.3509778e-38
1.0791947 0.35733807 2.4725752 2.3509781e-38
1.0793023 0.36193672 2.4726334 2.3509785e-38
1.0794098 0.36653525 2.4726915 2.3509788e-38
1.0720819 0.38790876 2.487421 2.3509792e-38
1.0711371 0.3924323 2.489419 2.3509795e-38
1.0633616 0.41935647 2.5052857 2.3509799e-38
1.0632752 0.45151564 2.5072429 2.3509802e-38
1.0615896 0.4699654 2.5113876 2.3509806e-38
1.051737 0.49229875 2.5308337 2.3509809e-38
1.0507777 0.49689099 2.5328622 2.3509813e-38
1.0442032 0.52460349 2.5465546 2.3509816e-38
1.042714 0.55280608 2.5508816 2.3509818e-38
1.0419694 0.56690723 2.5530453 2.3509823e-38
1.0538052 0.62090176 2.5342026 2.3509825e-38
1.0341734 0.59039944 2.5687575 2.350983e-38
1.0118817 0.60400307 2.6106901 2.3509832e-38
1.0030855 0.61883819 2.6277664 2.3509837e-38
0.99357903 0.63837105 2.6464164 2.3509839e-38
0.98335242 0.64350909 2.6655924 2.3509844e-38
0.98098046 0.63831741 2.6696825 2.3509846e-38
0.95802861 0.61336374 2.7106795 2.3509851e-38
0.94863129 0.57411593 2.7258425 2.3509853e-38
0.94565195 0.54142958 2.7295177 2.3509858e-38
0.93138093 0.50545543 2.7538657 2.350986e-38
0.91906053 0.49911633 2.7762668 2.3509865e-38
0.91893977 0.49395531 2.7762015 2.3509867e-38
0.9179734 0.45266593 2.7756782 2.3509872e-38
0.91631651 0.4319005 2.7775776 2.3509874e-38
0.91490138 0.42145741 2.7796075 2.3509879e-38
0.92372715 0.37696496 2.7608192 2.3509881e-38
