# .PCD v0.7 - Point Cloud Data file format
VERSION 0.7
FIELDS x y z rgb
SIZE 4 4 4 4
TYPE F F F F
COUNT 1 1 1 1
WIDTH 72
HEIGHT 1
VIEWPOINT 0 0 0 1 0 0 0
POINTS 72
DATA ascii
-2.0324562 0.73631597 0.1119176 2.3509528e-38
-2.0384963 0.71294427 0.12026653 2.3509532e-38
-2.0518284 0.70835215 0.1510869 2.3509538e-38
-2.053488 0.70673609 0.15464753 2.3509542e-38
-2.0568068 0.70350391 0.16176893 2.3509548e-38
-2.0652325 0.69615632 0.18007459 2.3509552e-38
-2.0712273 0.69263804 0.19355018 2.3509558e-38
-2.0729337 0.69097644 0.19721118 2.3509562e-38
-2.082468 0.68391424 0.21825573 2.3509568e-38
-2.0865824 0.67768395 0.22649831 2.3509572e-38
-2.0920739 0.67684305 0.2394702 2.3509577e-38
-2.1020727 0.68714273 0.26620805 2.3509582e-38
-2.1009541 0.70139086 0.2672773 2.3509587e-38
-2.1014545 0.71560204 0.27222621 2.3509593e-38
-2.102329 0.72949255 0.27798951 2.3509597e-38
-2.1025577 0.73381573 0.27967873 2.3509603e-38
-2.1045611 0.75323367 0.28961191 2.3509607e-38
-2.1051793 0.75841963 0.29246452 2.3509612e-38
-2.1062915 0.77338088 0.29908124 2.3509617e-38
-2.1063342 0.79199958 0.30409321 2.3509622e-38
-2.1149735 0.83272439 0.33558664 2.3509626e-38
-2.1179104 0.84912235 0.34696615 2.3509632e-38
-2.1498551 0.87670249 0.43098593 2.3509636e-38
-2.1511481 0.87476128 0.4335801 2.3509642e-38
-2.1516953 0.89019269 0.4389638 2.3509647e-38
-2.1428707 0.9003045 0.42042848 2.3509652e-38
-2.1360245 0.90173489 0.40435734 2.3509657e-38
-2.1232352 0.91512901 0.37716222 2.3509661e-38
-2.0949469 0.94079506 0.31596655 2.3509667e-38
-2.0889969 0.94605488 0.30305791 2.3509671e-38
-2.0863402 0.94887149 0.29741764 2.3509677e-38
-2.0798872 0.95785969 0.28428385 2.3509681e-38
-2.0755424 0.96558815 0.27588338 2.3509687e-38
-2.0725734 0.96820891 0.26944175 2.3509691e-38
-2.0696034 0.97083044 0.26299697 2.3509696e-38
-2.0580604 0.97407407 0.23611997 2.3509701e-38
-2.056622 0.97431576 0.23272763 2.3509706e-38
-2.0417202 0.97506195 0.19712262 2.3509712e-38
-2.0299923 0.99831635 0.17507717 2.3509716e-38
-2.0176206 1.009413 0.14827962 2.3509722e-38
-2.0020537 1.0144062 0.11219645 2.3509726e-38
-1.9901057 1.0416046 0.090662256 2.3509731e-38
-1.9745582 1.049431 0.055372585 2.3509736e-38
-1.9611019 1.0498821 0.02316229 2.3509741e-38
-1.9582051 1.0523818 0.0168617 2.3509745e-38
-1.9443661 1.081549 -0.0086965086 2.3509751e-38
-1.9419519 1.0790148 -0.015165115 2.3509755e-38
-1.9390717 1.0704167 -0.024351865 2.3509761e-38
-1.9336312 1.0425034 -0.044782422 2.3509767e-38
-1.9298015 1.0160762 -0.060951289 2.3509771e-38
-1.9321223 0.9913553 -0.061893258 2.3509776e-38
-1.9330512 0.96870524 -0.065633535 2.3509781e-38
-1.9330261 0.96012449 -0.067956291 2.3509786e-38
-1.9325321 0.9519673 -0.071293801 2.350979e-38
-1.9304106 0.92740595 -0.08286684 2.3509796e-38
-1.9289711 0.90852398 -0.091303706 2.35098e-38
-1.9271111 0.89880431 -0.098334916 2.3509806e-38
-1.9259347 0.8802079 -0.10606445 2.350981e-38
-1.9264866 0.87314939 -0.10659968 2.3509816e-38
-1.9260392 0.85270464 -0.11306502 2.350982e-38
-1.9329962 0.83320671 -0.10149179 2.3509825e-38
-1.9349518 0.82815599 -0.098125048 2.3509831e-38
-1.9430245 0.81512272 -0.082166135 2.3509835e-38
-1.9537762 0.81367737 -0.056715921 2.3509841e-38
-1.9608693 0.81553549 -0.039184552 2.3509845e-38
-1.9701812 0.81036711 -0.018175147 2.3509851e-38
-1.9787903 0.79942191 -0.00037786405 2.3509855e-38
-1.9921044 0.7758956 0.025406845 2.350986e-38
-1.9949204 0.77361262 0.031570543 2.3509865e-38
-2.0036786 0.77085143 0.051884089 2.350987e-38
-2.0103638 0.76703256 0.066938534 2.3509874e-38
-2.0193901 0.75548017 0.085579053 2.350988e-38
