# .PCD v0.7 - Point Cloud Data file format
VERSION 0.7
FIELDS x y z rgb
SIZE 4 4 4 4
TYPE F F F F
COUNT 1 1 1 1
WIDTH 528
HEIGHT 1
VIEWPOINT 0 0 0 1 0 0 0
POINTS 528
DATA ascii
-2.1650395 0.024723973 2.0261571 2.3509528e-38
-2.2236948 0.03776608 1.9996071 2.3509528e-38
-2.2196825 0.0062105996 1.9885452 2.3509528e-38
-2.2209132 -0.0028675376 1.9840606 2.350953e-38
-2.2219586 -0.01184902 1.9797175 2.350953e-38
-2.2226048 -0.014892729 1.9780866 2.3509531e-38
-2.2294862 -0.02927958 1.9682869 2.3509531e-38
-2.2317064 -0.047610477 1.9593761 2.3509532e-38
-2.2302189 -0.061907496 1.9541836 2.3509532e-38
-2.2288094 -0.065613687 1.9533967 2.3509534e-38
-2.2499387 -0.12710387 1.9160351 2.3509534e-38
-2.252445 -0.13083966 1.9130973 2.3509535e-38
-2.249187 -0.16317137 1.9012975 2.3509535e-38
-2.2496448 -0.16539416 1.9001141 2.3509537e-38
-2.2509613 -0.17187351 1.8966737 2.3509537e-38
-2.2527354 -0.18057564 1.8920503 2.3509538e-38
-2.2659061 -0.20542303 1.8744231 2.3509538e-38
-2.2651544 -0.24149089 1.859686 2.3509539e-38
-2.2641776 -0.24559115 1.8584974 2.3509539e-38
-2.2626998 -0.28496364 1.8427687 2.3509541e-38
-2.2555535 -0.30391106 1.8387128 2.3509541e-38
-2.2542415 -0.32167661 1.8319683 2.3509542e-38
-2.2551208 -0.33361298 1.826475 2.3509542e-38
-2.2569134 -0.34198222 1.8219811 2.3509544e-38
-2.260375 -0.35896048 1.8129606 2.3509544e-38
-2.2649288 -0.38710761 1.7986525 2.3509545e-38
-2.2566061 -0.42323315 1.788025 2.3509545e-38
-2.2531118 -0.45207518 1.7778199 2.3509547e-38
-2.2582202 -0.47713146 1.7645073 2.3509547e-38
-2.259923 -0.48548362 1.7600698 2.3509548e-38
-2.2594523 -0.48729366 1.7595669 2.3509548e-38
-2.2517056 -0.52309918 1.7487592 2.3509548e-38
-2.2529511 -0.53113276 1.7447046 2.3509549e-38
-2.2520125 -0.55796766 1.733947 2.3509549e-38
-2.2513239 -0.56682557 1.7306031 2.3509551e-38
-2.2501664 -0.57589495 1.7274262 2.3509551e-38
-2.247627 -0.58575702 1.7246708 2.3509552e-38
-2.2558131 -0.63525069 1.6994144 2.3509552e-38
-2.2528558 -0.6444239 1.6971766 2.3509554e-38
-2.2478149 -0.66996622 1.6892021 2.3509554e-38
-2.2433722 -0.68760097 1.6842216 2.3509555e-38
-2.2411337 -0.70555782 1.6779019 2.3509555e-38
-2.2157166 -0.70986122 1.6899732 2.3509556e-38
-2.1825104 -0.71545535 1.7057552 2.3509556e-38
-2.1741054 -0.71687841 1.7097472 2.3509558e-38
-2.1657004 -0.71830153 1.7137388 2.3509558e-38
-2.1572952 -0.71972448 1.7177308 2.3509559e-38
-2.1488905 -0.72114748 1.7217222 2.3509559e-38
-2.1404853 -0.7225706 1.725714 2.3509561e-38
-2.1250477 -0.72515786 1.7330569 2.3509561e-38
-2.1236753 -0.72541672 1.7336977 2.3509562e-38
-2.1152704 -0.72683978 1.7376891 2.3509562e-38
-2.1068654 -0.72826278 1.7416807 2.3509563e-38
-2.0984602 -0.72968584 1.7456727 2.3509563e-38
-2.0900552 -0.7311089 1.7496647 2.3509565e-38
-2.0750027 -0.7336309 1.7568243 2.3509565e-38
-2.0666621 -0.73504311 1.7607857 2.3509566e-38
-2.0583212 -0.73645526 1.7647469 2.3509566e-38
-2.0499804 -0.7378673 1.7687079 2.3509568e-38
-2.0416398 -0.73927951 1.7726693 2.3509568e-38
-2.0396252 -0.73964709 1.7736146 2.3509568e-38
-2.03122 -0.74107021 1.7776067 2.3509569e-38
-2.022815 -0.74249309 1.7815983 2.3509569e-38
-2.01441 -0.74391627 1.7855903 2.350957e-38
-1.9999354 -0.74634045 1.7924755 2.350957e-38
-1.9915947 -0.74775261 1.7964367 2.3509572e-38
-1.983254 -0.74916482 1.800398 2.3509572e-38
-1.9749131 -0.75057697 1.8043591 2.3509573e-38
-1.9665724 -0.75198907 1.8083205 2.3509573e-38
-1.9527706 -0.75430059 1.8148856 2.3509575e-38
-1.9444908 -0.75570244 1.8188181 2.3509575e-38
-1.936211 -0.75710434 1.8227502 2.3509576e-38
-1.9226532 -0.75937474 1.8291999 2.3509576e-38
-1.9144343 -0.76076615 1.8331031 2.3509577e-38
-1.9062157 -0.76215774 1.8370066 2.3509577e-38
-1.9030918 -0.7627117 1.8384793 2.3509579e-38
-1.894812 -0.76411349 1.8424116 2.3509579e-38
-1.8865323 -0.76551533 1.846344 2.350958e-38
-1.8782524 -0.76691711 1.8502762 2.350958e-38
-1.8651215 -0.76911521 1.8565227 2.3509582e-38
-1.8569028 -0.77050692 1.8604263 2.3509582e-38
-1.8486838 -0.77189827 1.8643295 2.3509583e-38
-1.8451332 -0.7725246 1.8660054 2.3509583e-38
-1.8368533 -0.77392644 1.8699374 2.3509584e-38
-1.8285736 -0.77532828 1.8738699 2.3509584e-38
-1.8202938 -0.77673006 1.877802 2.3509586e-38
-1.8120139 -0.7781319 1.8817343 2.3509586e-38
-1.8037343 -0.77953374 1.8856666 2.3509587e-38
-1.7911524 -0.78163898 1.8916526 2.3509587e-38
-1.7829335 -0.78303039 1.8955559 2.3509587e-38
-1.7747147 -0.78442198 1.8994594 2.3509589e-38
-1.7664958 -0.78581339 1.9033625 2.3509589e-38
-1.7582773 -0.78720498 1.9072658 2.350959e-38
-1.7460613 -0.78924793 1.9130782 2.350959e-38
-1.7379036 -0.79062915 1.9169526 2.3509591e-38
-1.7297457 -0.79201031 1.9208268 2.3509591e-38
-1.7215878 -0.79339147 1.924701 2.3509593e-38
-1.7134302 -0.79477268 1.9285752 2.3509593e-38
-1.7052722 -0.79615396 1.9324498 2.3509594e-38
-1.6971143 -0.79753506 1.936324 2.3509594e-38
-1.6853865 -0.79949558 1.9419044 2.3509596e-38
-1.6772896 -0.80086648 1.9457495 2.3509596e-38
-1.6657451 -0.80279577 1.9512432 2.3509597e-38
-1.6577091 -0.8041563 1.9550595 2.3509597e-38
-1.6496732 -0.8055169 1.958876 2.3509598e-38
-1.6449025 -0.80634993 1.9611312 2.3509598e-38
-1.620612 -0.81046247 1.9726671 2.35096e-38
-1.6125153 -0.8118335 1.9765128 2.35096e-38
-1.6044185 -0.81320423 1.9803581 2.3509601e-38
-1.5934227 -0.81504065 1.9855909 2.3509601e-38
-1.5853871 -0.81640124 1.9894072 2.3509603e-38
-1.5773511 -0.81776172 1.9932238 2.3509603e-38
-1.5693152 -0.81912225 1.9970399 2.3509604e-38
-1.5612794 -0.82048273 2.0008564 2.3509604e-38
-1.5532435 -0.82184327 2.0046728 2.3509605e-38
-1.545208 -0.82320374 2.0084891 2.3509605e-38
-1.537172 -0.82456428 2.0123055 2.3509607e-38
-1.5268521 -0.82628787 2.0172167 2.3509607e-38
-1.518874 -0.82763857 2.0210059 2.3509607e-38
-1.510896 -0.82898939 2.0247946 2.3509608e-38
-1.502918 -0.83034003 2.0285833 2.3509608e-38
-1.4949398 -0.83169079 2.0323725 2.350961e-38
-1.4869618 -0.83304155 2.0361614 2.350961e-38
-1.4770465 -0.83469641 2.0408807 2.3509611e-38
-1.4691262 -0.8360374 2.0446422 2.3509611e-38
-1.4612062 -0.83737844 2.0484035 2.3509612e-38
-1.4532857 -0.83871937 2.052165 2.3509612e-38
-1.4470718 -0.83979529 2.0551062 2.3509614e-38
-1.4374454 -0.84140128 2.0596881 2.3509614e-38
-1.429525 -0.8427422 2.0634494 2.3509615e-38
-1.4216049 -0.84408313 2.0672109 2.3509615e-38
-1.4136846 -0.84542418 2.0709727 2.3509617e-38
-1.4057645 -0.84676516 2.0747342 2.3509617e-38
-1.3978442 -0.84810609 2.0784955 2.3509618e-38
-1.3886945 -0.84963268 2.0828505 2.3509618e-38
-1.380829 -0.85096431 2.0865858 2.3509619e-38
-1.3729632 -0.85229617 2.0903215 2.3509619e-38
-1.3650975 -0.8536278 2.0940571 2.3509621e-38
-1.3561612 -0.8551169 2.0983112 2.3509621e-38
-1.3483533 -0.85643882 2.1020193 2.3509622e-38
-1.3405457 -0.85776073 2.1057274 2.3509622e-38
-1.3327377 -0.85908264 2.1094356 2.3509624e-38
-1.3241369 -0.86051637 2.1135297 2.3509624e-38
-1.3156455 -0.86193162 2.1175721 2.3509625e-38
-1.3079468 -0.86323512 2.1212282 2.3509625e-38
-1.300248 -0.86453849 2.1248844 2.3509626e-38
-1.2925494 -0.8658421 2.128541 2.3509626e-38
-1.2848507 -0.86714554 2.1321974 2.3509626e-38
-1.2771519 -0.86844897 2.1358535 2.3509628e-38
-1.269864 -0.86970532 2.1393051 2.3509628e-38
-1.2373987 -0.88573539 2.1503 2.3509629e-38
-1.2072475 -0.89843863 2.1614282 2.3509629e-38
-1.193625 -0.90455431 2.1662982 2.3509631e-38
-1.1903776 -0.90518731 2.1678054 2.3509631e-38
-1.1871302 -0.90582037 2.1693127 2.3509632e-38
-1.1773881 -0.90771943 2.1738346 2.3509632e-38
-1.1741409 -0.90835249 2.1753418 2.3509633e-38
-1.1675406 -0.90961069 2.1784172 2.3509633e-38
-1.1642725 -0.91024774 2.1799343 2.3509635e-38
-1.1611514 -0.91088456 2.1813707 2.3509635e-38
-1.1579041 -0.91151762 2.1828783 2.3509636e-38
-1.1546568 -0.91215068 2.1843855 2.3509636e-38
-1.1514094 -0.91278368 2.1858926 2.3509638e-38
-1.1481621 -0.91341674 2.1874001 2.3509638e-38
-1.1449147 -0.9140498 2.1889074 2.3509639e-38
-1.1416674 -0.91468281 2.1904147 2.3509639e-38
-1.1384201 -0.91531581 2.1919219 2.350964e-38
-1.1351727 -0.91594887 2.1934292 2.350964e-38
-1.1319253 -0.91658193 2.1949365 2.3509642e-38
-1.128678 -0.91721487 2.1964436 2.3509642e-38
-1.1254307 -0.91784799 2.1979511 2.3509643e-38
-1.1221833 -0.91848105 2.1994584 2.3509643e-38
-1.1189361 -0.91911399 2.2009656 2.3509645e-38
-1.1152521 -0.91980374 2.2026875 2.3509645e-38
-1.1124413 -0.92038012 2.2039802 2.3509646e-38
-1.1091939 -0.92101318 2.2054875 2.3509646e-38
-1.1054481 -0.92171496 2.2072382 2.3509647e-38
-1.10218 -0.92235196 2.208755 2.3509647e-38
-1.098912 -0.92298907 2.2102718 2.3509647e-38
-1.0956439 -0.92362612 2.2117889 2.3509649e-38
-1.092376 -0.92426324 2.2133057 2.3509649e-38
-1.0891079 -0.92490029 2.2148228 2.350965e-38
-1.0858397 -0.92553729 2.2163393 2.350965e-38
-1.0825717 -0.92617434 2.2178562 2.3509652e-38
-1.0799679 -0.92671043 2.2190533 2.3509652e-38
-1.0767204 -0.92734343 2.2205603 2.3509653e-38
-1.0734731 -0.92797649 2.2220676 2.3509653e-38
-1.0702257 -0.92860955 2.2235749 2.3509654e-38
-1.0669783 -0.92924261 2.2250822 2.3509654e-38
-1.063731 -0.92987561 2.2265894 2.3509656e-38
-1.0604838 -0.93050867 2.228097 2.3509656e-38
-1.0572363 -0.93114161 2.229604 2.3509657e-38
-1.0466233 -0.93318206 2.2345419 2.3509657e-38
-1.0302833 -0.93636745 2.2421267 2.3509659e-38
-1.0260204 -0.93717003 2.2441173 2.3509659e-38
-1.0227315 -0.93781108 2.2456436 2.350966e-38
-1.0194427 -0.93845218 2.24717 2.350966e-38
-1.013889 -0.93947381 2.2497735 2.3509661e-38
-1.010556 -0.94012356 2.2513206 2.3509661e-38
-1.007223 -0.94077325 2.2528677 2.3509663e-38
-1.0038899 -0.94142306 2.2544148 2.3509663e-38
-1.001778 -0.94186527 2.2553823 2.3509664e-38
-0.99846715 -0.94251066 2.2569189 2.3509664e-38
-0.99515635 -0.94315606 2.2584558 2.3509666e-38
-0.99184537 -0.94380152 2.2599926 2.3509666e-38
-0.98853457 -0.94444692 2.2615292 2.3509667e-38
-0.98522365 -0.94509232 2.2630661 2.3509667e-38
-0.98191279 -0.94573772 2.2646029 2.3509667e-38
-0.97860193 -0.94638318 2.2661395 2.3509668e-38
-0.97529113 -0.94702858 2.2676764 2.3509668e-38
-0.95722741 -0.95051938 2.2760737 2.350967e-38
-0.95389444 -0.95116919 2.2776208 2.350967e-38
-0.95056134 -0.95181888 2.2791679 2.3509671e-38
-0.9456526 -0.95274538 2.2814591 2.3509671e-38
-0.94229734 -0.95339936 2.2830162 2.3509673e-38
-0.93894213 -0.95405346 2.2845736 2.3509673e-38
-0.93558693 -0.9547075 2.2861311 2.3509674e-38
-0.93223178 -0.9553616 2.2876885 2.3509674e-38
-0.92887652 -0.95601559 2.2892456 2.3509675e-38
-0.92552131 -0.95666963 2.290803 2.3509675e-38
-0.92216617 -0.95732373 2.2923603 2.3509677e-38
-0.91705793 -0.95828903 2.2947443 2.3509677e-38
-0.91368061 -0.95894736 2.2963119 2.3509678e-38
-0.91030318 -0.95960575 2.2978795 2.3509678e-38
-0.90692592 -0.96026421 2.2994473 2.350968e-38
-0.9035486 -0.96092254 2.3010149 2.350968e-38
-0.90017122 -0.96158093 2.3025825 2.3509681e-38
-0.89679378 -0.96223927 2.3041501 2.3509681e-38
-0.89341646 -0.96289766 2.3057177 2.3509682e-38
-0.89003903 -0.96355605 2.3072853 2.3509682e-38
-0.88666159 -0.96421438 2.3088529 2.3509684e-38
-0.88328427 -0.96487272 2.3104205 2.3509684e-38
-0.87990683 -0.96553111 2.3119881 2.3509685e-38
-0.87451065 -0.96655279 2.3145058 2.3509685e-38
-0.87111104 -0.96721548 2.3160837 2.3509687e-38
-0.86771148 -0.96787816 2.3176615 2.3509687e-38
-0.86431217 -0.96854091 2.3192396 2.3509687e-38
-0.85866439 -0.96960926 2.3218746 2.3509688e-38
-0.85296941 -0.97068691 2.3245316 2.3509688e-38
-0.84722716 -0.97177368 2.3272104 2.3509689e-38
-0.84375685 -0.97245026 2.3288214 2.3509689e-38
-0.84028649 -0.97312683 2.3304324 2.3509691e-38
-0.83681589 -0.97380328 2.3320429 2.3509691e-38
-0.83334559 -0.97447985 2.3336539 2.3509692e-38
-0.82987511 -0.97515637 2.3352647 2.3509692e-38
-0.82640469 -0.97583294 2.3368757 2.3509694e-38
-0.82293421 -0.97650945 2.3384864 2.3509694e-38
-0.81946379 -0.97718596 2.3400972 2.3509695e-38
-0.81599331 -0.97786248 2.3417082 2.3509695e-38
-0.81252289 -0.97853893 2.3433189 2.3509696e-38
-0.80905241 -0.97921544 2.3449297 2.3509696e-38
-0.80558193 -0.97989202 2.3465405 2.3509698e-38
-0.80211145 -0.98056847 2.3481512 2.3509698e-38
-0.79864115 -0.98124504 2.3497622 2.3509699e-38
-0.79517066 -0.98192155 2.351373 2.3509699e-38
-0.7917003 -0.98259813 2.352984 2.3509701e-38
-0.78822988 -0.98327464 2.3545947 2.3509701e-38
-0.7847594 -0.98395115 2.3562055 2.3509702e-38
-0.77854437 -0.98513019 2.3591039 2.3509702e-38
-0.77505046 -0.98581141 2.3607259 2.3509703e-38
-0.77155638 -0.98649251 2.3623476 2.3509703e-38
-0.76806235 -0.98717368 2.3639696 2.3509705e-38
-0.76456809 -0.98785472 2.365591 2.3509705e-38
-0.76107401 -0.98853582 2.3672128 2.3509706e-38
-0.75757992 -0.98921704 2.3688347 2.3509706e-38
-0.7540859 -0.98989815 2.3704565 2.3509706e-38
-0.75059193 -0.99057931 2.3720784 2.3509708e-38
-0.74709767 -0.99126035 2.3737001 2.3509708e-38
-0.74062276 -0.99249011 2.3767192 2.3509709e-38
-0.73710495 -0.9931758 2.3783519 2.3509709e-38
-0.73358727 -0.99386156 2.3799849 2.350971e-38
-0.7300697 -0.99454737 2.3816178 2.350971e-38
-0.72655183 -0.99523306 2.3832502 2.3509712e-38
-0.72303414 -0.99591881 2.3848832 2.3509712e-38
-0.71619844 -0.99721688 2.3880703 2.3509713e-38
-0.71265566 -0.99790752 2.3897147 2.3509713e-38
-0.70911288 -0.99859816 2.3913593 2.3509715e-38
-0.70556992 -0.9992888 2.3930037 2.3509715e-38
-0.69860876 -1.0006112 2.3962493 2.3509716e-38
-0.69504082 -1.0013067 2.3979056 2.3509716e-38
-0.69147289 -1.0020021 2.3995614 2.3509717e-38
-0.68790501 -1.0026978 2.4012179 2.3509717e-38
-0.68433696 -1.0033933 2.4028738 2.3509719e-38
-0.68076921 -1.0040889 2.40453 2.3509719e-38
-0.67720115 -1.0047843 2.4061861 2.350972e-38
-0.67003894 -1.0061458 2.4095247 2.350972e-38
-0.66644597 -1.0068464 2.4111927 2.3509722e-38
-0.66285282 -1.0075468 2.4128604 2.3509722e-38
-0.6592598 -1.0082473 2.4145281 2.3509723e-38
-0.65566671 -1.0089476 2.4161959 2.3509723e-38
-0.65207368 -1.0096481 2.4178636 2.3509724e-38
-0.64848059 -1.0103484 2.4195313 2.3509724e-38
-0.64488745 -1.0110489 2.4211991 2.3509726e-38
-0.64129466 -1.0117495 2.4228671 2.3509726e-38
-0.63770145 -1.0124499 2.4245346 2.3509726e-38
-0.63410836 -1.0131502 2.4262023 2.3509727e-38
-0.62641716 -1.014613 2.4297876 2.3509727e-38
-0.62279755 -1.0153188 2.431468 2.3509729e-38
-0.6152572 -1.016754 2.4349823 2.3509729e-38
-0.61193871 -1.0174357 2.4365082 2.350973e-38
-0.60831892 -1.0181412 2.4381881 2.350973e-38
-0.60469919 -1.0188468 2.4398682 2.3509731e-38
-0.60107958 -1.0195524 2.4415483 2.3509731e-38
-0.59745985 -1.0202579 2.4432285 2.3509733e-38
-0.5938403 -1.0209635 2.4449086 2.3509733e-38
-0.59022063 -1.0216691 2.4465885 2.3509734e-38
-0.5866009 -1.0223747 2.4482687 2.3509734e-38
-0.58298129 -1.0230803 2.4499488 2.3509736e-38
-0.57936174 -1.0237862 2.4516292 2.3509736e-38
-0.57151997 -1.02528 2.4552834 2.3509737e-38
-0.56787521 -1.0259905 2.456975 2.3509737e-38
-0.56423038 -1.0267011 2.4586668 2.3509738e-38
-0.5605855 -1.0274115 2.4603584 2.3509738e-38
-0.55694091 -1.0281221 2.4620504 2.350974e-38
-0.54869258 -1.0296935 2.465894 2.350974e-38
-0.54502141 -1.0304092 2.4675984 2.3509741e-38
-0.54134983 -1.0311248 2.4693022 2.3509741e-38
-0.53767848 -1.0318406 2.4710064 2.3509743e-38
-0.53400719 -1.0325564 2.4727106 2.3509743e-38
-0.53033578 -1.0332719 2.4744146 2.3509744e-38
-0.52666438 -1.0339875 2.4761186 2.3509744e-38
-0.51820362 -1.0356005 2.4800613 2.3509745e-38
-0.51450533 -1.0363213 2.4817774 2.3509745e-38
-0.51080745 -1.0370421 2.483494 2.3509745e-38
-0.50710952 -1.037763 2.4852104 2.3509747e-38
-0.50341171 -1.038484 2.486927 2.3509747e-38
-0.49971372 -1.0392048 2.4886434 2.3509748e-38
-0.4960157 -1.0399257 2.4903598 2.3509748e-38
-0.49231774 -1.0406466 2.4920764 2.350975e-38
-0.48861977 -1.0413674 2.4937925 2.350975e-38
-0.48492187 -1.0420883 2.4955091 2.3509751e-38
-0.48122394 -1.0428092 2.4972258 2.3509751e-38
-0.47752601 -1.0435301 2.4989421 2.3509752e-38
-0.46843532 -1.0452634 2.5031776 2.3509752e-38
-0.46470943 -1.0459898 2.5049071 2.3509754e-38
-0.46098346 -1.0467162 2.5066366 2.3509754e-38
-0.45725733 -1.0474424 2.5083661 2.3509755e-38
-0.44949013 -1.040918 2.5153475 2.3509755e-38
-0.45022184 -1.0367754 2.5166874 2.3509757e-38
-0.45095375 -1.0326327 2.518028 2.3509757e-38
-0.45168567 -1.0284901 2.5193684 2.3509758e-38
-0.45241734 -1.0243473 2.5207083 2.3509758e-38
-0.45314929 -1.0202048 2.5220487 2.3509759e-38
-0.45388097 -1.0160619 2.5233889 2.3509759e-38
-0.45461288 -1.0119194 2.5247293 2.3509761e-38
-0.4553448 -1.0077767 2.5260696 2.3509761e-38
-0.45607638 -1.0036339 2.5274096 2.3509762e-38
-0.45900384 -0.98706335 2.5327709 2.3509762e-38
-0.45964053 -0.96293908 2.5425546 2.3509764e-38
-0.4595457 -0.94295752 2.5509987 2.3509764e-38
-0.46027741 -0.93881482 2.5523386 2.3509765e-38
-0.4546504 -0.90980071 2.5675969 2.3509765e-38
-0.44843018 -0.89359879 2.5777979 2.3509767e-38
-0.45207426 -0.85199106 2.5932827 2.3509767e-38
-0.45282233 -0.84775531 2.5946529 2.3509767e-38
-0.45357078 -0.84351981 2.5960236 2.3509768e-38
-0.45581529 -0.83081293 2.6001341 2.3509768e-38
-0.45733953 -0.77716053 2.6218352 2.3509769e-38
-0.45259658 -0.7718122 2.6266711 2.3509769e-38
-0.45729068 -0.76671129 2.62625 2.3509771e-38
-0.46121895 -0.76594549 2.6244266 2.3509771e-38
-0.48301291 -0.75969279 2.6151526 2.3509772e-38
-0.4869118 -0.75893277 2.613343 2.3509772e-38
-0.50868618 -0.75285751 2.6040051 2.3509774e-38
-0.5253616 -0.75181973 2.5953352 2.3509774e-38
-0.5292002 -0.75107163 2.593554 2.3509775e-38
-0.53303838 -0.7503233 2.5917723 2.3509775e-38
-0.53687662 -0.74957508 2.5899906 2.3509776e-38
-0.54071498 -0.74882686 2.5882089 2.3509776e-38
-0.54455328 -0.74807858 2.5864275 2.3509778e-38
-0.5483917 -0.74733043 2.584646 2.3509778e-38
-0.55222994 -0.74658215 2.5828643 2.3509779e-38
-0.57283556 -0.74060786 2.5741222 2.3509779e-38
-0.57664591 -0.73986506 2.5723536 2.3509781e-38
-0.58045608 -0.73912239 2.5705853 2.3509781e-38
-0.59383804 -0.7367782 2.5642624 2.3509782e-38
-0.59759218 -0.73604637 2.56252 2.3509782e-38
-0.61709458 -0.7282446 2.5551479 2.3509783e-38
-0.63102746 -0.72736633 2.5479088 2.3509783e-38
-0.66199976 -0.71709913 2.5353093 2.3509785e-38
-0.66964364 -0.71580482 2.5316787 2.3509785e-38
-0.68207031 -0.71635282 2.5246634 2.3509786e-38
-0.70025599 -0.71247727 2.5163615 2.3509786e-38
-0.70395374 -0.71175629 2.5146446 2.3509786e-38
-0.71913719 -0.70698965 2.5083559 2.3509788e-38
-0.72280866 -0.70627397 2.5066519 2.3509788e-38
-0.74162006 -0.70531434 2.4967837 2.3509789e-38
-0.74921274 -0.70402884 2.4931774 2.3509789e-38
-0.75880677 -0.70316851 2.4883003 2.350979e-38
-0.76297873 -0.7021932 2.4864316 2.350979e-38
-0.76614946 -0.70173711 2.4848921 2.3509792e-38
-0.7734921 -0.7003057 2.4814837 2.3509792e-38
-0.81291491 -0.69472575 2.4623013 2.3509793e-38
-0.83184922 -0.68715107 2.4551437 2.3509793e-38
-0.84571791 -0.68833119 2.4470756 2.3509795e-38
-0.8625291 -0.68704206 2.4384375 2.3509795e-38
-0.86614871 -0.68633646 2.4367573 2.3509796e-38
-0.88857234 -0.67810851 2.4279692 2.3509796e-38
-0.89793044 -0.67841762 2.4227293 2.3509797e-38
-0.91230291 -0.67561597 2.4160585 2.3509797e-38
-0.92203486 -0.67193186 2.4122915 2.3509799e-38
-0.92560297 -0.6712364 2.4106355 2.3509799e-38
-0.93273884 -0.66984534 2.4073234 2.35098e-38
-0.94344276 -0.66775876 2.4023552 2.35098e-38
-0.95345092 -0.66960943 2.3961129 2.3509802e-38
-0.962161 -0.66992629 2.3912237 2.3509802e-38
-0.99608046 -0.66158086 2.3762078 2.3509803e-38
-1.0038017 -0.65632755 2.374198 2.3509803e-38
-1.0108371 -0.6549561 2.3709326 2.3509804e-38
-1.0259786 -0.65395117 2.3630869 2.3509804e-38
-1.0294726 -0.65327001 2.361465 2.3509806e-38
-1.0364608 -0.6519078 2.3582215 2.3509806e-38
-1.0479876 -0.65235871 2.3517382 2.3509806e-38
-1.0872756 -0.64691991 2.3325701 2.3509807e-38
-1.1020873 -0.64126027 2.3268595 2.3509807e-38
-1.1128243 -0.64143562 2.3209231 2.3509809e-38
-1.1183485 -0.64115846 2.3180225 2.3509809e-38
-1.1256133 -0.64022952 2.314446 2.350981e-38
-1.156741 -0.62830538 2.3024576 2.350981e-38
-1.164547 -0.62099236 2.3012667 2.3509811e-38
-1.1901813 -0.62565404 2.2853115 2.3509811e-38
-1.2051141 -0.62178552 2.2787824 2.3509813e-38
-1.2216171 -0.61688542 2.2718294 2.3509813e-38
-1.2315329 -0.6181677 2.2658765 2.3509814e-38
-1.2610142 -0.61266422 2.2520902 2.3509814e-38
-1.2825923 -0.61557847 2.239084 2.3509816e-38
-1.2891284 -0.6143043 2.2360501 2.3509816e-38
-1.3099917 -0.6102578 2.2263577 2.3509817e-38
-1.3278025 -0.60345513 2.2194896 2.3509817e-38
-1.3435391 -0.59277189 2.2153838 2.3509818e-38
-1.3516968 -0.59139073 2.2115092 2.3509818e-38
-1.3761703 -0.58724707 2.1998861 2.350982e-38
-1.3843281 -0.58586597 2.196012 2.350982e-38
-1.4040598 -0.586757 2.1848636 2.3509821e-38
-1.428899 -0.58255142 2.1730669 2.3509821e-38
-1.4371791 -0.58114964 2.1691346 2.3509823e-38
-1.4519542 -0.58054161 2.1613224 2.3509823e-38
-1.4601729 -0.5791502 2.157419 2.3509824e-38
-1.4702982 -0.57554221 2.1534054 2.3509824e-38
-1.478578 -0.57414043 2.1494732 2.3509825e-38
-1.4888862 -0.57050151 2.1453729 2.3509825e-38
-1.4972272 -0.56908935 2.1414115 2.3509825e-38
-1.5139087 -0.56626505 2.1334891 2.3509827e-38
-1.5222495 -0.56485289 2.1295278 2.3509827e-38
-1.5263638 -0.56377053 2.1277359 2.3509828e-38
-1.5349015 -0.56057674 2.1244154 2.3509828e-38
-1.5413496 -0.55954224 2.1213288 2.350983e-38
-1.5690683 -0.55068076 2.1099155 2.350983e-38
-1.601956 -0.54799557 2.0930858 2.3509831e-38
-1.6086918 -0.54822421 2.0893116 2.3509831e-38
-1.6306725 -0.5415644 2.0801065 2.3509832e-38
-1.6661365 -0.53006023 2.0655735 2.3509832e-38
-1.6995168 -0.52470535 2.0495956 2.3509834e-38
-1.7128689 -0.52256358 2.0432048 2.3509834e-38
-1.7195449 -0.52149254 2.0400093 2.3509835e-38
-1.7410884 -0.52248466 2.0278294 2.3509835e-38
-1.7489009 -0.5211888 2.0241077 2.3509837e-38
-1.7688731 -0.51734316 2.0148172 2.3509837e-38
-1.7756451 -0.51625675 2.0115757 2.3509838e-38
-1.7824173 -0.5151704 2.0083342 2.3509838e-38
-1.79333 -0.51142401 2.0039489 2.3509839e-38
-1.8001516 -0.51032972 2.0006838 2.3509839e-38
-1.8069731 -0.50923532 1.9974188 2.3509841e-38
-1.8206161 -0.50704676 1.9908884 2.3509841e-38
-1.8342592 -0.50485814 1.984358 2.3509842e-38
-1.8524382 -0.4999463 1.9764949 2.3509842e-38
-1.864149 -0.49596083 1.9717741 2.3509844e-38
-1.8710721 -0.49485022 1.9684603 2.3509844e-38
-1.8984667 -0.49633601 1.9528778 2.3509845e-38
-1.9105545 -0.49234998 1.9479518 2.3509845e-38
-1.9175819 -0.49122262 1.9445878 2.3509845e-38
-1.9246094 -0.49009538 1.9412245 2.3509846e-38
-1.9316368 -0.48896796 1.9378605 2.3509846e-38
-1.9568218 -0.47881842 1.9283717 2.3509848e-38
-1.9778335 -0.47746322 1.9174675 2.3509848e-38
-1.9849651 -0.47631925 1.914054 2.3509849e-38
-1.9980273 -0.47206903 1.9087064 2.3509849e-38
-2.0052142 -0.47091618 1.9052664 2.3509851e-38
-2.0308301 -0.46670815 1.8930467 2.3509851e-38
-2.0442429 -0.46401718 1.8868532 2.3509852e-38
-2.078335 -0.46521899 1.8677332 2.3509852e-38
-2.0950286 -0.46640953 1.8581179 2.3509853e-38
-2.1149652 -0.46134833 1.8493576 2.3509853e-38
-2.1488917 -0.445732 1.837391 2.3509855e-38
-2.1746235 -0.44850937 1.8221747 2.3509855e-38
-2.1914332 -0.44611439 1.8140014 2.3509856e-38
-2.2115586 -0.44174305 1.8048484 2.3509856e-38
-2.2502551 -0.38688397 1.8067586 2.3509858e-38
-2.2384231 -0.35414997 1.8269671 2.3509858e-38
-2.252768 -0.31642735 1.8349774 2.3509859e-38
-2.2514529 -0.30292618 1.8413656 2.3509859e-38
-2.2531834 -0.28658342 1.8472846 2.350986e-38
-2.2520101 -0.27441359 1.853036 2.350986e-38
-2.1766276 -0.25842762 1.9009111 2.3509862e-38
-2.1592338 -0.2759423 1.9030527 2.3509862e-38
-2.1100471 -0.28148994 1.9275804 2.3509863e-38
-2.0894399 -0.30015945 1.9309918 2.3509863e-38
-2.0736313 -0.30620876 1.9370829 2.3509865e-38
-2.0509 -0.29428419 1.9545032 2.3509865e-38
-2.0357637 -0.27904388 1.9691687 2.3509865e-38
-2.0171213 -0.24842466 1.9922074 2.3509866e-38
-1.9859456 -0.20591685 2.0270827 2.3509866e-38
-1.9842558 -0.19762866 2.0314865 2.3509867e-38
-1.9751176 -0.1763469 2.0454142 2.3509867e-38
-1.9500029 -0.14320846 2.0730448 2.3509869e-38
-1.9574779 -0.14200947 2.0694671 2.3509869e-38
-1.9786794 -0.13730977 2.059864 2.350987e-38
-1.9955879 -0.14329499 2.0481179 2.350987e-38
-2.0620563 -0.16358863 2.0033014 2.3509872e-38
-2.0869546 -0.16761196 1.9880161 2.3509872e-38
-2.0946109 -0.16638374 1.9843515 2.3509873e-38
-2.1112735 -0.16783078 1.9746456 2.3509873e-38
-2.1858935 -0.15152141 1.9407505 2.3509874e-38
-2.1928396 -0.12756033 1.9470208 2.3509874e-38
-2.197793 -0.076339088 1.9658283 2.3509876e-38
-2.1963472 -0.061917026 1.9726747 2.3509876e-38
-2.1947289 -0.047366414 1.9796692 2.3509877e-38
-2.1666331 0.0094519677 2.018873 2.3509877e-38
-2.1313989 0.021924084 2.0433502 2.3509879e-38
-2.1081295 0.011909156 2.0518498 2.3509879e-38
-2.0661705 -0.024802689 2.0593424 2.350988e-38
-2.0695591 -0.00056050671 2.0676732 2.350988e-38
-2.0755823 0.0093170088 2.0685329 2.3509881e-38
-2.0816052 0.019194383 2.0693927 2.3509881e-38
-2.0985069 0.019352268 2.0602298 2.3509883e-38
-2.1272256 0.026346916 2.0474863 2.3509883e-38
-2.1375237 0.031968888 2.0442245 2.3509884e-38
-2.153352 0.034508083 2.036648 2.3509884e-38
