# .PCD v0.7 - Point Cloud Data file format
VERSION 0.7
FIELDS x y z rgb
SIZE 4 4 4 4
TYPE F F F F
COUNT 1 1 1 1
WIDTH 76
HEIGHT 1
VIEWPOINT 0 0 0 1 0 0 0
POINTS 76
DATA ascii
-0.17116497 1.9649992 -1.4460665 2.3509528e-38
-0.17219812 1.9660674 -1.4486958 2.3509532e-38
-0.20108145 1.976456 -1.4734513 2.3509537e-38
-0.20966189 1.9777789 -1.4763907 2.3509542e-38
-0.21927825 1.9785876 -1.477998 2.3509547e-38
-0.2746315 1.9903722 -1.5050993 2.3509551e-38
-0.30959785 2.0009601 -1.5300895 2.3509556e-38
-0.36057967 1.9963053 -1.5162225 2.3509561e-38
-0.36970833 1.9934579 -1.5086974 2.3509565e-38
-0.37415665 1.9868448 -1.4919474 2.350957e-38
-0.3726795 1.979638 -1.4739683 2.3509575e-38
-0.36951315 1.9733273 -1.458306 2.3509579e-38
-0.35516602 1.9600987 -1.4258095 2.3509584e-38
-0.35225302 1.9541639 -1.4110773 2.3509589e-38
-0.32994121 1.9420339 -1.3816767 2.3509593e-38
-0.32471156 1.9320128 -1.3568146 2.3509598e-38
-0.32471105 1.9309089 -1.3540508 2.3509603e-38
-0.32471055 1.9298049 -1.3512869 2.3509608e-38
-0.32209542 1.9242704 -1.3375441 2.3509612e-38
-0.30581322 1.9094462 -1.3011365 2.3509617e-38
-0.27896625 1.8926445 -1.2602367 2.3509622e-38
-0.27969995 1.8886261 -1.2501441 2.3509626e-38
-0.2778472 1.8857518 -1.2430284 2.3509631e-38
-0.27291346 1.8823624 -1.2347567 2.3509636e-38
-0.26748806 1.8735431 -1.2129121 2.350964e-38
-0.26342487 1.8691181 -1.2020099 2.3509645e-38
-0.25924128 1.8551524 -1.1672264 2.350965e-38
-0.29727823 1.8257674 -1.092006 2.3509654e-38
-0.33312392 1.8274045 -1.0945483 2.3509659e-38
-0.36391592 1.8317515 -1.1040946 2.3509664e-38
-0.38425171 1.8416212 -1.1279223 2.3509668e-38
-0.41724655 1.8466783 -1.1391509 2.3509674e-38
-0.43894267 1.8507605 -1.1484295 2.3509678e-38
-0.45199987 1.8555475 -1.1598476 2.3509682e-38
-0.46684998 1.857837 -1.1649348 2.3509688e-38
-0.48716158 1.8622756 -1.1751658 2.3509692e-38
-0.50068545 1.8663284 -1.1847253 2.3509696e-38
-0.5266453 1.8775758 -1.2117579 2.3509702e-38
-0.52691203 1.8778622 -1.2124633 2.3509706e-38
-0.5365454 1.879851 -1.2170244 2.350971e-38
-0.54348928 1.8785537 -1.2134751 2.3509716e-38
-0.54162717 1.8766128 -1.2086964 2.350972e-38
-0.50958043 1.8677005 -1.1877744 2.3509724e-38
-0.49414775 1.8616277 -1.1732405 2.350973e-38
-0.4817006 1.8573983 -1.1631919 2.3509734e-38
-0.46520439 1.8549072 -1.157671 2.3509738e-38
-0.43300837 1.8469844 -1.139233 2.3509744e-38
-0.43074009 1.8459927 -1.1368488 2.3509748e-38
-0.42072606 1.8413081 -1.1255549 2.3509754e-38
-0.40760282 1.8340738 -1.1080126 2.3509758e-38
-0.39145678 1.8309938 -1.1010025 2.3509762e-38
-0.35694429 1.8195605 -1.0738759 2.3509768e-38
-0.34985259 1.8184673 -1.0714464 2.3509772e-38
-0.34276116 1.8183358 -1.0714252 2.3509776e-38
-0.31439614 1.8178097 -1.0713397 2.3509782e-38
-0.30730474 1.8176783 -1.0713184 2.3509786e-38
-0.25877914 1.8109795 -1.0566539 2.350979e-38
-0.25286654 1.8100693 -1.0546316 2.3509796e-38
-0.22999874 1.8056304 -1.044511 2.35098e-38
-0.21983041 1.8082709 -1.0515631 2.3509804e-38
-0.20357306 1.8118857 -1.0613192 2.350981e-38
-0.19815056 1.8167518 -1.0737375 2.3509814e-38
-0.16925731 1.8304644 -1.109323 2.350982e-38
-0.16034114 1.8366936 -1.1253058 2.3509824e-38
-0.1127227 1.8593378 -1.1840656 2.3509828e-38
-0.095596738 1.8700033 -1.2115119 2.3509834e-38
-0.067382053 1.8823124 -1.2435542 2.3509838e-38
-0.048964653 1.8962139 -1.2791579 2.3509842e-38
-0.052870099 1.9104304 -1.3145814 2.3509848e-38
-0.049433254 1.9188963 -1.3359262 2.3509852e-38
-0.039837446 1.9256265 -1.3531926 2.3509856e-38
-0.05474605 1.93583 -1.3780912 2.3509862e-38
-0.075490482 1.9431663 -1.3955581 2.3509866e-38
-0.091043435 1.9445504 -1.3983481 2.350987e-38
-0.10773863 1.9482813 -1.4069643 2.3509876e-38
-0.16156429 1.9582456 -1.4295746 2.350988e-38
