# .PCD v0.7 - Point Cloud Data file format
VERSION 0.7
FIELDS x y z rgb
SIZE 4 4 4 4
TYPE F F F F
COUNT 1 1 1 1
WIDTH 260
HEIGHT 1
VIEWPOINT 0 0 0 1 0 0 0
POINTS 260
DATA ascii
-1.3547857 1.1592066 -0.21901459 2.3509528e-38
-1.318705 1.1615345 -0.22445482 2.3509528e-38
-1.2740508 1.1642144 -0.23071334 2.350953e-38
-1.2255806 1.1700722 -0.24445741 2.3509531e-38
-1.1958842 1.181262 -0.27079374 2.3509532e-38
-1.1799642 1.1841785 -0.27764738 2.3509534e-38
-1.1622556 1.1851926 -0.28001437 2.3509535e-38
-1.1544293 1.1871588 -0.28463876 2.3509537e-38
-1.14283 1.1896766 -0.29055849 2.3509538e-38
-1.1138313 1.197269 -0.30841613 2.3509539e-38
-1.1081141 1.1977521 -0.30954736 2.3509541e-38
-1.0786544 1.2030559 -0.32201031 2.3509542e-38
-1.0596479 1.2149452 -0.35000926 2.3509544e-38
-1.055028 1.2172142 -0.35535151 2.3509545e-38
-1.044216 1.2208726 -0.36396065 2.3509547e-38
-1.0371466 1.2235463 -0.37025324 2.3509548e-38
-1.0240048 1.2279458 -0.38060597 2.3509549e-38
-1.0122997 1.2312013 -0.38826397 2.3509551e-38
-1.0078095 1.2342228 -0.39538008 2.3509552e-38
-1.004083 1.2361264 -0.39986241 2.3509554e-38
-0.95907968 1.2509556 -0.43475661 2.3509555e-38
-0.96232367 1.2542627 -0.44255596 2.3509556e-38
-0.96176451 1.2700568 -0.47978294 2.3509558e-38
-0.96057528 1.2733785 -0.48761055 2.3509559e-38
-0.9526794 1.2807264 -0.50491983 2.3509561e-38
-0.95317572 1.2841353 -0.51295555 2.3509562e-38
-0.95260108 1.2868669 -0.51939321 2.3509563e-38
-0.95041978 1.2921411 -0.53182197 2.3509565e-38
-0.9476369 1.2963438 -0.54172438 2.3509566e-38
-0.94354993 1.3000246 -0.55039489 2.3509568e-38
-0.93922758 1.3038059 -0.55930215 2.3509569e-38
-0.94071281 1.3133636 -0.58183169 2.350957e-38
-0.9408347 1.3184925 -0.59392118 2.3509572e-38
-0.94066787 1.3223109 -0.60292095 2.3509573e-38
-0.93953383 1.326535 -0.61287582 2.3509575e-38
-0.9403379 1.3327788 -0.62759417 2.3509576e-38
-0.93804508 1.3380687 -0.64005983 2.3509577e-38
-0.94120318 1.3447903 -0.65590715 2.3509579e-38
-0.94331998 1.3483642 -0.6643334 2.350958e-38
-0.94277924 1.3553271 -0.68074471 2.3509582e-38
-0.94510514 1.3608345 -0.69372886 2.3509583e-38
-0.94660592 1.3649722 -0.70348394 2.3509584e-38
-0.95045269 1.3725783 -0.72141671 2.3509586e-38
-0.95905852 1.3821462 -0.74398005 2.3509587e-38
-0.9598316 1.3851099 -0.75096679 2.3509589e-38
-0.97208214 1.3947512 -0.77370757 2.350959e-38
-0.9791429 1.3979174 -0.78117973 2.3509591e-38
-0.989196 1.4029655 -0.7930916 2.3509593e-38
-1.0014726 1.4115872 -0.8134293 2.3509594e-38
-1.0086596 1.4148005 -0.8210125 2.3509596e-38
-1.0189025 1.4183524 -0.82939762 2.3509597e-38
-1.0273609 1.4233303 -0.84114206 2.3509598e-38
-1.0344334 1.4257146 -0.8467713 2.35096e-38
-1.0400596 1.4281496 -0.8525179 2.35096e-38
-1.0541689 1.4350013 -0.86868614 2.3509601e-38
-1.0634085 1.4370857 -0.87361127 2.3509603e-38
-1.0885457 1.450497 -0.90525514 2.3509604e-38
-1.0967299 1.4536319 -0.9126547 2.3509605e-38
-1.1198092 1.4546915 -0.91518259 2.3509607e-38
-1.1413695 1.459878 -0.92743528 2.3509608e-38
-1.1631211 1.4649572 -0.93943578 2.350961e-38
-1.1715072 1.4685262 -0.94785917 2.3509611e-38
-1.212878 1.4687065 -0.94833797 2.3509612e-38
-1.2294775 1.472344 -0.95693302 2.3509614e-38
-1.2642845 1.475898 -0.9653554 2.3509615e-38
-1.2648071 1.4685291 -0.94798732 2.3509617e-38
-1.2629347 1.4637464 -0.93671155 2.3509618e-38
-1.2513458 1.4473823 -0.89812559 2.3509619e-38
-1.2431334 1.43975 -0.88012499 2.3509621e-38
-1.240293 1.4234822 -0.84177727 2.3509622e-38
-1.2541645 1.4114975 -0.81354666 2.3509624e-38
-1.2869653 1.4002714 -0.78712922 2.3509625e-38
-1.2889967 1.3971589 -0.77979553 2.3509626e-38
-1.3097433 1.3858843 -0.75324726 2.3509628e-38
-1.329367 1.3816956 -0.74340016 2.3509629e-38
-1.3563452 1.379679 -0.73868209 2.3509631e-38
-1.3776386 1.3760898 -0.73024994 2.3509632e-38
-1.3900737 1.3757292 -0.72941589 2.3509633e-38
-1.402815 1.3760215 -0.73012149 2.3509635e-38
-1.4494773 1.3694206 -0.71462357 2.3509636e-38
-1.4636039 1.3637669 -0.70131594 2.3509638e-38
-1.4353222 1.3568671 -0.68501598 2.3509639e-38
-1.427433 1.3555276 -0.6818487 2.350964e-38
-1.4084419 1.3503336 -0.66958106 2.3509642e-38
-1.3953155 1.3466845 -0.66096288 2.3509643e-38
-1.3592439 1.3381072 -0.64069885 2.3509645e-38
-1.3402144 1.32934 -0.62000918 2.3509646e-38
-1.3352809 1.3248037 -0.60931063 2.3509647e-38
-1.3369352 1.3035283 -0.55916542 2.3509649e-38
-1.3720554 1.2947398 -0.53849649 2.350965e-38
-1.4287825 1.2916336 -0.53124869 2.3509652e-38
-1.4444343 1.2954369 -0.54023325 2.3509653e-38
-1.4552659 1.297008 -0.54395092 2.3509654e-38
-1.492406 1.3071922 -0.56800377 2.3509656e-38
-1.5108612 1.3110164 -0.57704157 2.3509657e-38
-1.5279218 1.3148198 -0.58602858 2.3509659e-38
-1.5338323 1.3159512 -0.58870351 2.350966e-38
-1.5539396 1.310842 -0.57668692 2.3509661e-38
-1.5622748 1.3095006 -0.57353568 2.3509663e-38
-1.6002516 1.3105789 -0.57612705 2.3509664e-38
-1.6223102 1.3151406 -0.58690798 2.3509666e-38
-1.6586319 1.3051144 -0.5633229 2.3509667e-38
-1.7055821 1.2948184 -0.53911579 2.3509668e-38
-1.7228607 1.2946823 -0.53881747 2.350967e-38
-1.7943521 1.2868134 -0.52036309 2.3509671e-38
-1.8280852 1.2950559 -0.53983504 2.3509671e-38
-1.8299869 1.2958186 -0.54163516 2.3509673e-38
-1.8427958 1.2998997 -0.5512712 2.3509674e-38
-1.8603774 1.3025839 -0.5576213 2.3509675e-38
-1.8753008 1.3052192 -0.56385207 2.3509677e-38
-1.9392505 1.2979754 -0.54686111 2.3509678e-38
-2.0087068 1.2836474 -0.51317972 2.350968e-38
-2.0340056 1.3122804 -0.58070207 2.3509681e-38
-2.0449789 1.3108473 -0.57733858 2.3509682e-38
-2.0762615 1.3122077 -0.58058602 2.3509684e-38
-2.0911613 1.3035562 -0.56021321 2.3509685e-38
-2.1075163 1.2766098 -0.49672049 2.3509687e-38
-2.1119142 1.2542566 -0.44403851 2.3509688e-38
-2.1216729 1.2336166 -0.39540148 2.3509689e-38
-2.1247327 1.2303927 -0.38780656 2.3509691e-38
-2.1355815 1.2207757 -0.36515331 2.3509692e-38
-2.1560962 1.2124476 -0.34554994 2.3509694e-38
-2.1391921 1.1889076 -0.29004291 2.3509695e-38
-2.1452718 1.178766 -0.26614666 2.3509696e-38
-2.1508009 1.1755774 -0.25863805 2.3509698e-38
-2.1570923 1.1730945 -0.25279403 2.3509699e-38
-2.1578321 1.167161 -0.2388092 2.3509701e-38
-2.1594229 1.1637123 -0.23068249 2.3509702e-38
-2.1418211 1.1617132 -0.22594762 2.3509703e-38
-2.1192083 1.1626966 -0.22823602 2.3509705e-38
-2.0846632 1.1580709 -0.21728839 2.3509706e-38
-2.0725217 1.1570063 -0.21476285 2.3509708e-38
-2.0371449 1.1534616 -0.20636192 2.3509709e-38
-2.0227554 1.1516407 -0.20205124 2.350971e-38
-1.9911053 1.1472552 -0.19167309 2.3509712e-38
-1.9753317 1.1450363 -0.18642263 2.3509713e-38
-1.95663 1.1415355 -0.17814669 2.3509715e-38
-1.9129729 1.1390305 -0.17218527 2.3509716e-38
-1.899228 1.1377467 -0.16914162 2.3509717e-38
-1.8865576 1.1365323 -0.16626273 2.3509719e-38
-1.8754628 1.1356148 -0.16408561 2.350972e-38
-1.8654642 1.1347229 -0.16197063 2.3509722e-38
-1.83594 1.1311294 -0.15346181 2.3509723e-38
-1.7933145 1.1137862 -0.11252761 2.3509724e-38
-1.7921485 1.1110398 -0.10605264 2.3509726e-38
-1.7770989 1.1048379 -0.091414742 2.3509727e-38
-1.7684097 1.0948523 -0.067867115 2.3509729e-38
-1.7745155 1.0841805 -0.042720683 2.350973e-38
-1.7933424 1.0763011 -0.024173042 2.3509731e-38
-1.8423826 1.0704541 -0.010455406 2.3509733e-38
-1.8574921 1.0723004 -0.014826853 2.3509734e-38
-1.8705415 1.0723145 -0.014876866 2.3509736e-38
-1.8848968 1.0732195 -0.017028747 2.3509737e-38
-1.9393132 1.0793936 -0.031652555 2.3509738e-38
-1.9564373 1.0777861 -0.027885601 2.350974e-38
-1.9972442 1.0811976 -0.035979938 2.3509741e-38
-2.0199656 1.0450683 0.049149215 2.3509743e-38
-2.0497451 1.043864 0.051948912 2.3509743e-38
-2.0618017 1.0409346 0.058838204 2.3509744e-38
-2.0786676 1.0190815 0.11032505 2.3509745e-38
-2.0606885 1.0150449 0.11986278 2.3509747e-38
-2.0373771 0.99828905 0.15938766 2.3509748e-38
-2.0484922 0.98625189 0.18774536 2.350975e-38
-2.0569661 0.9779954 0.20719536 2.3509751e-38
-2.067564 0.97109634 0.22344308 2.3509752e-38
-2.1127651 0.96177155 0.24536324 2.3509754e-38
-2.09708 0.93761194 0.30232906 2.3509755e-38
-2.0971365 0.93438888 0.30992603 2.3509757e-38
-2.1186583 0.91514534 0.35525593 2.3509758e-38
-2.1674278 0.90904278 0.3695766 2.3509759e-38
-2.2259762 0.91165054 0.36335385 2.3509761e-38
-2.2466829 0.90738618 0.37337813 2.3509762e-38
-2.2435656 0.90090883 0.38864955 2.3509764e-38
-2.2278361 0.89772069 0.39618462 2.3509765e-38
-2.2176552 0.89387226 0.40526894 2.3509767e-38
-2.2042708 0.88790226 0.41935802 2.3509768e-38
-2.1898203 0.88516462 0.42582959 2.3509769e-38
-2.1446719 0.87960082 0.43900251 2.3509771e-38
-2.0716484 0.87820333 0.4423916 2.3509772e-38
-2.0306246 0.87263709 0.45556483 2.3509774e-38
-2.0090992 0.87134516 0.45863801 2.3509775e-38
-1.9804958 0.87381011 0.45286536 2.3509776e-38
-1.9383385 0.87120306 0.45906523 2.3509778e-38
-1.904663 0.86984062 0.46232018 2.3509779e-38
-1.8557385 0.88745481 0.42086643 2.3509781e-38
-1.8295311 0.88913119 0.41694924 2.3509782e-38
-1.8210511 0.89225906 0.40958768 2.3509783e-38
-1.8061961 0.89620668 0.40030247 2.3509785e-38
-1.7906754 0.89954638 0.39245066 2.3509786e-38
-1.7607682 0.90626812 0.3766461 2.3509788e-38
-1.7445569 0.90950161 0.36904573 2.3509789e-38
-1.7055794 0.92110562 0.34174514 2.350979e-38
-1.7042751 0.93071949 0.31908634 2.3509792e-38
-1.6869376 0.94239223 0.29159579 2.3509793e-38
-1.6792444 0.94497967 0.28550699 2.3509795e-38
-1.6513389 0.95773166 0.25548628 2.3509796e-38
-1.6304203 0.95996809 0.25024208 2.3509797e-38
-1.624979 0.97628713 0.21178427 2.3509799e-38
-1.6191865 0.9821046 0.19807991 2.35098e-38
-1.6198215 0.99358517 0.17101857 2.3509802e-38
-1.6227682 0.99566424 0.16611436 2.3509803e-38
-1.6257621 0.99856627 0.15927026 2.3509804e-38
-1.6036456 1.0211853 0.10598483 2.3509806e-38
-1.6125556 1.0379519 0.066453218 2.3509807e-38
-1.6240122 1.056492 0.022738514 2.3509809e-38
-1.6283733 1.0615259 0.010867509 2.350981e-38
-1.6367772 1.0742551 -0.019146813 2.3509811e-38
-1.641856 1.0841806 -0.04254828 2.3509813e-38
-1.6579489 1.0903014 -0.0569962 2.3509814e-38
-1.6657733 1.0952166 -0.06859199 2.3509814e-38
-1.6852132 1.1074338 -0.097413771 2.3509816e-38
-1.7220569 1.1259313 -0.14106105 2.3509817e-38
-1.7368966 1.1287543 -0.14773445 2.3509818e-38
-1.7658414 1.1408693 -0.17632788 2.350982e-38
-1.807891 1.160485 -0.22261831 2.3509821e-38
-1.8316066 1.1895009 -0.29104111 2.3509823e-38
-1.8166684 1.196951 -0.30858177 2.3509824e-38
-1.8152156 1.1999767 -0.3157115 2.3509825e-38
-1.8136969 1.2036536 -0.32437614 2.3509827e-38
-1.8148562 1.2063843 -0.33081412 2.3509828e-38
-1.8088672 1.2213792 -0.3661502 2.350983e-38
-1.7802703 1.2305982 -0.38784239 2.3509831e-38
-1.7184545 1.2543579 -0.44376487 2.3509832e-38
-1.671069 1.247856 -0.42837778 2.3509834e-38
-1.6546894 1.2319278 -0.39081299 2.3509835e-38
-1.6540062 1.2192695 -0.36097586 2.3509837e-38
-1.6190927 1.2131364 -0.34647438 2.3509838e-38
-1.6081206 1.2082256 -0.33488503 2.3509839e-38
-1.5927261 1.2045169 -0.32612318 2.3509841e-38
-1.5824282 1.2001133 -0.31573048 2.3509842e-38
-1.5573317 1.190442 -0.29290193 2.3509844e-38
-1.5469232 1.1882529 -0.28772858 2.3509845e-38
-1.5214778 1.1824895 -0.27411094 2.3509846e-38
-1.5092703 1.1811395 -0.27091292 2.3509848e-38
-1.4860115 1.1773989 -0.26206592 2.3509849e-38
-1.4696134 1.1713779 -0.24785265 2.3509851e-38
-1.4583393 1.1711104 -0.24720733 2.3509852e-38
-1.4162837 1.1660651 -0.23526067 2.3509853e-38
-1.3775989 1.1639279 -0.23017304 2.3509855e-38
-2.0283546 1.2634485 -0.46559542 2.3509856e-38
-2.0270894 1.2604682 -0.45856908 2.3509858e-38
-2.0488567 1.2428105 -0.41697738 2.3509859e-38
-2.0616431 1.2383357 -0.40644658 2.350986e-38
-2.0712235 1.231151 -0.38952446 2.3509862e-38
-2.080076 1.217278 -0.3568365 2.3509863e-38
-2.0816629 1.2139169 -0.34891611 2.3509865e-38
-2.0257082 1.1911428 -0.29516375 2.3509866e-38
-2.009346 1.1893907 -0.29101256 2.3509867e-38
-1.9744729 1.188676 -0.28928259 2.3509869e-38
-1.9363761 1.1840804 -0.27840093 2.350987e-38
-1.8817626 1.2088454 -0.33670214 2.3509872e-38
-1.8679307 1.2202086 -0.36346778 2.3509873e-38
-1.8738433 1.2337562 -0.39540777 2.3509874e-38
-1.8325711 1.2479231 -0.42874673 2.3509876e-38
-1.8290911 1.2591035 -0.45509475 2.3509877e-38
-1.8756412 1.2797792 -0.50388902 2.3509879e-38
-1.8904666 1.2832218 -0.51202297 2.350988e-38
-1.8925333 1.2835586 -0.51281899 2.3509881e-38
-1.904725 1.2890786 -0.52584618 2.3509883e-38
-1.9305735 1.2934785 -0.53625035 2.3509884e-38
