# .PCD v0.7 - Point Cloud Data file format
VERSION 0.7
FIELDS x y z rgb
SIZE 4 4 4 4
TYPE F F F F
COUNT 1 1 1 1
WIDTH 811
HEIGHT 1
VIEWPOINT 0 0 0 1 0 0 0
POINTS 811
DATA ascii
-3.0587151 -0.22415501 0.47864357 2.3509528e-38
-3.0674489 -0.23085788 0.49433628 2.3509528e-38
-3.070329 -0.23280783 0.49961299 2.3509528e-38
-3.0817513 -0.24129348 0.52024621 2.3509528e-38
-3.0935466 -0.25006887 0.54154742 2.350953e-38
-3.1024854 -0.25691062 0.557616 2.350953e-38
-3.1054332 -0.25890642 0.56301665 2.350953e-38
-3.1147292 -0.26602766 0.57972515 2.3509531e-38
-3.1177013 -0.26803967 0.58516973 2.3509531e-38
-3.1267788 -0.27497524 0.60149223 2.3509531e-38
-3.1364856 -0.28241232 0.61893886 2.3509532e-38
-3.1395059 -0.28445682 0.62447143 2.3509532e-38
-3.1489937 -0.2917082 0.64153194 2.3509532e-38
-3.1656125 -0.30468988 0.67130405 2.3509534e-38
-3.1687064 -0.30678472 0.67697275 2.3509534e-38
-3.1718011 -0.30887935 0.68264109 2.3509534e-38
-3.1748948 -0.31097415 0.68830979 2.3509535e-38
-3.1779892 -0.31306887 0.69397819 2.3509535e-38
-3.1810834 -0.31516367 0.69964689 2.3509535e-38
-3.1841779 -0.3172583 0.70531523 2.3509535e-38
-3.1872718 -0.31935313 0.71098387 2.3509537e-38
-3.1903663 -0.32144785 0.71665239 2.3509537e-38
-3.2007787 -0.32940024 0.73537672 2.3509537e-38
-3.2038989 -0.33151272 0.74109328 2.3509538e-38
-3.21439 -0.3395181 0.75996149 2.3509538e-38
-3.2252414 -0.34780538 0.77947581 2.3509538e-38
-3.2361476 -0.35612947 0.79908991 2.3509539e-38
-3.2393486 -0.35829663 0.80495435 2.3509539e-38
-3.2425497 -0.3604638 0.81081891 2.3509539e-38
-3.2457509 -0.36263096 0.81668341 2.3509541e-38
-3.2567937 -0.37104744 0.83654749 2.3509541e-38
-3.2668142 -0.36915049 0.85827911 2.3509541e-38
-3.260951 -0.34499419 0.85538429 2.3509542e-38
-3.2494855 -0.30821186 0.84565938 2.3509542e-38
-3.247139 -0.29748517 0.84491199 2.3509542e-38
-3.2457597 -0.28697613 0.84610707 2.3509544e-38
-3.2443805 -0.2764672 0.84730196 2.3509544e-38
-3.243001 -0.26595846 0.84849691 2.3509544e-38
-3.2416222 -0.25544944 0.84969169 2.3509544e-38
-3.2440782 -0.21852773 0.86918879 2.3509545e-38
-3.2426867 -0.20792642 0.87039411 2.3509545e-38
-3.2412953 -0.19732511 0.87159973 2.3509545e-38
-3.2399039 -0.18672392 0.87280512 2.3509547e-38
-3.2385128 -0.17612259 0.87401044 2.3509547e-38
-3.2371211 -0.16552126 0.87521589 2.3509547e-38
-3.2357297 -0.15491991 0.87642133 2.3509548e-38
-3.2310815 -0.14211395 0.87166041 2.3509548e-38
-3.2273817 -0.091312297 0.88365388 2.3509548e-38
-3.2227335 -0.078506261 0.87889308 2.3509549e-38
-3.2087889 -0.040087879 0.86461002 2.3509549e-38
-3.2073975 -0.0294866 0.86581552 2.3509549e-38
-3.2060061 -0.018885292 0.86702079 2.3509551e-38
-3.2046146 -0.0082840659 0.86822629 2.3509551e-38
-3.1985753 0.015123466 0.86467063 2.3509551e-38
-3.1930096 0.057528503 0.86949247 2.3509551e-38
-3.1916184 0.068129838 0.8706978 2.3509552e-38
-3.190227 0.07873112 0.87190342 2.3509552e-38
-3.1888356 0.089332372 0.8731088 2.3509552e-38
-3.1800132 0.13394225 0.8719641 2.3509554e-38
-3.175365 0.14674841 0.86720312 2.3509554e-38
-3.1693256 0.17015591 0.86364746 2.3509554e-38
-3.1693287 0.20589422 0.87754458 2.3509555e-38
-3.1690197 0.21507701 0.88046682 2.3509555e-38
-3.1687109 0.22425996 0.883389 2.3509555e-38
-3.168402 0.23344277 0.88631099 2.3509556e-38
-3.168093 0.24262546 0.88923311 2.3509556e-38
-3.1677842 0.25180829 0.89215523 2.3509556e-38
-3.1782334 0.28462681 0.92680329 2.3509558e-38
-3.1846802 0.30257991 0.94728875 2.3509558e-38
-3.1843667 0.31191424 0.95025879 2.3509558e-38
-3.1898417 0.36788422 0.98348439 2.3509559e-38
-3.1895249 0.37729746 0.98647988 2.3509559e-38
-3.1888916 0.39612389 0.99247086 2.3509559e-38
-3.1885753 0.40553722 0.99546611 2.3509559e-38
-3.1882584 0.41495046 0.9984616 2.3509561e-38
-3.1879418 0.42436373 1.0014571 2.3509561e-38
-3.1876252 0.43377709 1.0044525 2.3509561e-38
-3.1873088 0.44319037 1.007448 2.3509562e-38
-3.1869922 0.45260364 1.0104432 2.3509562e-38
-3.1933689 0.48175612 1.0351348 2.3509562e-38
-3.1930497 0.49124843 1.0381553 2.3509563e-38
-3.1927304 0.50074077 1.0411761 2.3509563e-38
-3.1924109 0.51023304 1.0441967 2.3509563e-38
-3.1990688 0.54015464 1.069775 2.3509565e-38
-3.2060344 0.56091309 1.0924379 2.3509565e-38
-3.2044106 0.60919762 1.1078026 2.3509565e-38
-3.2040858 0.61885452 1.1108757 2.3509566e-38
-3.2037611 0.62851149 1.1139486 2.3509566e-38
-3.2103689 0.65991467 1.1399988 2.3509566e-38
-3.2172627 0.69191891 1.1668823 2.3509566e-38
-3.2166023 0.71156859 1.173135 2.3509568e-38
-3.2159414 0.73121834 1.1793877 2.3509568e-38
-3.2156107 0.74104315 1.1825143 2.3509568e-38
-3.2152803 0.75086796 1.1856407 2.3509569e-38
-3.2149498 0.76069278 1.1887671 2.3509569e-38
-3.2146194 0.77051747 1.1918935 2.3509569e-38
-3.2142889 0.78034234 1.1950198 2.350957e-38
-3.2090266 0.79358768 1.1891431 2.350957e-38
-3.1886384 0.82691956 1.1593831 2.350957e-38
-3.1738434 0.83718133 1.1323736 2.3509572e-38
-3.1636493 0.85384721 1.1174936 2.3509572e-38
-3.1583869 0.86709261 1.1116167 2.3509572e-38
-3.1485236 0.87393367 1.0936104 2.3509573e-38
-3.1389902 0.87094998 1.0724777 2.3509573e-38
-3.129457 0.86796612 1.051345 2.3509573e-38
-3.1044676 0.89489383 1.0094553 2.3509575e-38
-3.0896726 0.90515554 0.98244566 2.3509575e-38
-3.0745466 0.92524189 0.95856285 2.3509575e-38
-3.0548193 0.93892419 0.92255002 2.3509575e-38
-3.0442948 0.965415 0.91079646 2.3509576e-38
-3.0344315 0.97225612 0.89278996 2.3509576e-38
-2.9971769 1.0360675 0.83953953 2.3509576e-38
-2.9828379 1.0365007 0.80966622 2.3509577e-38
-2.9779491 1.0398914 0.80074143 2.3509577e-38
-2.9742587 1.0427772 0.79413086 2.3509577e-38
-2.9730601 1.043282 0.79181665 2.3509579e-38
-2.9681714 1.0466728 0.78289181 2.3509579e-38
-2.9623115 1.0506284 0.77215195 2.3509579e-38
-2.9545314 1.0564594 0.75811833 2.350958e-38
-2.9495995 1.05988 0.74911517 2.350958e-38
-2.9380739 1.0674391 0.72790527 2.350958e-38
-2.9238443 1.0869288 0.70566845 2.3509582e-38
-2.913739 1.1034496 0.69091803 2.3509582e-38
-2.9042225 1.1201395 0.67746556 2.3509582e-38
-2.8943584 1.1269805 0.65945923 2.3509582e-38
-2.8866205 1.1239085 0.64205337 2.3509583e-38
-2.8695593 1.1338221 0.61016095 2.3509583e-38
-2.854367 1.1632222 0.58975905 2.3509583e-38
-2.8494327 1.1660537 0.58052123 2.3509584e-38
-2.843317 1.1462861 0.56002474 2.3509584e-38
-2.8363023 1.1377555 0.54201263 2.3509584e-38
-2.8338602 1.1223565 0.53091061 2.3509586e-38
-2.8279984 1.1060013 0.51227254 2.3509586e-38
-2.8238149 1.1008762 0.50151503 2.3509586e-38
-2.8089831 1.0879225 0.46540588 2.3509587e-38
-2.8031981 1.0784972 0.44962206 2.3509587e-38
-2.7937844 1.058165 0.42199692 2.3509587e-38
-2.786411 1.0360292 0.3979449 2.3509589e-38
-2.7799642 1.0316195 0.38272396 2.3509589e-38
-2.7787247 0.99684143 0.36661011 2.3509589e-38
-2.7766633 0.95684451 0.34674489 2.350959e-38
-2.7805765 0.89355123 0.33034247 2.350959e-38
-2.7758105 0.87621832 0.31361997 2.350959e-38
-2.7656107 0.85275382 0.28313005 2.350959e-38
-2.7480075 0.84343159 0.24262616 2.3509591e-38
-2.7380965 0.84976965 0.224325 2.3509591e-38
-2.7286634 0.85258979 0.20565754 2.3509591e-38
-2.7153163 0.86085975 0.18090791 2.3509593e-38
-2.7028358 0.8731122 0.15952189 2.3509593e-38
-2.6954882 0.87586766 0.14519894 2.3509593e-38
-2.6911297 0.87914079 0.13733949 2.3509594e-38
-2.6885686 0.88149369 0.13288803 2.3509594e-38
-2.6846886 0.88328391 0.12545504 2.3509594e-38
-2.6808085 0.88507426 0.1180221 2.3509596e-38
-2.6769288 0.88686454 0.11058914 2.3509596e-38
-2.6645725 0.89669549 0.088522017 2.3509596e-38
-2.6525166 0.91942674 0.072098553 2.3509597e-38
-2.6204262 0.92014545 0.0051453579 2.3509597e-38
-2.6025548 0.94387561 -0.023074184 2.3509597e-38
-2.5981815 0.94699842 -0.03102348 2.3509597e-38
-2.5849855 0.94778407 -0.058365624 2.3509598e-38
-2.5762382 0.95402956 -0.074264005 2.3509598e-38
-2.5647171 0.96799511 -0.092974782 2.3509598e-38
-2.5564606 0.96986026 -0.10954742 2.35096e-38
-2.5508997 0.97404402 -0.11957184 2.35096e-38
-2.5445044 0.98144436 -0.13009433 2.35096e-38
-2.5401018 0.98513973 -0.13788189 2.3509601e-38
-2.5188341 1.048316 -0.15788449 2.3509601e-38
-2.4899321 1.0981233 -0.19907905 2.3509601e-38
-2.4757185 1.1160767 -0.22187974 2.3509603e-38
-2.4572206 1.1211708 -0.25865495 2.3509603e-38
-2.4384561 1.1845057 -0.27335218 2.3509603e-38
-2.4385343 1.1934288 -0.2697193 2.3509604e-38
-2.422559 1.2362986 -0.28652722 2.3509604e-38
-2.4161925 1.2542773 -0.29287851 2.3509604e-38
-2.4118023 1.2753702 -0.29387772 2.3509605e-38
-2.4110665 1.3035572 -0.28446347 2.3509605e-38
-2.4039993 1.3122981 -0.29587227 2.3509605e-38
-2.3932054 1.3232207 -0.31424189 2.3509605e-38
-2.3887525 1.328339 -0.32158133 2.3509607e-38
-2.3830264 1.3343463 -0.33124337 2.3509607e-38
-2.3640406 1.3566023 -0.36237043 2.3509607e-38
-2.3523917 1.3593192 -0.38572043 2.3509608e-38
-2.343231 1.3663821 -0.40216827 2.3509608e-38
-2.3376935 1.3713948 -0.41182107 2.3509608e-38
-2.3331041 1.3744109 -0.42026484 2.350961e-38
-2.3292568 1.3763601 -0.42756739 2.350961e-38
-2.3239233 1.3804488 -0.4371523 2.350961e-38
-2.3004699 1.3888496 -0.4830254 2.3509611e-38
-2.2862651 1.4050188 -0.50650108 2.3509611e-38
-2.278079 1.4143646 -0.52001965 2.3509611e-38
-2.2660294 1.4187269 -0.54356909 2.3509612e-38
-2.2546477 1.4204342 -0.56675142 2.3509612e-38
-2.244771 1.4222964 -0.58672047 2.3509612e-38
-2.21034 1.435559 -0.65370309 2.3509612e-38
-2.2065461 1.4381413 -0.66064769 2.3509614e-38
-2.2024903 1.4421446 -0.66758907 2.3509614e-38
-2.1802671 1.4566132 -0.70852625 2.3509614e-38
-2.1560693 1.4710524 -0.75361127 2.3509615e-38
-2.1478012 1.4680628 -0.7720961 2.3509615e-38
-2.1316352 1.4789991 -0.8017143 2.3509615e-38
-2.1214318 1.486645 -0.82011974 2.3509617e-38
-2.1172216 1.4897248 -0.82774383 2.3509617e-38
-2.1116886 1.4771224 -0.84423465 2.3509617e-38
-2.1076763 1.4691616 -0.85573548 2.3509618e-38
-2.0686579 1.488349 -0.93002564 2.3509618e-38
-2.0607884 1.4937056 -0.94443101 2.3509618e-38
-2.0594316 1.4945382 -0.94695026 2.3509619e-38
-2.0507274 1.4990034 -0.96345145 2.3509619e-38
-2.037214 1.4864661 -0.99663645 2.3509619e-38
-2.0328298 1.4691621 -1.0125471 2.3509621e-38
-2.0284238 1.4609466 -1.0249716 2.3509621e-38
-2.0245116 1.4577988 -1.0343919 2.3509621e-38
-2.0109413 1.451201 -1.0653877 2.3509621e-38
-2.0066075 1.4529746 -1.0737778 2.3509622e-38
-2.0017979 1.4329649 -1.0916321 2.3509622e-38
-1.9901154 1.4236639 -1.1197237 2.3509622e-38
-1.9622902 1.4416814 -1.1710174 2.3509624e-38
-1.9429432 1.4499267 -1.2083464 2.3509624e-38
-1.9377407 1.4565575 -1.2166696 2.3509624e-38
-1.9207345 1.4678335 -1.2479168 2.3509625e-38
-1.9160334 1.4715394 -1.256326 2.3509625e-38
-1.9007902 1.4803228 -1.2848481 2.3509625e-38
-1.896307 1.4834048 -1.2930433 2.3509626e-38
-1.887274 1.4883585 -1.3100429 2.3509626e-38
-1.8828572 1.4926498 -1.3176285 2.3509626e-38
-1.8783742 1.4957316 -1.3258235 2.3509628e-38
-1.8408152 1.5337932 -1.3897204 2.3509628e-38
-1.8305173 1.5548013 -1.4031302 2.3509628e-38
-1.8258853 1.5628629 -1.4097011 2.3509629e-38
-1.8203872 1.5697452 -1.4185455 2.3509629e-38
-1.8114266 1.5759225 -1.4349178 2.3509629e-38
-1.8113613 1.5674545 -1.438346 2.3509629e-38
-1.7975949 1.5343827 -1.4800426 2.3509631e-38
-1.8002782 1.5178913 -1.4808308 2.3509631e-38
-1.8044338 1.4728817 -1.4896188 2.3509631e-38
-1.8038938 1.4648092 -1.493888 2.3509632e-38
-1.8033496 1.4591541 -1.4972258 2.3509632e-38
-1.8010908 1.44655 -1.5068574 2.3509632e-38
-1.8017476 1.4317892 -1.5112191 2.3509633e-38
-1.8017801 1.4024566 -1.5225514 2.3509633e-38
-1.8016949 1.3861707 -1.5290601 2.3509633e-38
-1.7992874 1.3611714 -1.5438207 2.3509635e-38
-1.7970669 1.3483807 -1.5534443 2.3509635e-38
-1.7942472 1.3386055 -1.5631521 2.3509635e-38
-1.7968093 1.3237611 -1.5635535 2.3509636e-38
-1.7993336 1.301 -1.567112 2.3509636e-38
-1.7963371 1.2470831 -1.5943463 2.3509636e-38
-1.7914194 1.2015681 -1.6223401 2.3509636e-38
-1.7938654 1.172388 -1.6285574 2.3509638e-38
-1.7982057 1.1373233 -1.6330928 2.3509638e-38
-1.7952846 1.114185 -1.6482066 2.3509638e-38
-1.7977182 1.0927771 -1.6514287 2.3509639e-38
-1.7996079 1.0762383 -1.6538976 2.3509639e-38
-1.8016099 1.0393869 -1.6640266 2.3509639e-38
-1.7987738 1.0260452 -1.675155 2.350964e-38
-1.7966722 1.0094246 -1.6860172 2.350964e-38
-1.7957367 1.0028212 -1.6905447 2.350964e-38
-1.7948006 0.99621755 -1.6950722 2.3509642e-38
-1.7928343 0.96429014 -1.7116019 2.3509642e-38
-1.7922511 0.95675004 -1.7157542 2.3509642e-38
-1.7916681 0.94920987 -1.7199064 2.3509643e-38
-1.7899885 0.92675269 -1.732154 2.3509643e-38
-1.787015 0.9033637 -1.7474747 2.3509643e-38
-1.7919787 0.85558695 -1.7556449 2.3509645e-38
-1.791086 0.84920031 -1.7599974 2.3509645e-38
-1.7922618 0.83412409 -1.7633938 2.3509645e-38
-1.7878795 0.79112387 -1.7892894 2.3509645e-38
-1.7909011 0.77299625 -1.7900044 2.3509646e-38
-1.7935282 0.74045867 -1.7971473 2.3509646e-38
-1.7929654 0.73318255 -1.801154 2.3509646e-38
-1.7907392 0.71932322 -1.8112056 2.3509647e-38
-1.7868727 0.69429499 -1.8290334 2.3509647e-38
-1.7931771 0.69010937 -1.8174522 2.3509647e-38
-1.7970291 0.68745404 -1.8104142 2.3509649e-38
-1.8008809 0.68479872 -1.8033763 2.3509649e-38
-1.8047327 0.68214339 -1.7963384 2.3509649e-38
-1.8062582 0.68093121 -1.7936131 2.350965e-38
-1.8101355 0.67825854 -1.7865291 2.350965e-38
-1.8140123 0.67558569 -1.7794448 2.350965e-38
-1.8178896 0.67291296 -1.7723608 2.3509652e-38
-1.8217664 0.67024022 -1.7652768 2.3509652e-38
-1.8256438 0.66756743 -1.7581927 2.3509652e-38
-1.8295209 0.6648947 -1.7511088 2.3509652e-38
-1.833398 0.66222197 -1.7440245 2.3509653e-38
-1.8372748 0.65954912 -1.7369404 2.3509653e-38
-1.8432508 0.65558994 -1.7259594 2.3509653e-38
-1.8471025 0.65293455 -1.7189213 2.3509654e-38
-1.8509543 0.65027928 -1.7118835 2.3509654e-38
-1.8548062 0.6476239 -1.7048455 2.3509654e-38
-1.8586578 0.64496857 -1.6978077 2.3509656e-38
-1.8625095 0.64231318 -1.6907698 2.3509656e-38
-1.8663617 0.63965791 -1.6837319 2.3509656e-38
-1.8740652 0.6343472 -1.669656 2.3509657e-38
-1.8779169 0.63169175 -1.6626182 2.3509657e-38
-1.8894724 0.62372583 -1.6415045 2.3509657e-38
-1.8933241 0.62107044 -1.6344665 2.3509659e-38
-1.8989208 0.61737275 -1.6241782 2.3509659e-38
-1.9010277 0.61575985 -1.6203908 2.3509659e-38
-1.9048795 0.61310446 -1.6133528 2.350966e-38
-1.9087315 0.61044914 -1.606315 2.350966e-38
-1.912583 0.60779375 -1.5992769 2.350966e-38
-1.916435 0.60513842 -1.5922391 2.350966e-38
-1.9202865 0.60248303 -1.5852011 2.3509661e-38
-1.9257065 0.59890729 -1.5752361 2.3509661e-38
-1.929533 0.59626937 -1.5682445 2.3509661e-38
-1.9333595 0.59363145 -1.5612526 2.3509663e-38
-1.9371861 0.59099352 -1.5542608 2.3509663e-38
-1.9410126 0.58835566 -1.5472693 2.3509663e-38
-1.9448391 0.58571768 -1.5402775 2.3509664e-38
-1.9486657 0.58307981 -1.5332859 2.3509664e-38
-1.9524921 0.58044189 -1.526294 2.3509664e-38
-1.9554867 0.5778361 -1.5210334 2.3509666e-38
-1.9575233 0.57649726 -1.5172862 2.3509666e-38
-1.9621075 0.57328093 -1.5089324 2.3509666e-38
-1.9654094 0.57098371 -1.5029073 2.3509667e-38
-1.9699 0.5680266 -1.4946486 2.3509667e-38
-1.972139 0.56675404 -1.4904518 2.3509667e-38
-1.9757874 0.56423098 -1.4837879 2.3509667e-38
-1.9801649 0.56114393 -1.475817 2.3509668e-38
-1.9838192 0.5586167 -1.4691435 2.3509668e-38
-1.9874713 0.55609059 -1.4624733 2.3509668e-38
-1.9940079 0.55090654 -1.4507934 2.350967e-38
-1.9988518 0.54810601 -1.4417332 2.350967e-38
-2.003212 0.54519647 -1.4337295 2.350967e-38
-2.0101483 0.54033566 -1.4210862 2.3509671e-38
-2.0139461 0.53703535 -1.414412 2.3509671e-38
-2.0177915 0.53511018 -1.4071039 2.3509671e-38
-2.0248153 0.52963781 -1.3945146 2.3509673e-38
-2.0280061 0.52735573 -1.3887166 2.3509673e-38
-2.0311971 0.52507359 -1.3829184 2.3509673e-38
-2.0343878 0.52279133 -1.3771203 2.3509674e-38
-2.0375786 0.52050924 -1.3713223 2.3509674e-38
-2.0407696 0.5182271 -1.3655242 2.3509674e-38
-2.0439603 0.51594496 -1.3597258 2.3509675e-38
-2.0490327 0.51341271 -1.3500834 2.3509675e-38
-2.0557618 0.50759608 -1.3382454 2.3509675e-38
-2.0609825 0.5050711 -1.328289 2.3509675e-38
-2.0646298 0.50254589 -1.321629 2.3509677e-38
-2.0694327 0.49803162 -1.3133214 2.3509677e-38
-2.0726626 0.49572149 -1.3074521 2.3509677e-38
-2.0758924 0.49341127 -1.3015828 2.3509678e-38
-2.0791225 0.49110124 -1.2957137 2.3509678e-38
-2.0824053 0.48891184 -1.2896862 2.3509678e-38
-2.086906 0.48680842 -1.2810748 2.350968e-38
-2.0955305 0.47967097 -1.2657795 2.350968e-38
-2.0987995 0.47733283 -1.2598393 2.350968e-38
-2.1020687 0.47499478 -1.2538992 2.3509681e-38
-2.1055331 0.4726755 -1.2475421 2.3509681e-38
-2.1088223 0.47032288 -1.241565 2.3509681e-38
-2.1121116 0.46797019 -1.2355877 2.3509682e-38
-2.1164649 0.46642527 -1.2270677 2.3509682e-38
-2.1215212 0.4629133 -1.2178392 2.3509682e-38
-2.125175 0.46038118 -1.2111684 2.3509682e-38
-2.1288528 0.45785075 -1.2044462 2.3509684e-38
-2.1356444 0.45131162 -1.1927588 2.3509684e-38
-2.1425364 0.44651672 -1.1801826 2.3509684e-38
-2.1459825 0.4441193 -1.1738946 2.3509685e-38
-2.1520753 0.44157246 -1.1621194 2.3509685e-38
-2.1596942 0.43438506 -1.14895 2.3509685e-38
-2.1631632 0.43197185 -1.1426208 2.3509687e-38
-2.1735692 0.42473227 -1.1236327 2.3509687e-38
-2.1792834 0.42252886 -1.1125175 2.3509687e-38
-2.1849985 0.41865996 -1.102047 2.3509688e-38
-2.1902239 0.41502574 -1.0925114 2.3509688e-38
-2.1938872 0.41248366 -1.0858247 2.3509688e-38
-2.1976297 0.40979797 -1.0790278 2.3509689e-38
-2.2013011 0.40724948 -1.0723261 2.3509689e-38
-2.2049718 0.40470159 -1.0656259 2.3509689e-38
-2.2086413 0.40215442 -1.0589279 2.3509691e-38
-2.2123096 0.39960781 -1.052232 2.3509691e-38
-2.2161114 0.39687842 -1.0453279 2.3509691e-38
-2.219789 0.39432502 -1.0386157 2.3509691e-38
-2.2234654 0.39177221 -1.0319053 2.3509692e-38
-2.2305648 0.38431472 -1.0199294 2.3509692e-38
-2.2308311 0.39370781 -1.0157204 2.3509692e-38
-2.2315409 0.40990096 -1.0079395 2.3509694e-38
-2.2315962 0.41708553 -1.0050309 2.3509694e-38
-2.2316518 0.42427012 -1.0021224 2.3509694e-38
-2.2321632 0.43126798 -0.99833041 2.3509695e-38
-2.2322192 0.43850037 -0.99540263 2.3509695e-38
-2.2322748 0.44573268 -0.99247456 2.3509695e-38
-2.2323308 0.45296514 -0.98954672 2.3509696e-38
-2.2339816 0.46759963 -0.98039913 2.3509696e-38
-2.2331197 0.48228115 -0.97649854 2.3509696e-38
-2.2331498 0.48976314 -0.97352779 2.3509698e-38
-2.2386637 0.52386719 -0.94871992 2.3509698e-38
-2.2377441 0.53081244 -0.94794691 2.3509698e-38
-2.2369993 0.56759101 -0.93521202 2.3509698e-38
-2.2386045 0.57558119 -0.92874324 2.3509699e-38
-2.2347815 0.59282374 -0.93005151 2.3509699e-38
-2.2324584 0.62840289 -0.92109013 2.3509699e-38
-2.232481 0.63649797 -0.91789567 2.3509701e-38
-2.2325547 0.64470166 -0.91455227 2.3509701e-38
-2.2352788 0.66745412 -0.90000188 2.3509701e-38
-2.2348504 0.67513317 -0.89791507 2.3509702e-38
-2.2387016 0.71218204 -0.87544614 2.3509702e-38
-2.2417977 0.73105514 -0.86162347 2.3509702e-38
-2.2449396 0.75405031 -0.84610307 2.3509703e-38
-2.2505143 0.76470685 -0.83028126 2.3509703e-38
-2.250587 0.77297592 -0.82691485 2.3509703e-38
-2.2512856 0.78904814 -0.81920439 2.3509705e-38
-2.251359 0.79737997 -0.81581247 2.3509705e-38
-2.2514322 0.80571175 -0.81242049 2.3509705e-38
-2.2515054 0.8140434 -0.80902863 2.3509706e-38
-2.2517686 0.82413161 -0.80455601 2.3509706e-38
-2.2519145 0.8368054 -0.79932344 2.3509706e-38
-2.2534692 0.84729177 -0.79199135 2.3509706e-38
-2.2535441 0.85581177 -0.78852284 2.3509708e-38
-2.2738972 0.88896114 -0.73299563 2.3509708e-38
-2.2975309 0.85594338 -0.69631386 2.3509708e-38
-2.3002336 0.85479301 -0.69109887 2.3509709e-38
-2.3045058 0.85347599 -0.68265986 2.3509709e-38
-2.3072255 0.85231835 -0.6774112 2.3509709e-38
-2.3206382 0.83961695 -0.65424752 2.350971e-38
-2.329726 0.82825482 -0.63962293 2.350971e-38
-2.3342001 0.82675719 -0.63083178 2.350971e-38
-2.338834 0.82522041 -0.62172037 2.3509712e-38
-2.3485973 0.81988949 -0.60333663 2.3509712e-38
-2.3651793 0.80756885 -0.57338446 2.3509712e-38
-2.3794956 0.79406458 -0.5486387 2.3509713e-38
-2.3823431 0.79285264 -0.54314446 2.3509713e-38
-2.387465 0.79102856 -0.53312194 2.3509713e-38
-2.3903322 0.78980827 -0.52758944 2.3509715e-38
-2.3931994 0.78858799 -0.52205682 2.3509715e-38
-2.3960664 0.78736758 -0.51652414 2.3509715e-38
-2.4108727 0.77351785 -0.49088618 2.3509715e-38
-2.4161992 0.77155262 -0.48049057 2.3509716e-38
-2.4191058 0.77031535 -0.47488138 2.3509716e-38
-2.4244916 0.76832497 -0.46437132 2.3509716e-38
-2.4274182 0.76707935 -0.45872402 2.3509717e-38
-2.4303448 0.76583368 -0.4530769 2.3509717e-38
-2.454294 0.74813879 -0.40977809 2.3509717e-38
-2.4623997 0.74805027 -0.39282948 2.3509719e-38
-2.4709549 0.74194169 -0.37727976 2.3509719e-38
-2.4775643 0.73546708 -0.36594951 2.3509719e-38
-2.4851215 0.72375715 -0.35466725 2.350972e-38
-2.4906356 0.72131985 -0.3440617 2.350972e-38
-2.4981337 0.71373105 -0.33130187 2.350972e-38
-2.5056899 0.71003556 -0.31690717 2.3509722e-38
-2.5137126 0.7037378 -0.30254611 2.3509722e-38
-2.5229902 0.69431454 -0.28677168 2.3509722e-38
-2.5423446 0.6811462 -0.2513406 2.3509722e-38
-2.5450783 0.67922813 -0.24635792 2.3509723e-38
-2.5502553 0.6755448 -0.2369435 2.3509723e-38
-2.5633397 0.65783405 -0.2164139 2.3509723e-38
-2.5647511 0.65623504 -0.21407829 2.3509724e-38
-2.5689342 0.65324807 -0.2064748 2.3509724e-38
-2.5759804 0.64880818 -0.19343799 2.3509724e-38
-2.5887263 0.63322753 -0.17279057 2.3509726e-38
-2.6018384 0.5811547 -0.16555849 2.3509726e-38
-2.6008162 0.55658013 -0.17725235 2.3509726e-38
-2.5967817 0.54204148 -0.191356 2.3509727e-38
-2.5961032 0.52626836 -0.19890791 2.3509727e-38
-2.5960305 0.51799929 -0.2022742 2.3509727e-38
-2.59622 0.50559574 -0.20669851 2.3509729e-38
-2.5969431 0.48643124 -0.21263149 2.3509729e-38
-2.5974274 0.47726655 -0.21517932 2.3509729e-38
-2.6051397 0.46217495 -0.20488632 2.350973e-38
-2.6083078 0.46762851 -0.19613025 2.350973e-38
-2.6248109 0.47582632 -0.1583668 2.350973e-38
-2.6317334 0.48228341 -0.14135349 2.350973e-38
-2.6397939 0.48448205 -0.12361166 2.3509731e-38
-2.6392941 0.4939397 -0.12098245 2.3509731e-38
-2.6405499 0.54500318 -0.09850432 2.3509731e-38
-2.6643937 0.57735801 -0.035973322 2.3509733e-38
-2.6723323 0.57225043 -0.021325927 2.3509733e-38
-2.676578 0.56921899 -0.013609283 2.3509733e-38
-2.6917357 0.56304008 0.015746422 2.3509734e-38
-2.7096052 0.54331571 0.045518257 2.3509734e-38
-2.7187991 0.47035876 0.036423754 2.3509734e-38
-2.719497 0.44491869 0.027998421 2.3509736e-38
-2.7205048 0.42584497 0.022695832 2.3509736e-38
-2.7210083 0.41630796 0.020044696 2.3509736e-38
-2.7296772 0.40983006 0.035688192 2.3509737e-38
-2.7439311 0.39135775 0.058372222 2.3509737e-38
-2.753103 0.3848584 0.0750627 2.3509737e-38
-2.7577074 0.38208207 0.083630629 2.3509737e-38
-2.7623122 0.37930572 0.092198379 2.3509738e-38
-2.7669163 0.37652943 0.1007662 2.3509738e-38
-2.7713339 0.37483492 0.10936251 2.3509738e-38
-2.7743471 0.37468636 0.11561736 2.350974e-38
-2.7779033 0.38167179 0.12578374 2.350974e-38
-2.7837861 0.39473787 0.14318714 2.350974e-38
-2.7867687 0.43032917 0.16326973 2.3509741e-38
-2.8135741 0.46080077 0.23127405 2.3509741e-38
-2.8243022 0.44811609 0.24882077 2.3509741e-38
-2.8469882 0.37586933 0.26826996 2.3509743e-38
-2.8449211 0.34247896 0.25096029 2.3509743e-38
-2.8364046 0.28116667 0.20928609 2.3509743e-38
-2.8329489 0.27627599 0.20014499 2.3509744e-38
-2.8342426 0.26718146 0.19932072 2.3509744e-38
-2.8335185 0.22688618 0.182142 2.3509744e-38
-2.8348029 0.21786048 0.18132401 2.3509745e-38
-2.8269732 0.17569153 0.14852995 2.3509745e-38
-2.832288 0.14366931 0.14721861 2.3509745e-38
-2.8335629 0.13470836 0.14640644 2.3509745e-38
-2.8348374 0.12574741 0.14559425 2.3509747e-38
-2.837975 0.096487328 0.1407949 2.3509747e-38
-2.8384788 0.086950354 0.13814357 2.3509747e-38
-2.836766 0.069159344 0.12763965 2.3509748e-38
-2.8364844 0.021280255 0.10844013 2.3509748e-38
-2.8369801 0.011895098 0.10583115 2.3509748e-38
-2.837476 0.0025098696 0.10322189 2.350975e-38
-2.8258936 -0.031927999 0.065570295 2.350975e-38
-2.8266871 -0.036416464 0.065488212 2.350975e-38
-2.8355324 -0.041749768 0.081946909 2.3509751e-38
-2.8450022 -0.051287565 0.098080225 2.3509751e-38
-2.8494589 -0.053974908 0.10637321 2.3509751e-38
-2.8539157 -0.056662053 0.11466593 2.3509752e-38
-2.858372 -0.059349313 0.12295886 2.3509752e-38
-2.862829 -0.062036458 0.13125174 2.3509752e-38
-2.8614931 -0.019257635 0.14508015 2.3509752e-38
-2.8658521 -0.0069160555 0.15900999 2.3509754e-38
-2.8648367 0.012309637 0.16435465 2.3509754e-38
-2.8668549 0.073273964 0.19227889 2.3509754e-38
-2.8663428 0.082966082 0.19497329 2.3509755e-38
-2.86024 0.11479589 0.19455817 2.3509755e-38
-2.8597279 0.1244878 0.19725268 2.3509755e-38
-2.8592157 0.13417989 0.19994695 2.3509757e-38
-2.8755567 0.16975184 0.24800929 2.3509757e-38
-2.9141133 0.10546853 0.3038047 2.3509757e-38
-2.8772342 0.18292746 0.25664505 2.3509758e-38
-2.8647196 0.24819441 0.25579402 2.3509758e-38
-2.8634861 0.25644746 0.25641704 2.3509758e-38
-2.8631449 0.27800459 0.26408136 2.3509759e-38
-2.8620951 0.29787806 0.26960617 2.3509759e-38
-2.8965607 0.31408629 0.34811592 2.3509759e-38
-2.9071054 0.29283768 0.36194903 2.3509761e-38
-2.9110861 0.28248176 0.36626345 2.3509761e-38
-2.9153645 0.2688022 0.36991081 2.3509761e-38
-2.9278316 0.22644006 0.37956578 2.3509761e-38
-2.9355357 0.17828202 0.37698784 2.3509762e-38
-2.9278584 0.1114508 0.33492714 2.3509762e-38
-2.9183686 0.10930508 0.31421128 2.3509762e-38
-1.3291616 2.3703251 -2.1365511 2.3509764e-38
-1.329724 2.4274719 -2.1131608 2.3509764e-38
-1.3394763 2.4201589 -2.095571 2.3509764e-38
-1.3493224 2.4223697 -2.0740826 2.3509765e-38
-1.3591688 2.4245813 -2.0525937 2.3509765e-38
-1.3712803 2.4000385 -2.0367584 2.3509765e-38
-1.378224 2.3797674 -2.0300894 2.3509767e-38
-1.3929274 2.3608873 -2.0066221 2.3509767e-38
-1.4048418 2.3463347 -1.9873166 2.3509767e-38
-1.4096761 2.3427095 -1.9785972 2.3509768e-38
-1.4241618 2.3465304 -1.946763 2.3509768e-38
-1.4477931 2.2570524 -1.932031 2.3509768e-38
-1.4733683 2.2329555 -1.887814 2.3509768e-38
-1.4973384 2.2149806 -1.8445796 2.3509769e-38
-1.5021327 2.2113855 -1.8359329 2.3509769e-38
-1.5222993 2.1819906 -1.8051069 2.3509769e-38
-1.527053 2.1784258 -1.7965324 2.3509771e-38
-1.5413145 2.1677315 -1.7708095 2.3509771e-38
-1.5515072 2.1554503 -1.7542284 2.3509771e-38
-1.5562789 2.1529925 -1.745186 2.3509772e-38
-1.5699289 2.155628 -1.7155635 2.3509772e-38
-1.5794367 2.1484981 -1.6984152 2.3509772e-38
-1.5841904 2.1449335 -1.6898408 2.3509774e-38
-1.596058 2.1213942 -1.6741256 2.3509774e-38
-1.6025473 2.10957 -1.6651257 2.3509774e-38
-1.6039066 2.1070836 -1.663245 2.3509775e-38
-1.6135111 2.08619 -1.6512432 2.3509775e-38
-1.6178621 2.0518088 -1.6554905 2.3509775e-38
-1.6130328 2.0284772 -1.6746771 2.3509776e-38
-1.6128572 2.0106397 -1.6819779 2.3509776e-38
-1.6175597 1.985507 -1.6818941 2.3509776e-38
-1.612969 1.9589496 -1.7018343 2.3509776e-38
-1.612451 1.906283 -1.7233908 2.3509778e-38
-1.6077843 1.8920975 -1.7386818 2.3509778e-38
-1.6029274 1.8895376 -1.7498518 2.3509778e-38
-1.5957453 1.8885487 -1.7652837 2.3509779e-38
-1.568369 1.8713053 -1.8293427 2.3509779e-38
-1.5675584 1.8557941 -1.8370701 2.3509779e-38
-1.5671958 1.8189538 -1.8521487 2.3509781e-38
-1.5660657 1.7977465 -1.8627596 2.3509781e-38
-1.5670542 1.7776009 -1.8685186 2.3509781e-38
-1.5686492 1.7664247 -1.8695211 2.3509782e-38
-1.5728976 1.727336 -1.8758125 2.3509782e-38
-1.5776476 1.7046199 -1.8746909 2.3509782e-38
-1.5680767 1.666875 -1.9094139 2.3509783e-38
-1.5729667 1.6268265 -1.9147344 2.3509783e-38
-1.5728797 1.6179799 -1.9183553 2.3509783e-38
-1.5727926 1.6091334 -1.9219762 2.3509783e-38
-1.5721771 1.589946 -1.9307243 2.3509785e-38
-1.5731984 1.5380734 -1.9487457 2.3509785e-38
-1.5684826 1.5152899 -1.9674815 2.3509785e-38
-1.5683969 1.5065808 -1.9710463 2.3509786e-38
-1.568591 1.4808341 -1.9806465 2.3509786e-38
-1.5734934 1.4519985 -1.9815837 2.3509786e-38
-1.5734088 1.4434237 -1.9850934 2.3509788e-38
-1.5713027 1.43853 -1.9914081 2.3509788e-38
-1.5688505 1.4295664 -2.0000305 2.3509788e-38
-1.5591451 1.4269665 -2.0213742 2.3509789e-38
-1.5540781 1.4208128 -2.0343826 2.3509789e-38
-1.5435283 1.4171945 -2.0578916 2.3509789e-38
-1.5379596 1.4109424 -2.0719891 2.350979e-38
-1.5275064 1.3539579 -2.1160383 2.350979e-38
-1.5073664 1.3212962 -2.170929 2.350979e-38
-1.5092468 1.2977074 -2.176158 2.3509792e-38
-1.5083938 1.2958603 -2.1786628 2.3509792e-38
-1.5043296 1.265457 -2.1989951 2.3509792e-38
-1.5042418 1.2565384 -2.2026455 2.3509792e-38
-1.5041541 1.2476199 -2.206296 2.3509793e-38
-1.5040662 1.2387012 -2.2099462 2.3509793e-38
-1.5093865 1.1932658 -2.2164598 2.3509793e-38
-1.510131 1.1694981 -2.224138 2.3509795e-38
-1.5154086 1.1427468 -2.2234788 2.3509795e-38
-1.5153229 1.1340379 -2.2270434 2.3509795e-38
-1.5152372 1.1253288 -2.230608 2.3509796e-38
-1.5105214 1.1025456 -2.2493439 2.3509796e-38
-1.5109806 1.0625508 -2.2639267 2.3509796e-38
-1.5073081 1.0179033 -2.2889743 2.3509797e-38
-1.5123069 0.97590685 -2.2948246 2.3509797e-38
-1.5172905 0.95984602 -2.2906265 2.3509797e-38
-1.5127165 0.93774801 -2.3087983 2.3509799e-38
-1.5126333 0.92930114 -2.3122559 2.3509799e-38
-1.501321 0.92393154 -2.3380435 2.3509799e-38
-1.492823 0.91667235 -2.3586693 2.35098e-38
-1.4875362 0.90625823 -2.3737934 2.35098e-38
-1.4840928 0.905743 -2.3812084 2.35098e-38
-1.4797027 0.90903491 -2.3891265 2.35098e-38
-1.4753126 0.91232687 -2.3970444 2.3509802e-38
-1.4616585 0.91577375 -2.4243121 2.3509802e-38
-1.4571747 0.92003304 -2.4320505 2.3509802e-38
-1.4526908 0.92429245 -2.4397893 2.3509803e-38
-1.4457557 0.9384135 -2.4488301 2.3509803e-38
-1.4471641 0.95658696 -2.4388165 2.3509803e-38
-1.447868 0.96567357 -2.4338095 2.3509804e-38
-1.448572 0.97476023 -2.4288027 2.3509804e-38
-1.4449199 1.0103835 -2.4226084 2.3509804e-38
-1.4430084 1.0525444 -2.4102261 2.3509806e-38
-1.4466444 1.0779114 -2.3927479 2.3509806e-38
-1.4501221 1.0856332 -2.3824608 2.3509806e-38
-1.4536893 1.0990852 -2.3697581 2.3509807e-38
-1.454367 1.1141526 -2.3624816 2.3509807e-38
-1.4551293 1.1371008 -2.3519661 2.3509807e-38
-1.4461308 1.1935902 -2.3488622 2.3509807e-38
-1.4473637 1.2021912 -2.342936 2.3509809e-38
-1.450061 1.2494614 -2.318912 2.3509809e-38
-1.4512937 1.2580626 -2.3129857 2.3509809e-38
-1.4556149 1.2870672 -2.2926588 2.350981e-38
-1.4557041 1.2961297 -2.2889495 2.350981e-38
-1.4558825 1.3142551 -2.2815306 2.350981e-38
-1.4559718 1.3233179 -2.2778215 2.3509811e-38
-1.4218702 1.3963089 -2.3208981 2.3509811e-38
-1.4357558 1.4141253 -2.2848811 2.3509811e-38
-1.4376699 1.4348663 -2.272809 2.3509813e-38
-1.4355584 1.4543449 -2.2696614 2.3509813e-38
-1.4205036 1.510516 -2.2793705 2.3509813e-38
-1.403125 1.5224804 -2.3111303 2.3509814e-38
-1.3913002 1.5150405 -2.3387964 2.3509814e-38
-1.3853104 1.5058565 -2.3549161 2.3509814e-38
-1.3804438 1.4823449 -2.3742504 2.3509816e-38
-1.3733469 1.4765724 -2.3913627 2.3509816e-38
-1.3639783 1.4744684 -2.4118092 2.3509816e-38
-1.3640674 1.4835311 -2.4080997 2.3509816e-38
-1.3689747 1.5072398 -2.3886032 2.3509817e-38
-1.3690639 1.5163025 -2.3848937 2.3509817e-38
-1.3692423 1.534428 -2.377475 2.3509817e-38
-1.3809743 1.5362692 -2.3521795 2.3509818e-38
-1.4005473 1.5346341 -2.3118074 2.3509818e-38
-1.4113995 1.527805 -2.2917254 2.3509818e-38
-1.4167153 1.6115512 -2.2480376 2.350982e-38
-1.4123421 1.6236035 -2.2525148 2.350982e-38
-1.4080548 1.6443651 -2.2534277 2.350982e-38
-1.4062506 1.6541525 -2.2534037 2.3509821e-38
-1.3931146 1.6993732 -2.2633491 2.3509821e-38
-1.3932009 1.708151 -2.2597561 2.3509821e-38
-1.3932874 1.7169288 -2.2561636 2.3509823e-38
-1.3933737 1.7257066 -2.2525709 2.3509823e-38
-1.3934598 1.7344843 -2.2489781 2.3509823e-38
-1.3917143 1.7538326 -2.2451153 2.3509823e-38
-1.3806939 1.7894208 -2.2543716 2.3509824e-38
-1.374691 1.8397532 -2.2473857 2.3509824e-38
-1.3305761 1.8636858 -2.3305092 2.3509824e-38
-1.3290094 1.8558302 -2.3368449 2.3509825e-38
-1.3274425 1.8479745 -2.3431809 2.3509825e-38
-1.3258758 1.8401186 -2.3495166 2.3509825e-38
-1.3211758 1.8165514 -2.3685238 2.3509827e-38
-1.319609 1.8086956 -2.3748596 2.3509827e-38
-1.3180425 1.8008399 -2.3811953 2.3509827e-38
-1.3164759 1.7929844 -2.3875313 2.3509828e-38
-1.3149092 1.7851286 -2.3938668 2.3509828e-38
-1.3133428 1.7772728 -2.4002028 2.3509828e-38
-1.311776 1.7694169 -2.4065385 2.350983e-38
-1.3102092 1.7615612 -2.4128742 2.350983e-38
-1.3086424 1.7537054 -2.41921 2.350983e-38
-1.3070757 1.7458497 -2.4255457 2.3509831e-38
-1.3055091 1.7379941 -2.4318814 2.3509831e-38
-1.3039424 1.7301382 -2.4382172 2.3509831e-38
-1.3023758 1.7222825 -2.4445531 2.3509831e-38
-1.3008091 1.7144266 -2.4508889 2.3509832e-38
-1.3021295 1.6781803 -2.4622109 2.3509832e-38
-1.2943614 1.6392285 -2.4936259 2.3509832e-38
-1.2928076 1.631438 -2.4999092 2.3509834e-38
-1.2835757 1.6280134 -2.5205824 2.3509834e-38
-1.2715795 1.6399118 -2.5410907 2.3509834e-38
-1.2518739 1.6448121 -2.5804727 2.3509835e-38
-1.2377367 1.6157271 -2.6213956 2.3509835e-38
-1.2361293 1.607667 -2.6278963 2.3509835e-38
-1.2345217 1.5996068 -2.634397 2.3509837e-38
-1.2329144 1.5915468 -2.6408975 2.3509837e-38
-1.2331692 1.5474626 -2.6574991 2.3509837e-38
-1.2391372 1.5046331 -2.6616418 2.3509838e-38
-1.2435789 1.4546188 -2.6717761 2.3509838e-38
-1.2368971 1.4346952 -2.6935189 2.3509838e-38
-1.2193947 1.4401537 -2.7280669 2.3509838e-38
-1.2139664 1.4593738 -2.7319691 2.3509839e-38
-1.215588 1.4675047 -2.7254117 2.3509839e-38
-1.2056653 1.5302 -2.7218313 2.3509839e-38
-1.2072873 1.538331 -2.7152736 2.3509841e-38
-1.2089089 1.5464618 -2.7087159 2.3509841e-38
-1.217926 1.5860591 -2.6744325 2.3509841e-38
-1.2195334 1.5941191 -2.6679323 2.3509842e-38
-1.2148693 1.6466285 -2.6572955 2.3509842e-38
-1.2201635 1.6591191 -2.6413488 2.3509842e-38
-1.2234064 1.6753811 -2.6282332 2.3509844e-38
-1.2245985 1.6954143 -2.617949 2.3509844e-38
-1.224169 1.7073166 -2.6142228 2.3509844e-38
-1.2310847 1.7279381 -2.5917182 2.3509845e-38
-1.2363787 1.7404287 -2.5757716 2.3509845e-38
-1.2391927 1.768593 -2.5589297 2.3509845e-38
-1.2444868 1.7810835 -2.5429831 2.3509846e-38
-1.2461083 1.7892145 -2.5364251 2.3509846e-38
-1.2473003 1.8092476 -2.5261409 2.3509846e-38
-1.248922 1.8173786 -2.5195832 2.3509846e-38
-1.254216 1.8298692 -2.5036364 2.3509848e-38
-1.2558378 1.8380001 -2.4970787 2.3509848e-38
-1.2574593 1.8461311 -2.490521 2.3509848e-38
-1.2590808 1.8542621 -2.483963 2.3509849e-38
-1.2607021 1.8623931 -2.4774055 2.3509849e-38
-1.266426 1.8629812 -2.4651852 2.3509849e-38
-1.2794346 1.8805448 -2.4311039 2.3509851e-38
-1.2810421 1.8886049 -2.4246037 2.3509851e-38
-1.2814496 1.9242574 -2.4098918 2.3509851e-38
-1.2810202 1.9361598 -2.4061656 2.3509852e-38
-1.2858849 1.9605527 -2.3864925 2.3509852e-38
-1.2911788 1.9730431 -2.3705454 2.3509852e-38
-1.2928005 1.9811741 -2.3639877 2.3509853e-38
-1.294422 1.989305 -2.3574302 2.3509853e-38
-1.2960435 1.997436 -2.3508725 2.3509853e-38
-1.2943255 2.0450456 -2.3359666 2.3509853e-38
-1.2959472 2.0531764 -2.3294091 2.3509855e-38
-1.3012416 2.0656669 -2.3134623 2.3509855e-38
-1.3065356 2.0781574 -2.2975156 2.3509855e-38
-1.3081571 2.0862885 -2.2909577 2.3509856e-38
-1.3097788 2.0944195 -2.2844 2.3509856e-38
-1.313022 2.1106813 -2.2712846 2.3509856e-38
-1.3146434 2.1188121 -2.2647269 2.3509858e-38
-1.3244429 2.1062279 -2.2490876 2.3509858e-38
-1.3375187 2.0983319 -2.224761 2.3509858e-38
-1.3451606 2.0952029 -2.2099662 2.3509859e-38
-1.3578531 2.0819421 -2.1885283 2.3509859e-38
-1.3653647 2.0788665 -2.173986 2.3509859e-38
-1.3862467 2.1238694 -2.1127441 2.350986e-38
-1.3824145 2.1480877 -2.1113594 2.350986e-38
-1.3839682 2.1558781 -2.1050763 2.350986e-38
-1.403193 2.2088439 -2.0442109 2.3509862e-38
-1.3759308 2.2616286 -2.080812 2.3509862e-38
-1.3741088 2.2636049 -2.0838618 2.3509862e-38
-1.3649414 2.2772846 -2.0977511 2.3509862e-38
-1.3537066 2.2947659 -2.1144948 2.3509863e-38
-1.3439282 2.3300202 -2.121279 2.3509863e-38
-1.3366965 2.3498738 -2.1287134 2.3509863e-38
-3.0530002 -0.22028625 0.4681744 2.3509865e-38
-3.0446339 -0.21386954 0.45313948 2.3509865e-38
-3.0337706 -0.20580034 0.43351641 2.3509865e-38
-3.0309558 -0.20389466 0.42835969 2.3509866e-38
-3.028141 -0.20198913 0.42320302 2.3509866e-38
-3.0201964 -0.19589555 0.40892613 2.3509866e-38
-3.0174022 -0.194004 0.40380743 2.3509867e-38
-3.0146081 -0.19211246 0.39868876 2.3509867e-38
-3.0118141 -0.19022089 0.39357007 2.3509867e-38
-3.0039728 -0.18419746 0.37948334 2.3509869e-38
-2.9860752 -0.17101023 0.34711105 2.3509869e-38
-2.9738629 -0.16870338 0.3224211 2.3509869e-38
-2.9698145 -0.16683535 0.31466568 2.3509869e-38
-2.9534647 -0.15394233 0.28542212 2.350987e-38
-2.950942 -0.15341818 0.28034008 2.350987e-38
-2.9484189 -0.15289403 0.275258 2.350987e-38
-2.9391661 -0.14717871 0.25809336 2.3509872e-38
-2.9351521 -0.14532655 0.25040346 2.3509872e-38
-2.9311378 -0.14347439 0.24271348 2.3509872e-38
-2.9272482 -0.12692581 0.24099621 2.3509873e-38
-2.9268742 -0.12441856 0.24118686 2.3509873e-38
-2.9185517 -0.09102913 0.2367281 2.3509873e-38
-2.9147539 -0.081148788 0.23261178 2.3509874e-38
-2.9144297 -0.075404592 0.23416553 2.3509874e-38
-2.9145534 -0.062923923 0.23927554 2.3509874e-38
-2.9209838 -0.042611077 0.26064324 2.3509876e-38
-2.9220386 -0.035441197 0.2656396 2.3509876e-38
-2.9224925 -0.0026566032 0.27933362 2.3509876e-38
-2.9211388 0.0068597607 0.28019619 2.3509877e-38
-2.9186158 0.039398007 0.28755701 2.3509877e-38
-2.9184105 0.058050696 0.29437733 2.3509877e-38
-2.9170465 0.067639068 0.29524621 2.3509877e-38
-2.9143183 0.086815864 0.29698455 2.3509879e-38
-1.4621783 2.123631 -1.9537503 2.3509879e-38
-1.4381331 2.1633804 -1.988678 2.3509879e-38
-1.4193398 2.1540117 -2.0316944 2.350988e-38
-1.4136786 2.1124887 -2.0596938 2.350988e-38
-1.4331946 2.018681 -2.0552676 2.350988e-38
-1.4378711 2.0151744 -2.0468326 2.3509881e-38
-1.4425477 2.0116673 -2.0383971 2.3509881e-38
-1.4472244 2.0081604 -2.0299621 2.3509881e-38
-1.4519011 2.0046535 -2.0215271 2.3509883e-38
-1.4612544 1.9976394 -2.0046566 2.3509883e-38
-1.4834452 2.0180409 -1.9502344 2.3509883e-38
-1.4846892 2.0267174 -1.9442563 2.3509884e-38
-1.4859329 2.0353942 -1.938278 2.3509884e-38
-1.4667443 2.1202073 -1.9455149 2.3509884e-38
