# .PCD v0.7 - Point Cloud Data file format
VERSION 0.7
FIELDS x y z rgb
SIZE 4 4 4 4
TYPE F F F F
COUNT 1 1 1 1
WIDTH 82
HEIGHT 1
VIEWPOINT 0 0 0 1 0 0 0
POINTS 82
DATA ascii
-1.9562033 0.85635859 -0.12466452 2.3509528e-38
-1.9563831 0.85301715 -0.12585498 2.3509532e-38
-1.9608558 0.84013689 -0.11728435 2.3509537e-38
-1.9665779 0.8234095 -0.10645542 2.3509541e-38
-1.9712127 0.81855452 -0.092958078 2.3509545e-38
-1.9788159 0.81619871 -0.067768373 2.3509549e-38
-1.9812099 0.81470019 -0.060248055 2.3509554e-38
-1.9848557 0.81056887 -0.049800932 2.3509558e-38
-1.9910316 0.80248827 -0.032691453 2.3509562e-38
-1.9976887 0.79756546 -0.012191271 2.3509566e-38
-2.0004957 0.79327911 -0.004748282 2.3509572e-38
-2.0096054 0.77801269 0.01866889 2.3509576e-38
-2.0117757 0.77558929 0.024907764 2.350958e-38
-2.0243213 0.76214582 0.061277971 2.3509584e-38
-2.0278604 0.75698453 0.070793748 2.3509589e-38
-2.0353014 0.7498855 0.092841133 2.3509593e-38
-2.0475342 0.71366084 0.11573894 2.3509597e-38
-2.0544996 0.71212119 0.13915198 2.3509601e-38
-2.0606401 0.70308918 0.15562113 2.3509605e-38
-2.0680082 0.69590276 0.1773669 2.3509611e-38
-2.0691862 0.69428986 0.18059164 2.3509615e-38
-2.0754836 0.68493497 0.19743107 2.3509619e-38
-2.0855739 0.6783064 0.22895692 2.3509624e-38
-2.0900433 0.67394727 0.24214742 2.3509628e-38
-2.0958846 0.68668896 0.26941049 2.3509632e-38
-2.0940127 0.70698309 0.27392516 2.3509636e-38
-2.093678 0.7154271 0.27734953 2.350964e-38
-2.0931311 0.72880667 0.28271773 2.3509645e-38
-2.0929036 0.73292422 0.28416398 2.350965e-38
-2.0928969 0.75196165 0.29448903 2.3509654e-38
-2.0929513 0.75703537 0.29743633 2.3509659e-38
-2.0927627 0.76163369 0.29927903 2.3509663e-38
-2.0928116 0.772053 0.30511287 2.3509667e-38
-2.0928173 0.78413564 0.31170031 2.3509671e-38
-2.0919385 0.79130095 0.31253561 2.3509675e-38
-2.0944638 0.82980186 0.34225535 2.350968e-38
-2.0953672 0.84584743 0.35412198 2.3509684e-38
-2.1116641 0.87142533 0.42476249 2.3509689e-38
-2.1153529 0.87213016 0.4379884 2.3509694e-38
-2.1149662 0.88547063 0.44389442 2.3509698e-38
-2.1147826 0.88658077 0.44385806 2.3509702e-38
-2.1125147 0.89059877 0.43814728 2.3509706e-38
-2.1094406 0.89501882 0.42984641 2.350971e-38
-2.1015167 0.90664136 0.40857789 2.3509715e-38
-2.0965874 0.91151685 0.39406627 2.3509719e-38
-2.0946155 0.91126508 0.38706356 2.3509723e-38
-2.0747378 0.93519008 0.33086395 2.3509729e-38
-2.0723267 0.93776977 0.32387203 2.3509733e-38
-2.0657661 0.94655001 0.30580413 2.3509737e-38
-2.0616946 0.95282078 0.29503793 2.3509741e-38
-2.0563498 0.96274596 0.28182507 2.3509745e-38
-2.0539439 0.96531981 0.27484721 2.350975e-38
-2.0515368 0.96789497 0.26786706 2.3509754e-38
-2.0441923 0.97496021 0.24613748 2.3509758e-38
-2.042767 0.97665948 0.24209931 2.3509762e-38
-2.0397439 0.98079377 0.23382121 2.3509768e-38
-2.0361447 0.9846471 0.22338557 2.3509772e-38
-2.0339212 0.98700202 0.21692446 2.3509776e-38
-2.0293641 0.99114013 0.20330773 2.3509781e-38
-2.027046 0.99361914 0.19658461 2.3509785e-38
-2.0217757 0.99822021 0.18073733 2.3509789e-38
-2.0186477 1.0006336 0.17115903 2.3509793e-38
-2.0117409 1.0091287 0.15173057 2.3509797e-38
-2.0015244 1.0096452 0.11644299 2.3509802e-38
-1.9888104 1.0406901 0.08905334 2.3509807e-38
-1.9773557 1.0496861 0.054063767 2.3509811e-38
-1.9677523 1.0509422 0.021312673 2.3509816e-38
-1.9654402 1.0534557 0.014628952 2.350982e-38
-1.9527333 1.0817248 -0.014244029 2.3509824e-38
-1.9518137 1.0805169 -0.018102013 2.3509828e-38
-1.9482111 1.0679781 -0.03745991 2.3509832e-38
-1.9482678 1.0561882 -0.043671545 2.3509837e-38
-1.9519415 1.0104754 -0.055729579 2.3509841e-38
-1.9515947 1.0038469 -0.060540002 2.3509846e-38
-1.9511572 0.99438214 -0.067207932 2.3509851e-38
-1.9530892 0.97123075 -0.073066004 2.3509855e-38
-1.9537754 0.96290058 -0.075205043 2.3509859e-38
-1.9540451 0.9549194 -0.078604043 2.3509863e-38
-1.9537497 0.92969275 -0.093344733 2.3509867e-38
-1.9542562 0.9114098 -0.1015197 2.3509872e-38
-1.953998 0.90258586 -0.10721522 2.3509876e-38
-1.9542757 0.88382733 -0.11644465 2.350988e-38
