# .PCD v0.7 - Point Cloud Data file format
VERSION 0.7
FIELDS x y z rgb
SIZE 4 4 4 4
TYPE F F F F
COUNT 1 1 1 1
WIDTH 105
HEIGHT 1
VIEWPOINT 0 0 0 1 0 0 0
POINTS 105
DATA ascii
-0.49297076 0.11824612 2.8195379 2.3509528e-38
-0.53233051 0.11568075 2.8081636 2.3509531e-38
-0.53221214 0.11064427 2.8075855 2.3509534e-38
-0.53209382 0.10560761 2.8070076 2.3509538e-38
-0.53173858 0.090498008 2.8052731 2.3509541e-38
-0.53162026 0.085461341 2.8046949 2.3509545e-38
-0.53648281 0.061657693 2.8004389 2.3509548e-38
-0.53147215 0.051482465 2.8006117 2.3509552e-38
-0.53093708 0.0034415098 2.7949302 2.3509555e-38
-0.53082061 -0.0015149009 2.7943614 2.3509558e-38
-0.53070402 -0.0064714272 2.7937922 2.3509562e-38
-0.53058773 -0.011427887 2.7932239 2.3509565e-38
-0.53047121 -0.016384369 2.7926548 2.3509569e-38
-0.5537219 -0.070270032 2.7795784 2.3509572e-38
-0.55360717 -0.075148225 2.7790184 2.3509576e-38
-0.52925313 -0.11995966 2.7804236 2.3509579e-38
-0.52913839 -0.12483793 2.7798636 2.3509582e-38
-0.52902377 -0.12971614 2.7793038 2.3509586e-38
-0.52899975 -0.15601076 2.7761185 2.3509589e-38
-0.52888596 -0.16085073 2.775563 2.3509593e-38
-0.52232426 -0.24331065 2.7673974 2.3509596e-38
-0.51682842 -0.25203443 2.7678831 2.35096e-38
-0.51261336 -0.2630308 2.7677329 2.3509603e-38
-0.50798541 -0.26321086 2.7690117 2.3509605e-38
-0.49233639 -0.26656219 2.7730033 2.350961e-38
-0.47702041 -0.27596572 2.7761664 2.3509612e-38
-0.44601512 -0.3034094 2.7815495 2.3509617e-38
-0.37193513 -0.36613569 2.7947562 2.3509619e-38
-0.37174466 -0.37133768 2.7941782 2.3509624e-38
-0.37060165 -0.40254942 2.7907107 2.3509626e-38
-0.38343486 -0.42743099 2.7840834 2.3509629e-38
-0.38359022 -0.43618298 2.7829771 2.3509633e-38
-0.38235515 -0.44516486 2.782234 2.3509636e-38
-0.37988502 -0.4631286 2.7807477 2.350964e-38
-0.38022369 -0.47988051 2.7786191 2.3509643e-38
-0.37755251 -0.4894236 2.7782111 2.3509647e-38
-0.37632599 -0.49834365 2.7774732 2.350965e-38
-0.38775498 -0.54169559 2.7689984 2.3509653e-38
-0.3892048 -0.54830867 2.7677879 2.3509657e-38
-0.39299375 -0.56389958 2.7648304 2.350966e-38
-0.40186405 -0.58304954 2.7600126 2.3509664e-38
-0.41505483 -0.61665255 2.7522261 2.3509667e-38
-0.40868473 -0.62838918 2.7525916 2.3509671e-38
-0.4196443 -0.6829738 2.7428851 2.3509674e-38
-0.37573797 -0.71100706 2.7518227 2.3509677e-38
-0.3543027 -0.74123287 2.7541783 2.3509681e-38
-0.3482995 -0.76348162 2.7531645 2.3509684e-38
-0.34307081 -0.76882428 2.7539856 2.3509688e-38
-0.33299738 -0.76901817 2.7567935 2.3509691e-38
-0.32796064 -0.76911515 2.7581968 2.3509695e-38
-0.32292408 -0.76921213 2.7596009 2.3509698e-38
-0.30266654 -0.76018512 2.7663906 2.3509701e-38
-0.29688737 -0.75864112 2.7682023 2.3509705e-38
-0.2708278 -0.75665283 2.775768 2.3509708e-38
-0.21442269 -0.70839798 2.7974792 2.3509712e-38
-0.1996969 -0.6981976 2.8028562 2.3509715e-38
-0.19485232 -0.69304895 2.8048429 2.3509719e-38
-0.19000787 -0.68790036 2.8068299 2.3509722e-38
-0.1804094 -0.67508972 2.8110824 2.3509724e-38
-0.170102 -0.66759807 2.814889 2.3509729e-38
-0.16131188 -0.64137012 2.8205435 2.3509731e-38
-0.16213076 -0.61547375 2.823457 2.3509736e-38
-0.15371822 -0.58598274 2.8294015 2.3509738e-38
-0.14842604 -0.57017618 2.8328075 2.3509743e-38
-0.14928837 -0.56287789 2.8334513 2.3509745e-38
-0.14615503 -0.52187872 2.8393085 2.3509748e-38
-0.13916996 -0.51102948 2.8425891 2.3509752e-38
-0.14067252 -0.50134218 2.8433425 2.3509755e-38
-0.14897107 -0.44873568 2.8473964 2.3509759e-38
-0.15046197 -0.43912432 2.8481441 2.3509762e-38
-0.14593881 -0.37947479 2.8566563 2.3509767e-38
-0.14109428 -0.3743262 2.8586428 2.3509769e-38
-0.12306081 -0.3170121 2.8706691 2.3509772e-38
-0.061753802 -0.31788456 2.8877945 2.3509776e-38
-0.041895561 -0.32381293 2.8926558 2.3509779e-38
-0.056940854 -0.31291622 2.8897505 2.3509783e-38
-0.06187506 -0.31272423 2.8883867 2.3509786e-38
-0.066809326 -0.31253222 2.8870232 2.350979e-38
-0.10586381 -0.29141077 2.8786104 2.3509793e-38
-0.11663662 -0.28997076 2.8757575 2.3509796e-38
-0.16472116 -0.22927746 2.8696101 2.35098e-38
-0.17820975 -0.27440026 2.8603415 2.3509803e-38
-0.18294457 -0.27928805 2.858417 2.3509807e-38
-0.22439475 -0.29382741 2.8450022 2.350981e-38
-0.23112825 -0.292629 2.843255 2.3509814e-38
-0.24194966 -0.28913307 2.8406379 2.3509817e-38
-0.27142644 -0.25305504 2.8367326 2.350982e-38
-0.27631974 -0.24787448 2.8359864 2.3509824e-38
-0.28121299 -0.24269395 2.8352399 2.3509827e-38
-0.28598887 -0.2425081 2.8339202 2.3509831e-38
-0.29076457 -0.24232224 2.8326001 2.3509834e-38
-0.35188425 -0.24746801 2.8147972 2.3509838e-38
-0.39477101 -0.22123943 2.8059273 2.3509841e-38
-0.39958751 -0.21614005 2.8051922 2.3509844e-38
-0.4044041 -0.21104069 2.8044577 2.3509848e-38
-0.40922073 -0.20594135 2.8037231 2.3509851e-38
-0.45291635 -0.14529766 2.7988033 2.3509855e-38
-0.46782815 -0.11033377 2.7988567 2.3509858e-38
-0.44793507 -0.051571056 2.8115811 2.3509862e-38
-0.44805241 -0.046576321 2.8121545 2.3509865e-38
-0.44773799 -0.0033462292 2.8174906 2.3509867e-38
-0.44785646 0.001690384 2.818069 2.3509872e-38
-0.44797477 0.0067269006 2.8186469 2.3509874e-38
-0.45294431 0.065968856 2.8244417 2.3509879e-38
-0.48799723 0.11298071 2.8202965 2.3509881e-38
