# .PCD v0.7 - Point Cloud Data file format
VERSION 0.7
FIELDS x y z rgb
SIZE 4 4 4 4
TYPE F F F F
COUNT 1 1 1 1
WIDTH 58
HEIGHT 1
VIEWPOINT 0 0 0 1 0 0 0
POINTS 58
DATA ascii
-2.3396916 0.70487702 0.14284305 2.3509528e-38
-2.3412797 0.70106673 0.15066929 2.3509534e-38
-2.3213489 0.70201397 0.15160455 2.3509539e-38
-2.3056118 0.70362407 0.15051913 2.3509547e-38
-2.2784286 0.70326108 0.15529573 2.3509552e-38
-2.2595737 0.70051658 0.16388199 2.3509558e-38
-2.2419608 0.69848269 0.17078166 2.3509565e-38
-2.2189784 0.69480872 0.18194278 2.350957e-38
-2.2025599 0.69280249 0.18860801 2.3509577e-38
-2.1844945 0.69171786 0.19356653 2.3509583e-38
-2.1480134 0.6825338 0.21837434 2.3509589e-38
-2.1279368 0.67716438 0.23269349 2.3509596e-38
-2.0948939 0.67541224 0.2412727 2.3509601e-38
-2.0594532 0.67252576 0.25260502 2.3509608e-38
-2.0456419 0.67067832 0.25854999 2.3509614e-38
-2.0439334 0.68622071 0.22592334 2.3509619e-38
-2.0246108 0.7082265 0.18222158 2.3509626e-38
-2.0176275 0.71103638 0.17730741 2.3509632e-38
-2.0150595 0.71191454 0.17582844 2.3509639e-38
-2.0131619 0.71294737 0.17392339 2.3509645e-38
-1.9993118 0.72154212 0.15778449 2.350965e-38
-1.9981321 0.72572798 0.14910355 2.3509657e-38
-1.9951712 0.73392171 0.13220721 2.3509663e-38
-1.9960032 0.73711157 0.12533671 2.350967e-38
-2.0214722 0.7622745 0.068350986 2.3509675e-38
-2.0067487 0.78239471 0.027959814 2.3509681e-38
-2.006418 0.78686816 0.018545382 2.3509688e-38
-2.0028028 0.79980588 -0.0082901092 2.3509694e-38
-1.9826375 0.81328875 -0.033838008 2.3509701e-38
-1.9739152 0.82064295 -0.048109036 2.3509706e-38
-1.9695139 0.82657194 -0.06000226 2.3509712e-38
-1.9604555 0.83655697 -0.079788737 2.3509719e-38
-1.9436767 0.84430617 -0.0937071 2.3509724e-38
-1.9391383 0.85027987 -0.10567467 2.3509731e-38
-1.9403299 0.8524515 -0.11044426 2.3509737e-38
-1.9491102 0.85383242 -0.11466035 2.3509743e-38
-1.9639459 0.85727113 -0.12412229 2.350975e-38
-1.9896141 0.86031592 -0.1343486 2.3509755e-38
-2.0156245 0.86247575 -0.1427532 2.3509762e-38
-2.0372827 0.86262542 -0.14626361 2.3509768e-38
-2.0745015 0.87041932 -0.16823937 2.3509774e-38
-2.0966964 0.87097812 -0.17269446 2.3509781e-38
-2.1190455 0.87438285 -0.18319272 2.3509786e-38
-2.1713057 0.87610215 -0.19453646 2.3509793e-38
-2.1837358 0.87661916 -0.1974631 2.3509799e-38
-2.1884649 0.87657666 -0.19807059 2.3509804e-38
-2.2175927 0.87355322 -0.1959701 2.3509811e-38
-2.2298 0.86848325 -0.18704523 2.3509817e-38
-2.2182028 0.86057776 -0.16861174 2.3509824e-38
-2.2275374 0.83818293 -0.12261418 2.350983e-38
-2.2306488 0.8307181 -0.10728177 2.3509835e-38
-2.2642877 0.81032175 -0.069095798 2.3509842e-38
-2.285099 0.77069956 0.011652229 2.3509848e-38
-2.2979445 0.7630747 0.025887661 2.3509855e-38
-2.3096206 0.74428087 0.063922413 2.350986e-38
-2.3145955 0.72900105 0.095511794 2.3509866e-38
-2.3335636 0.71750176 0.11704017 2.3509873e-38
-2.3381035 0.70868731 0.13501693 2.3509879e-38
