# .PCD v0.7 - Point Cloud Data file format
VERSION 0.7
FIELDS x y z rgb
SIZE 4 4 4 4
TYPE F F F F
COUNT 1 1 1 1
WIDTH 269
HEIGHT 1
VIEWPOINT 0 0 0 1 0 0 0
POINTS 269
DATA ascii
0.93060619 1.3898768 -0.7610153 2.3509528e-38
0.9130618 1.3890865 -0.75908834 2.3509528e-38
0.89964068 1.3920029 -0.76590705 2.350953e-38
0.87874955 1.3961858 -0.77568042 2.3509531e-38
0.87191486 1.3987451 -0.78168261 2.3509532e-38
0.84438908 1.4034629 -0.79269135 2.3509534e-38
0.83011699 1.4036796 -0.79314864 2.3509535e-38
0.82084072 1.4067887 -0.80043685 2.3509537e-38
0.79882574 1.410688 -0.80953813 2.3509538e-38
0.75681829 1.4120306 -0.81254387 2.3509539e-38
0.72735953 1.42466 -0.84217829 2.3509541e-38
0.69383407 1.4305214 -0.85585803 2.3509542e-38
0.68800449 1.4332938 -0.86236572 2.3509544e-38
0.68536252 1.4343371 -0.86481327 2.3509545e-38
0.668764 1.4388233 -0.87531704 2.3509547e-38
0.6463595 1.4413354 -0.88115001 2.3509548e-38
0.63486558 1.4438541 -0.88703889 2.3509549e-38
0.62264276 1.4460682 -0.89220792 2.3509551e-38
0.60717058 1.4480636 -0.89685005 2.3509552e-38
0.59000498 1.4527354 -0.90778875 2.3509554e-38
0.57993174 1.4552155 -0.91359228 2.3509554e-38
0.56056499 1.4582262 -0.92061102 2.3509555e-38
0.55482709 1.4591122 -0.92267621 2.3509556e-38
0.54147696 1.4625878 -0.93081206 2.3509558e-38
0.53070688 1.4644305 -0.9351117 2.3509559e-38
0.50311923 1.4727715 -0.95465356 2.3509561e-38
0.49763483 1.4735234 -0.95640391 2.3509562e-38
0.49221408 1.4743046 -0.95822358 2.3509563e-38
0.48672339 1.4750532 -0.95996594 2.3509565e-38
0.47937897 1.4768592 -0.96419221 2.3509566e-38
0.45857823 1.4808797 -0.97358352 2.3509568e-38
0.42949435 1.4822128 -0.97661507 2.3509569e-38
0.40260363 1.4900401 -0.9949494 2.350957e-38
0.37909234 1.4916691 -0.99869859 2.3509572e-38
0.37475157 1.4942311 -1.0047163 2.3509573e-38
0.33129546 1.5023594 -1.0236979 2.3509575e-38
0.31274179 1.5125018 -1.0475159 2.3509576e-38
0.30755785 1.5139982 -1.0510205 2.3509577e-38
0.2892296 1.5206772 -1.0666825 2.3509579e-38
0.26096714 1.5246633 -1.0759652 2.3509579e-38
0.25636372 1.5249491 -1.0766211 2.350958e-38
0.24473837 1.5274388 -1.0824416 2.3509582e-38
0.22761576 1.5334299 -1.0964874 2.3509583e-38
0.22761963 1.5342476 -1.0984136 2.3509584e-38
0.22811681 1.536882 -1.1046199 2.3509586e-38
0.22971874 1.5444753 -1.1225089 2.3509587e-38
0.22938503 1.552202 -1.140705 2.3509589e-38
0.24110571 1.555307 -1.1480613 2.350959e-38
0.2621381 1.5698886 -1.1824812 2.3509591e-38
0.26924703 1.5729576 -1.1897355 2.3509593e-38
0.2779108 1.5804032 -1.2073034 2.3509594e-38
0.28653529 1.5883816 -1.2261256 2.3509596e-38
0.29627973 1.5934163 -1.2380191 2.3509597e-38
0.30578688 1.5985409 -1.2501236 2.3509598e-38
0.31295121 1.6109927 -1.2794758 2.35096e-38
0.32925937 1.6156802 -1.2905761 2.3509601e-38
0.339479 1.6222974 -1.3061986 2.3509603e-38
0.35040063 1.6325083 -1.3302875 2.3509604e-38
0.35250261 1.6382763 -1.3438797 2.3509604e-38
0.36985755 1.6436743 -1.3566571 2.3509605e-38
0.37785673 1.6458539 -1.3618201 2.3509607e-38
0.39512253 1.6524886 -1.37751 2.3509608e-38
0.40232801 1.6595229 -1.3941035 2.350961e-38
0.40052539 1.6742394 -1.4287562 2.3509611e-38
0.4215723 1.6850941 -1.4543989 2.3509612e-38
0.42885393 1.6983937 -1.4857482 2.3509614e-38
0.43262714 1.7090046 -1.5107522 2.3509615e-38
0.45825061 1.7191043 -1.5346338 2.3509617e-38
0.46798444 1.7247156 -1.5478853 2.3509618e-38
0.48221749 1.7349604 -1.5720661 2.3509619e-38
0.48636466 1.7423823 -1.5895613 2.3509621e-38
0.50809216 1.751285 -1.6106088 2.3509622e-38
0.52058452 1.7591255 -1.6291208 2.3509624e-38
0.55847895 1.7691712 -1.6529211 2.3509625e-38
0.575638 1.7690805 -1.6527711 2.3509626e-38
0.59770709 1.7703643 -1.6558764 2.3509628e-38
0.63173801 1.7654428 -1.6444123 2.3509629e-38
0.64893579 1.7491007 -1.6059886 2.3509629e-38
0.68326163 1.7416881 -1.5886586 2.3509631e-38
0.71811849 1.7352468 -1.5736178 2.3509632e-38
0.73343068 1.7279906 -1.5565857 2.3509633e-38
0.7498253 1.7241782 -1.5476677 2.3509635e-38
0.7760973 1.7171391 -1.5311875 2.3509636e-38
0.83841014 1.7172884 -1.5317709 2.3509638e-38
0.85620522 1.7140371 -1.5241796 2.3509639e-38
0.88166547 1.6949368 -1.4792905 2.350964e-38
0.92233402 1.6904763 -1.468937 2.3509642e-38
0.93416774 1.6864544 -1.4595087 2.3509643e-38
0.94670522 1.682252 -1.4496583 2.3509645e-38
0.98613304 1.6794473 -1.4431993 2.3509646e-38
1.0285021 1.6758519 -1.4348893 2.3509647e-38
1.0691912 1.6569941 -1.390628 2.3509649e-38
1.0972222 1.6493229 -1.3726655 2.350965e-38
1.1720546 1.6300349 -1.3275179 2.3509652e-38
1.1861936 1.6319073 -1.3319805 2.3509653e-38
1.1940162 1.6307501 -1.3292838 2.3509654e-38
1.2018389 1.6295927 -1.3265872 2.3509656e-38
1.2096615 1.6284354 -1.3238906 2.3509656e-38
1.2331296 1.6249633 -1.3158008 2.3509657e-38
1.2249346 1.6202341 -1.3046324 2.3509659e-38
1.2201664 1.6155778 -1.2936484 2.350966e-38
1.2183743 1.6085809 -1.2771633 2.3509661e-38
1.2155948 1.6073859 -1.2743381 2.3509663e-38
1.1957204 1.5965658 -1.2487818 2.3509664e-38
1.1879448 1.5917748 -1.2374692 2.3509666e-38
1.1933203 1.5648052 -1.1739721 2.3509667e-38
1.1880705 1.5579859 -1.1578925 2.3509668e-38
1.1855751 1.5520012 -1.1437883 2.350967e-38
1.1750566 1.5475585 -1.1332861 2.3509671e-38
1.1601542 1.5398107 -1.1149832 2.3509673e-38
1.1347283 1.5311691 -1.0945368 2.3509674e-38
1.1271172 1.5275379 -1.0859563 2.3509675e-38
1.1189828 1.5235951 -1.0766404 2.3509677e-38
1.1059711 1.516813 -1.0606192 2.3509678e-38
1.0963548 1.5127459 -1.0510048 2.350968e-38
1.0888573 1.5091393 -1.0424829 2.3509681e-38
1.0669799 1.4936817 -1.0059968 2.3509681e-38
1.0628263 1.4878428 -0.99222988 2.3509682e-38
1.0592011 1.4823446 -0.97926748 2.3509684e-38
1.0481467 1.4733509 -0.95804501 2.3509685e-38
1.0364273 1.4673645 -0.94390267 2.3509687e-38
1.0296044 1.464162 -0.93633485 2.3509688e-38
1.0196987 1.4559046 -0.91685075 2.3509689e-38
1.0129192 1.4527264 -0.90934038 2.3509691e-38
1.0030509 1.4445484 -0.89004356 2.3509692e-38
0.98156816 1.4336835 -0.86437529 2.3509694e-38
0.97245371 1.427076 -0.84878004 2.3509695e-38
0.96706396 1.4241979 -0.84198141 2.3509696e-38
0.95902508 1.4173158 -0.82574326 2.3509698e-38
0.94879484 1.4084153 -0.80474311 2.3509699e-38
0.93612021 1.3923199 -0.76678962 2.3509701e-38
0.233118 1.8119731 -1.7525152 2.3509702e-38
0.22124007 1.8189362 -1.76887 2.3509703e-38
0.19427986 1.8190963 -1.7691467 2.3509705e-38
0.16813524 1.8220823 -1.7760819 2.3509706e-38
0.14689608 1.8291236 -1.7925861 2.3509706e-38
0.11285201 1.8434438 -1.8261853 2.3509708e-38
0.094040528 1.8511257 -1.8442078 2.3509709e-38
0.076950774 1.8501639 -1.841879 2.350971e-38
0.049254932 1.8506283 -1.8428695 2.3509712e-38
0.032949831 1.8534814 -1.8495284 2.3509713e-38
0.0014292994 1.8585558 -1.8613619 2.3509715e-38
-0.056377687 1.8748577 -1.8995402 2.3509716e-38
-0.068041749 1.885722 -1.9250838 2.3509717e-38
-0.08029411 1.8875299 -1.9292957 2.3509719e-38
-0.13410388 1.8943888 -1.9452496 2.350972e-38
-0.14635611 1.90066 -1.9599738 2.3509722e-38
-0.19624731 1.9068986 -1.974481 2.3509723e-38
-0.20858988 1.9173237 -1.9989873 2.3509724e-38
-0.20990714 1.9194332 -2.0039508 2.3509726e-38
-0.25217494 1.930879 -2.0307496 2.3509727e-38
-0.25387403 1.9320041 -2.0333931 2.3509729e-38
-0.27866614 1.9462742 -2.0669091 2.350973e-38
-0.29054418 1.9531894 -2.0831509 2.3509731e-38
-0.31125012 1.9517649 -2.0797193 2.3509731e-38
-0.35374701 1.9555426 -2.0884583 2.3509733e-38
-0.38380957 1.9573996 -2.09272 2.3509734e-38
-0.43318138 1.9644419 -2.1091218 2.3509736e-38
-0.44662872 1.9736573 -2.1307752 2.3509737e-38
-0.45821843 1.9735166 -2.1304009 2.3509738e-38
-0.51326877 1.9764702 -2.1371524 2.350974e-38
-0.52770084 1.9838995 -2.1545956 2.3509741e-38
-0.55418247 1.9911619 -2.1716011 2.3509743e-38
-0.5793761 1.997533 -2.1865122 2.3509744e-38
-0.60679209 2.0050979 -2.2042267 2.3509745e-38
-0.63842285 2.0142374 -2.2256339 2.3509747e-38
-0.6490761 2.0143006 -2.2257431 2.3509748e-38
-0.67201376 2.0169666 -2.2319362 2.350975e-38
-0.71998721 2.025362 -2.2515302 2.3509751e-38
-0.73023808 2.0356257 -2.2756648 2.3509752e-38
-0.76980209 2.0470719 -2.3024752 2.3509754e-38
-0.78906578 2.0428026 -2.2923484 2.3509755e-38
-0.79721415 2.0401978 -2.2861834 2.3509757e-38
-0.81669801 2.0259361 -2.2525229 2.3509757e-38
-0.81952852 2.0153127 -2.2274926 2.3509758e-38
-0.82300246 2.0063992 -2.2064874 2.3509759e-38
-0.83494407 1.9921449 -2.1728721 2.3509761e-38
-0.84177542 1.986837 -2.160346 2.3509762e-38
-0.85746515 1.979493 -2.1429915 2.3509764e-38
-0.87293696 1.9655409 -2.1100743 2.3509765e-38
-0.89864028 1.9602631 -2.0975494 2.3509767e-38
-0.89814073 1.9590015 -2.0945799 2.3509768e-38
-0.94770235 1.9282981 -2.022085 2.3509769e-38
-0.9476788 1.9174535 -1.9965445 2.3509771e-38
-0.96124798 1.9080454 -1.9743366 2.3509772e-38
-0.99940431 1.8983715 -1.9514112 2.3509774e-38
-1.0109197 1.8914542 -1.9350775 2.3509775e-38
-1.0332719 1.8745792 -1.8952513 2.3509776e-38
-1.0386524 1.8614495 -1.8643088 2.3509778e-38
-1.0461633 1.8570811 -1.8539931 2.3509779e-38
-1.0544157 1.8386302 -1.8105079 2.3509781e-38
-1.1015809 1.8312522 -1.7929565 2.3509782e-38
-1.0938934 1.8229172 -1.7733549 2.3509783e-38
-1.0949678 1.8115102 -1.7464858 2.3509783e-38
-1.0952713 1.803511 -1.7276455 2.3509785e-38
-1.0798991 1.7935377 -1.7042145 2.3509786e-38
-1.0598348 1.7744604 -1.6593592 2.3509788e-38
-1.0544602 1.7660284 -1.6395204 2.3509789e-38
-1.0515378 1.76562 -1.6385695 2.350979e-38
-1.0094185 1.7672974 -1.6426769 2.3509792e-38
-0.95078564 1.760958 -1.6279647 2.3509793e-38
-0.93433738 1.7513093 -1.6053019 2.3509795e-38
-0.9200474 1.7468338 -1.5948144 2.3509796e-38
-0.89994735 1.7365996 -1.5707865 2.3509797e-38
-0.88855195 1.7328029 -1.5618869 2.3509799e-38
-0.87444896 1.7271961 -1.5487348 2.35098e-38
-0.85958368 1.7221334 -1.5368667 2.3509802e-38
-0.84377658 1.7134486 -1.5164719 2.3509803e-38
-0.83546764 1.7124163 -1.5140715 2.3509804e-38
-0.82715869 1.7113841 -1.5116711 2.3509806e-38
-0.81784445 1.7097348 -1.5078218 2.3509807e-38
-0.806198 1.7072109 -1.5019207 2.3509809e-38
-0.77646583 1.6994503 -1.4837538 2.3509809e-38
-0.76410937 1.6956869 -1.4749368 2.350981e-38
-0.72791439 1.6898531 -1.4613317 2.3509811e-38
-0.71943063 1.6878853 -1.4567289 2.3509813e-38
-0.71013808 1.6857984 -1.4518486 2.3509814e-38
-0.68570668 1.6848959 -1.449814 2.3509816e-38
-0.67810804 1.6862793 -1.4531006 2.3509817e-38
-0.66369402 1.688939 -1.4594178 2.3509818e-38
-0.59743631 1.6846341 -1.4495254 2.350982e-38
-0.5748986 1.6876454 -1.4567019 2.3509821e-38
-0.52565461 1.684291 -1.4489846 2.3509823e-38
-0.5019142 1.6795259 -1.4378504 2.3509824e-38
-0.48892736 1.672755 -1.4219522 2.3509825e-38
-0.47355548 1.662921 -1.3988489 2.3509827e-38
-0.47100893 1.662442 -1.3977305 2.3509828e-38
-0.44745487 1.6620551 -1.3969069 2.350983e-38
-0.4433046 1.6616005 -1.3958515 2.3509831e-38
-0.42072022 1.6600344 -1.3922473 2.3509832e-38
-0.40303722 1.6569177 -1.3849727 2.3509834e-38
-0.38502532 1.6524218 -1.3744514 2.3509834e-38
-0.36165753 1.643568 -1.3536863 2.3509835e-38
-0.31663415 1.6236937 -1.3070471 2.3509837e-38
-0.30653232 1.6237597 -1.3072401 2.3509838e-38
-0.26976821 1.6159184 -1.2889097 2.3509839e-38
-0.25979269 1.6128968 -1.2818304 2.3509841e-38
-0.20729427 1.6095002 -1.2740259 2.3509842e-38
-0.17279883 1.5928633 -1.234972 2.3509844e-38
-0.13153088 1.5861793 -1.2193836 2.3509845e-38
-0.11178473 1.5831362 -1.2122902 2.3509846e-38
-0.10045739 1.5823269 -1.2104264 2.3509848e-38
-0.082205474 1.5881613 -1.2242355 2.3509849e-38
-0.057758674 1.5947999 -1.2399608 2.3509851e-38
-0.032363143 1.5968421 -1.2448649 2.3509852e-38
-0.026162762 1.6004598 -1.2534083 2.3509853e-38
-0.027151024 1.6151766 -1.2880645 2.3509855e-38
-0.020621819 1.6268548 -1.3155925 2.3509856e-38
-0.015440856 1.6300246 -1.3230772 2.3509858e-38
0.0049496014 1.6436341 -1.3552053 2.3509859e-38
0.018860318 1.6509246 -1.3724273 2.3509859e-38
0.025421571 1.6602447 -1.3944017 2.350986e-38
0.034293924 1.6668451 -1.4099796 2.3509862e-38
0.043528557 1.6705128 -1.4186518 2.3509863e-38
0.047892619 1.6736133 -1.42597 2.3509865e-38
0.069236569 1.684865 -1.4525486 2.3509866e-38
0.079179116 1.6912119 -1.4675337 2.3509867e-38
0.10127912 1.7007914 -1.4901766 2.3509869e-38
0.10817544 1.7120208 -1.5166492 2.350987e-38
0.11590914 1.7175155 -1.5296185 2.3509872e-38
0.1190661 1.7204524 -1.5365474 2.3509873e-38
0.12638462 1.7297128 -1.5583843 2.3509874e-38
0.13657166 1.7395215 -1.5815228 2.3509876e-38
0.17048767 1.7514066 -1.6096398 2.3509877e-38
0.1946633 1.7685119 -1.6500148 2.3509879e-38
0.20784996 1.7843064 -1.6872623 2.350988e-38
0.21690543 1.7905787 -1.702068 2.3509881e-38
0.232484 1.8069797 -1.7407525 2.3509883e-38
0.23312908 1.8079834 -1.7431188 2.3509884e-38
