# .PCD v0.7 - Point Cloud Data file format
VERSION 0.7
FIELDS x y z rgb
SIZE 4 4 4 4
TYPE F F F F
COUNT 1 1 1 1
WIDTH 214
HEIGHT 1
VIEWPOINT 0 0 0 1 0 0 0
POINTS 214
DATA ascii
-1.5586922 2.276444 -1.1471279 2.3509528e-38
-1.5554092 2.2967358 -1.1454151 2.350953e-38
-1.5471486 2.2939744 -1.1590109 2.3509531e-38
-1.5456566 2.2936535 -1.1614076 2.3509532e-38
-1.5428244 2.292676 -1.1660792 2.3509534e-38
-1.5419856 2.2862144 -1.1695162 2.3509535e-38
-1.5300579 2.2525842 -1.1990098 2.3509538e-38
-1.5330123 2.2125781 -1.207786 2.3509539e-38
-1.5315758 2.2044942 -1.2126801 2.3509541e-38
-1.528226 2.1937957 -1.2213804 2.3509542e-38
-1.5286434 2.1611121 -1.2316136 2.3509544e-38
-1.5272068 2.1530282 -1.2365075 2.3509547e-38
-1.5224347 2.1120551 -1.2574629 2.3509548e-38
-1.5223161 2.1031647 -1.260603 2.3509549e-38
-1.5011843 2.0487733 -1.3111292 2.3509551e-38
-1.4825249 2.0612714 -1.3356073 2.3509552e-38
-1.4776193 2.0643771 -1.3421022 2.3509555e-38
-1.4580946 2.0639269 -1.3722161 2.3509556e-38
-1.4513651 2.0675316 -1.3813444 2.3509558e-38
-1.4442623 2.0667098 -1.3925188 2.3509559e-38
-1.4393115 2.065963 -1.4003645 2.3509561e-38
-1.4398715 2.0450807 -1.4064529 2.3509563e-38
-1.4388086 2.034919 -1.4114647 2.3509565e-38
-1.4390254 2.0078387 -1.4201416 2.3509566e-38
-1.4377182 1.9939499 -1.4267688 2.3509568e-38
-1.4375043 1.9752998 -1.4333014 2.3509569e-38
-1.4377496 1.9570005 -1.4390131 2.350957e-38
-1.4216131 1.9034122 -1.4816062 2.3509573e-38
-1.4246761 1.8937032 -1.4801359 2.3509575e-38
-1.4240619 1.8349378 -1.5006299 2.3509576e-38
-1.4200991 1.8122338 -1.5142647 2.3509577e-38
-1.4205507 1.7871965 -1.5219018 2.3509579e-38
-1.4140996 1.7604318 -1.5407066 2.3509582e-38
-1.413111 1.7525929 -1.5448315 2.3509583e-38
-1.4135368 1.7404623 -1.548214 2.3509584e-38
-1.4125962 1.7161496 -1.5577463 2.3509586e-38
-1.4119321 1.7101946 -1.5607464 2.3509587e-38
-1.4110324 1.7050142 -1.5638506 2.350959e-38
-1.4112393 1.6786005 -1.5723213 2.3509591e-38
-1.4149146 1.6565642 -1.5740122 2.3509593e-38
-1.4126652 1.5845431 -1.6014256 2.3509594e-38
-1.4075022 1.5789675 -1.611204 2.3509596e-38
-1.4081929 1.5713481 -1.612679 2.3509598e-38
-1.4075706 1.5368229 -1.625121 2.35096e-38
-1.4061309 1.5106882 -1.6360252 2.3509601e-38
-1.4043161 1.4799259 -1.6490451 2.3509603e-38
-1.4052037 1.440238 -1.6608866 2.3509604e-38
-1.4040414 1.4343531 -1.6646284 2.3509607e-38
-1.4029168 1.4104717 -1.6743001 2.3509608e-38
-1.401987 1.4030718 -1.6781882 2.350961e-38
-1.3942668 1.3832693 -1.6966242 2.3509611e-38
-1.3968184 1.3690014 -1.6974558 2.3509612e-38
-1.4060588 1.3145726 -1.7013829 2.3509614e-38
-1.4052267 1.2990843 -1.7078133 2.3509617e-38
-1.3895373 1.2612154 -1.7444901 2.3509618e-38
-1.3913609 1.240759 -1.7484974 2.3509619e-38
-1.3944422 1.2132252 -1.752929 2.3509621e-38
-1.390573 1.1909809 -1.7662675 2.3509622e-38
-1.3899153 1.1835982 -1.7697326 2.3509625e-38
-1.3842586 1.156358 -1.7874771 2.3509626e-38
-1.4009534 1.1117941 -1.7766823 2.3509628e-38
-1.4008427 1.0774009 -1.7882951 2.3509629e-38
-1.4000062 1.0676283 -1.7928298 2.3509631e-38
-1.4004025 1.0589119 -1.7951217 2.3509633e-38
-1.4008058 1.0502343 -1.7973901 2.3509635e-38
-1.4009846 1.0366155 -1.8016467 2.3509636e-38
-1.4010469 1.0287654 -1.8041626 2.3509638e-38
-1.3998787 1.0107014 -1.8119651 2.3509639e-38
-1.3901788 0.97497195 -1.8387386 2.3509642e-38
-1.3919922 0.95718753 -1.8418723 2.3509643e-38
-1.3955714 0.9381727 -1.8427058 2.3509645e-38
-1.3919517 0.90067309 -1.8607371 2.3509646e-38
-1.3913289 0.89368135 -1.8640188 2.3509647e-38
-1.3907365 0.86971182 -1.8729028 2.3509649e-38
-1.3875927 0.8517307 -1.8837094 2.3509652e-38
-1.3869699 0.8447389 -1.8869911 2.3509653e-38
-1.3901315 0.82618093 -1.8883133 2.3509654e-38
-1.3901775 0.81143385 -1.8931491 2.3509656e-38
-1.3882443 0.79098791 -1.9029187 2.3509657e-38
-1.38858 0.78347975 -1.9049011 2.350966e-38
-1.3893934 0.76164246 -1.910918 2.3509661e-38
-1.3886201 0.75491738 -1.9143423 2.3509663e-38
-1.3918828 0.73899794 -1.9146321 2.3509664e-38
-1.399155 0.73505718 -1.9047823 2.3509666e-38
-1.4063711 0.73114401 -1.89501 2.3509668e-38
-1.4238657 0.71268559 -1.874302 2.350967e-38
-1.4280576 0.71052045 -1.8685893 2.3509671e-38
-1.4468561 0.71045715 -1.8397613 2.3509673e-38
-1.4512262 0.70829976 -1.8337719 2.3509674e-38
-1.4555967 0.70614237 -1.8277828 2.3509677e-38
-1.457516 0.70554584 -1.8250357 2.3509678e-38
-1.4594917 0.7049216 -1.8222114 2.350968e-38
-1.5043515 0.71779293 -1.7490841 2.3509681e-38
-1.5078312 0.7161898 -1.7442774 2.3509682e-38
-1.5113107 0.71458656 -1.7394704 2.3509685e-38
-1.5250251 0.71391863 -1.7186453 2.3509687e-38
-1.5274854 0.71265465 -1.7152909 2.3509688e-38
-1.5546522 0.655891 -1.6924834 2.3509689e-38
-1.5631483 0.6411314 -1.6843556 2.3509691e-38
-1.5657226 0.64000368 -1.6807797 2.3509692e-38
-1.5699877 0.63780069 -1.6749673 2.3509695e-38
-1.5725211 0.64333069 -1.6692398 2.3509696e-38
-1.5772207 0.6540271 -1.6584684 2.3509698e-38
-1.5791123 0.68839496 -1.6441311 2.3509699e-38
-1.5766011 0.7167328 -1.6385568 2.3509701e-38
-1.5767461 0.72367263 -1.6360258 2.3509703e-38
-1.5782332 0.73512578 -1.6299332 2.3509705e-38
-1.5805532 0.75078601 -1.6211625 2.3509706e-38
-1.5785563 0.77395284 -1.6165195 2.3509708e-38
-1.5785564 0.77726102 -1.6154189 2.3509709e-38
-1.5815871 0.79966724 -1.6033133 2.3509712e-38
-1.5817614 0.80527592 -1.6011796 2.3509713e-38
-1.5829486 0.82283235 -1.5935172 2.3509715e-38
-1.5834059 0.83084875 -1.5901477 2.3509716e-38
-1.5849756 0.84629422 -1.5825995 2.3509717e-38
-1.5849273 0.86191934 -1.5774757 2.350972e-38
-1.5865862 0.87617618 -1.5701865 2.3509722e-38
-1.5875084 0.88495344 -1.5658507 2.3509723e-38
-1.5880156 0.89970624 -1.5601646 2.3509724e-38
-1.5900328 0.91366267 -1.5524253 2.3509726e-38
-1.5902499 0.94089979 -1.5430304 2.3509727e-38
-1.5915333 0.94630206 -1.5392634 2.350973e-38
-1.5922132 0.95285612 -1.5360398 2.3509731e-38
-1.5917929 0.9621197 -1.5336027 2.3509733e-38
-1.5910586 0.98321927 -1.52771 2.3509734e-38
-1.592677 0.99937022 -1.5198526 2.3509736e-38
-1.591969 1.0120649 -1.5167159 2.3509738e-38
-1.5921429 1.0198117 -1.5138716 2.350974e-38
-1.5927572 1.0448015 -1.5046148 2.3509741e-38
-1.5927266 1.0557265 -1.5010271 2.3509743e-38
-1.5934685 1.0639553 -1.4971505 2.3509744e-38
-1.5928891 1.0734646 -1.4948763 2.3509747e-38
-1.5963318 1.1008171 -1.4804925 2.3509748e-38
-1.5974305 1.107111 -1.4767128 2.350975e-38
-1.5960189 1.1213611 -1.4741378 2.3509751e-38
-1.5961044 1.1341108 -1.4697652 2.3509752e-38
-1.5992013 1.1689444 -1.453423 2.3509755e-38
-1.6003281 1.1754007 -1.4495456 2.3509757e-38
-1.6004615 1.1875983 -1.4452828 2.3509758e-38
-1.6022314 1.1994606 -1.4386204 2.3509759e-38
-1.6022608 1.2093885 -1.4352717 2.3509761e-38
-1.603042 1.2271683 -1.4281574 2.3509764e-38
-1.6041764 1.2336663 -1.4242553 2.3509765e-38
-1.6038532 1.2548761 -1.4176946 2.3509767e-38
-1.6049871 1.261374 -1.4137921 2.3509768e-38
-1.6055127 1.2912854 -1.4030343 2.3509769e-38
-1.6066613 1.297866 -1.3990824 2.3509771e-38
-1.6071107 1.3383663 -1.3849177 2.3509774e-38
-1.6045121 1.3558342 -1.3830948 2.3509775e-38
-1.6046325 1.3667343 -1.3792835 2.3509776e-38
-1.6167554 1.4121821 -1.3455588 2.3509778e-38
-1.6119043 1.4363656 -1.3449577 2.3509779e-38
-1.5882952 1.464758 -1.3717432 2.3509782e-38
-1.5797257 1.5081664 -1.3704528 2.3509783e-38
-1.5686486 1.5432805 -1.3757704 2.3509785e-38
-1.5670911 1.5590034 -1.3729295 2.3509786e-38
-1.5643216 1.5677818 -1.3742589 2.3509788e-38
-1.5648743 1.6272498 -1.353626 2.350979e-38
-1.5651342 1.6625535 -1.3414819 2.3509792e-38
-1.5729635 1.6820247 -1.3229886 2.3509793e-38
-1.5743824 1.6846552 -1.3199357 2.3509795e-38
-1.5769051 1.704206 -1.3095597 2.3509796e-38
-1.5843614 1.7252414 -1.2911179 2.3509799e-38
-1.5909933 1.7377214 -1.2767882 2.35098e-38
-1.5938773 1.7505423 -1.2680969 2.3509802e-38
-1.6001346 1.7645806 -1.2538233 2.3509803e-38
-1.6074975 1.7893972 -1.2342675 2.3509804e-38
-1.6039958 1.8265058 -1.2272952 2.3509806e-38
-1.6081653 1.8470169 -1.2140725 2.3509809e-38
-1.6088889 1.8551416 -1.210259 2.350981e-38
-1.6042544 1.8679392 -1.2131138 2.3509811e-38
-1.6007694 1.8839006 -1.2131515 2.3509813e-38
-1.5953788 1.9036167 -1.214865 2.3509814e-38
-1.5908893 1.9184314 -1.2168258 2.3509817e-38
-1.5842423 1.9296328 -1.2233001 2.3509818e-38
-1.5775347 1.9408765 -1.2298535 2.350982e-38
-1.5681169 1.9870129 -1.2289571 2.3509821e-38
-1.566781 2.005568 -1.2248337 2.3509823e-38
-1.5667883 2.0074177 -1.2242074 2.3509825e-38
-1.5640794 2.0180533 -1.2248266 2.3509827e-38
-1.5600445 2.0719473 -1.2130879 2.3509828e-38
-1.5559332 2.0999141 -1.2100931 2.350983e-38
-1.5559274 2.1221981 -1.202688 2.3509831e-38
-1.5567709 2.1309609 -1.1984781 2.3509834e-38
-1.5572547 2.1336987 -1.1968251 2.3509835e-38
-1.5713146 2.1602063 -1.1664284 2.3509837e-38
-1.5741218 2.1760032 -1.1568648 2.3509838e-38
-1.5677105 2.237241 -1.1463302 2.3509839e-38
-1.5404599 1.2963676 -1.5011781 2.3509842e-38
-1.4964057 1.3568102 -1.5486778 2.3509844e-38
-1.4784279 1.3572216 -1.5761306 2.3509845e-38
-1.4404451 1.3383393 -1.6407046 2.3509846e-38
-1.4453619 1.2424394 -1.6650646 2.3509848e-38
-1.4565761 1.2318521 -1.6513766 2.3509849e-38
-1.4658283 1.2251843 -1.639396 2.3509852e-38
-1.4963683 1.2466587 -1.5853825 2.3509853e-38
-1.5322046 1.2409222 -1.532294 2.3509855e-38
-1.5405118 1.2750068 -1.5082054 2.3509856e-38
-1.4698678 1.1868669 -1.6459445 2.3509858e-38
-1.4190402 1.1835711 -1.7250453 2.350986e-38
-1.4184494 1.1788648 -1.7275172 2.3509862e-38
-1.433497 1.1139295 -1.7260282 2.3509863e-38
-1.4459665 1.1035535 -1.7103437 2.3509865e-38
-1.451188 1.1007756 -1.7032542 2.3509866e-38
-1.4555688 1.0986227 -1.6972476 2.3509869e-38
-1.4599528 1.0964675 -1.6912366 2.350987e-38
-1.4660747 1.093878 -1.6827029 2.3509872e-38
-1.4700958 1.0923352 -1.6770457 2.3509873e-38
-1.4744722 1.0901717 -1.6710488 2.3509874e-38
-1.495983 1.077492 -1.6422553 2.3509877e-38
-1.4997417 1.0764529 -1.6368327 2.3509879e-38
-1.5258048 1.092201 -1.5915951 2.350988e-38
-1.5298634 1.123207 -1.5750511 2.3509881e-38
-1.487658 1.1863064 -1.618829 2.3509883e-38
