# .PCD v0.7 - Point Cloud Data file format
VERSION 0.7
FIELDS x y z rgb
SIZE 4 4 4 4
TYPE F F F F
COUNT 1 1 1 1
WIDTH 917
HEIGHT 1
VIEWPOINT 0 0 0 1 0 0 0
POINTS 917
DATA ascii
1.7262501 0.96328497 2.2064826 2.3509528e-38
1.7100817 0.95568311 2.2387769 2.3509528e-38
1.7091718 0.94587684 2.2364604 2.3509528e-38
1.693447 0.89529377 2.2488332 2.3509528e-38
1.6966027 0.89776641 2.2429662 2.350953e-38
1.6997584 0.90023911 2.2370987 2.350953e-38
1.7097881 0.90456527 2.2168944 2.350953e-38
1.7194594 0.89903498 2.193136 2.350953e-38
1.7290378 0.89649576 2.1708996 2.3509531e-38
1.7331944 0.8919372 2.1597271 2.3509531e-38
1.7373506 0.88737881 2.1485553 2.3509531e-38
1.7412685 0.89034498 2.1412251 2.3509532e-38
1.7451866 0.89331108 2.1338949 2.3509532e-38
1.7491043 0.89627719 2.1265647 2.3509532e-38
1.7686939 0.91110778 2.0899143 2.3509532e-38
1.7736204 0.91299558 2.0798852 2.3509534e-38
1.7863147 0.92724752 2.0581808 2.3509534e-38
1.7902598 0.93023425 2.0507998 2.3509534e-38
1.811186 0.90728426 1.9945513 2.3509535e-38
1.8109939 0.89089918 1.9877528 2.3509535e-38
1.8101356 0.88164604 1.9855672 2.3509535e-38
1.8133625 0.86384153 1.9706055 2.3509535e-38
1.8121334 0.84108937 1.9632875 2.3509537e-38
1.8134364 0.8104623 1.9469165 2.3509537e-38
1.8125912 0.80135417 1.9447649 2.3509537e-38
1.8109012 0.78313774 1.9404618 2.3509537e-38
1.8103118 0.76110786 1.9320515 2.3509538e-38
1.8105668 0.74706548 1.925301 2.3509538e-38
1.809728 0.73802811 1.923166 2.3509538e-38
1.8088896 0.72899055 1.9210314 2.3509539e-38
1.8133415 0.70547205 1.9008515 2.3509539e-38
1.8084999 0.67069882 1.8961986 2.3509539e-38
1.8102947 0.62207556 1.8708109 2.3509539e-38
1.8122007 0.60616887 1.8595988 2.3509541e-38
1.8099666 0.57568568 1.851089 2.3509541e-38
1.8065165 0.56107813 1.8522568 2.3509541e-38
1.8062268 0.55270612 1.8492049 2.3509542e-38
1.8063276 0.54248267 1.8444771 2.3509542e-38
1.8059027 0.53188133 1.8407416 2.3509542e-38
1.8094952 0.5199368 1.827557 2.3509542e-38
1.8107747 0.50659233 1.8188545 2.3509544e-38
1.8113188 0.49368125 1.8119649 2.3509544e-38
1.8106388 0.47527045 1.8053488 2.3509544e-38
1.8091272 0.46002698 1.8019624 2.3509544e-38
1.8059654 0.44161296 1.8008178 2.3509545e-38
1.8012685 0.42374012 1.8032956 2.3509545e-38
1.8026266 0.40928566 1.7939306 2.3509545e-38
1.806143 0.39271319 1.7788736 2.3509547e-38
1.8080604 0.37894484 1.7685785 2.3509547e-38
1.8067836 0.32910392 1.7494261 2.3509547e-38
1.8062507 0.32084736 1.7469618 2.3509547e-38
1.8057177 0.31259102 1.7444978 2.3509548e-38
1.8051785 0.27773961 1.7303261 2.3509548e-38
1.8022141 0.25839996 1.7283374 2.3509548e-38
1.7995059 0.22697262 1.7204562 2.3509549e-38
1.8010144 0.2071086 1.7083755 2.3509549e-38
1.8007416 0.1992135 1.7054975 2.3509549e-38
1.8004686 0.19131845 1.7026196 2.3509549e-38
1.8001957 0.18342333 1.6997415 2.3509551e-38
1.8029022 0.1553067 1.6813823 2.3509551e-38
1.8023876 0.14728743 1.6789824 2.3509551e-38
1.8024561 0.12941259 1.6709526 2.3509551e-38
1.800916 0.10544143 1.6637834 2.3509552e-38
1.7989373 0.086340785 1.6597269 2.3509552e-38
1.7984797 0.043622434 1.6419078 2.3509552e-38
1.7987324 0.021278813 1.6315024 2.3509554e-38
1.8044683 0.0044114012 1.6114229 2.3509554e-38
1.8039284 -0.026106095 1.5991633 2.3509554e-38
1.8019961 -0.063946858 1.5867445 2.3509554e-38
1.8012613 -0.071868107 1.5848736 2.3509555e-38
1.8017776 -0.089628473 1.5759073 2.3509555e-38
1.7995881 -0.11323015 1.5703322 2.3509555e-38
1.7981282 -0.1289646 1.5666155 2.3509556e-38
1.7972401 -0.16186602 1.5540727 2.3509556e-38
1.7965152 -0.16967925 1.5522271 2.3509556e-38
1.8009707 -0.19917789 1.5294032 2.3509556e-38
1.7988086 -0.22371453 1.5233552 2.3509558e-38
1.7985969 -0.24764422 1.513275 2.3509558e-38
1.7978864 -0.2553024 1.511466 2.3509558e-38
1.8015463 -0.29204747 1.4872017 2.3509558e-38
1.7974892 -0.31435329 1.4863153 2.3509559e-38
1.8036295 -0.3556681 1.4545695 2.3509559e-38
1.8034565 -0.3651529 1.4507697 2.3509559e-38
1.8027691 -0.37256488 1.4490188 2.3509561e-38
1.8020815 -0.37997681 1.4472681 2.3509561e-38
1.8000247 -0.4148283 1.4364415 2.3509561e-38
1.7998058 -0.43677604 1.4272509 2.3509561e-38
1.8002962 -0.45107585 1.4198666 2.3509562e-38
1.8000348 -0.4574008 1.4176553 2.3509562e-38
1.8001257 -0.47250423 1.4107987 2.3509562e-38
1.7999811 -0.49364945 1.4017974 2.3509563e-38
1.7993066 -0.50091982 1.40008 2.3509563e-38
1.7986321 -0.50819027 1.3983625 2.3509563e-38
1.7979574 -0.51546049 1.3966451 2.3509563e-38
1.7972833 -0.52273101 1.3949279 2.3509565e-38
1.7969863 -0.53555495 1.3899297 2.3509565e-38
1.7981787 -0.56273055 1.3753241 2.3509565e-38
1.7990996 -0.58123285 1.3651384 2.3509565e-38
1.8003616 -0.59457809 1.3564748 2.3509566e-38
1.803241 -0.59465659 1.3500917 2.3509566e-38
1.8064841 -0.59217483 1.3440363 2.3509566e-38
1.8115618 -0.58807713 1.3346478 2.3509568e-38
1.8169124 -0.58385444 1.3247132 2.3509568e-38
1.8247275 -0.57775593 1.3101718 2.3509568e-38
1.8279462 -0.57529438 1.3041611 2.3509568e-38
1.8317668 -0.57236886 1.2970277 2.3509569e-38
1.8466135 -0.57176816 1.2645609 2.3509569e-38
1.8495264 -0.56955558 1.2591151 2.3509569e-38
1.852439 -0.56734282 1.2536687 2.350957e-38
1.8553516 -0.56513017 1.2482226 2.350957e-38
1.8582644 -0.56291753 1.2427765 2.350957e-38
1.8619919 -0.56041688 1.2356617 2.350957e-38
1.8659695 -0.55722982 1.2282972 2.3509572e-38
1.8688978 -0.55500519 1.2228216 2.3509572e-38
1.8718265 -0.55278051 1.2173461 2.3509572e-38
1.8747548 -0.55055583 1.2118703 2.3509572e-38
1.8776834 -0.54833114 1.2063947 2.3509573e-38
1.8806119 -0.5461064 1.200919 2.3509573e-38
1.8835404 -0.54388177 1.1954432 2.3509573e-38
1.8864689 -0.54165703 1.1899675 2.3509575e-38
1.8893974 -0.53943235 1.1844919 2.3509575e-38
1.8923259 -0.53720772 1.1790162 2.3509575e-38
1.8952545 -0.53498304 1.1735404 2.3509575e-38
1.8990409 -0.53192192 1.1665422 2.3509576e-38
1.9019545 -0.529719 1.16109 2.3509576e-38
1.9048679 -0.52751583 1.1556376 2.3509576e-38
1.9069644 -0.52603453 1.1516691 2.3509577e-38
1.9098936 -0.52381957 1.1461874 2.3509577e-38
1.9128231 -0.52160466 1.1407057 2.3509577e-38
1.9165223 -0.51870394 1.1338291 2.3509577e-38
1.9194356 -0.51650077 1.1283767 2.3509579e-38
1.9252628 -0.5120948 1.1174723 2.3509579e-38
1.9274698 -0.5105297 1.1132967 2.3509579e-38
1.9303993 -0.50831473 1.1078149 2.3509579e-38
1.9333284 -0.50609982 1.1023331 2.350958e-38
1.9355987 -0.50448686 1.098039 2.350958e-38
1.938544 -0.50225997 1.0925276 2.350958e-38
1.941489 -0.50003302 1.0870161 2.3509582e-38
1.9444343 -0.49780604 1.0815049 2.3509582e-38
1.9473794 -0.49557909 1.0759934 2.3509582e-38
1.9491643 -0.49443686 1.0725617 2.3509582e-38
1.9521474 -0.4922598 1.0669448 2.3509583e-38
1.9556664 -0.48941687 1.0604401 2.3509583e-38
1.9586273 -0.48717797 1.0548991 2.3509583e-38
1.9615883 -0.4849391 1.0493581 2.3509584e-38
1.9645492 -0.48270017 1.0438172 2.3509584e-38
1.9675102 -0.48046136 1.0382763 2.3509584e-38
1.9704713 -0.47822246 1.0327353 2.3509584e-38
1.9734322 -0.47598359 1.0271944 2.3509586e-38
1.975474 -0.47465757 1.0232779 2.3509586e-38
1.9784679 -0.47239351 1.0176748 2.3509586e-38
1.981462 -0.47012961 1.0120716 2.3509586e-38
1.984066 -0.46826449 1.0071534 2.3509587e-38
1.9870759 -0.46598858 1.0015208 2.3509587e-38
1.990086 -0.46371257 0.99588805 2.3509587e-38
1.9927291 -0.46196061 0.99083269 2.3509589e-38
1.9957557 -0.45966148 0.98517382 2.3509589e-38
1.9987733 -0.45725778 0.97958058 2.3509589e-38
2.0018086 -0.45506322 0.97385603 2.3509589e-38
2.004828 -0.45267954 0.96825022 2.350959e-38
2.0078557 -0.45039058 0.96258515 2.350959e-38
2.0108826 -0.44810143 0.95691985 2.350959e-38
2.0139101 -0.44581231 0.95125461 2.3509591e-38
2.0164971 -0.44425228 0.94623888 2.3509591e-38
2.0197525 -0.441614 0.94022506 2.3509591e-38
2.0226166 -0.43960372 0.93479711 2.3509591e-38
2.0256763 -0.43727934 0.92907608 2.3509593e-38
2.0287359 -0.43495497 0.9233551 2.3509593e-38
2.0316501 -0.43292329 0.91782653 2.3509593e-38
2.0348554 -0.43030632 0.91191322 2.3509593e-38
2.0378041 -0.42824823 0.90631956 2.3509594e-38
2.0408812 -0.42591065 0.90056604 2.3509594e-38
2.0439582 -0.42357317 0.89481264 2.3509594e-38
2.0470355 -0.42123562 0.88905925 2.3509596e-38
2.0501492 -0.41862869 0.88334364 2.3509596e-38
2.0531895 -0.41656059 0.87755239 2.3509596e-38
2.0562701 -0.41400033 0.871889 2.3509596e-38
2.0593362 -0.41179621 0.86610144 2.3509597e-38
2.0624514 -0.40972301 0.86014688 2.3509597e-38
2.0654979 -0.40721038 0.8545385 2.3509597e-38
2.0685699 -0.40481415 0.84882176 2.3509598e-38
2.0716479 -0.40248683 0.84306192 2.3509598e-38
2.0747259 -0.40015957 0.83730227 2.3509598e-38
2.0779316 -0.39796335 0.83120251 2.3509598e-38
2.0811603 -0.39569265 0.8250857 2.35096e-38
2.0842736 -0.39332753 0.81926435 2.35096e-38
2.0875542 -0.39101732 0.81304997 2.35096e-38
2.0906851 -0.388639 0.8071962 2.3509601e-38
2.0938158 -0.38626054 0.80134207 2.3509601e-38
2.0969467 -0.38388216 0.79548818 2.3509601e-38
2.1000776 -0.38150391 0.78963441 2.3509601e-38
2.1034856 -0.37911326 0.78317463 2.3509603e-38
2.1066353 -0.37672052 0.77728516 2.3509603e-38
2.1101005 -0.37428677 0.77071905 2.3509603e-38
2.1129351 -0.37193498 0.76550645 2.3509603e-38
2.1160846 -0.36954221 0.75961703 2.3509604e-38
2.1192346 -0.36714944 0.75372767 2.3509604e-38
2.1223843 -0.36475667 0.74783838 2.3509604e-38
2.1255338 -0.36236387 0.74194878 2.3509605e-38
2.1286838 -0.35997114 0.73605955 2.3509605e-38
2.1318336 -0.3575784 0.73017013 2.3509605e-38
2.1354504 -0.35502943 0.72332025 2.3509605e-38
2.1386189 -0.35262227 0.71739548 2.3509607e-38
2.1417878 -0.35021511 0.71147054 2.3509607e-38
2.1449564 -0.34780785 0.7055456 2.3509607e-38
2.1481254 -0.34540072 0.6996209 2.3509608e-38
2.1518087 -0.34278423 0.69265294 2.3509608e-38
2.1549952 -0.34036395 0.68669581 2.3509608e-38
2.1581812 -0.33794352 0.68073839 2.3509608e-38
2.1613674 -0.33552313 0.67478102 2.350961e-38
2.1651909 -0.3328169 0.66754395 2.350961e-38
2.168396 -0.33038217 0.6615513 2.350961e-38
2.1716011 -0.32794738 0.65555841 2.350961e-38
2.1755009 -0.32518345 0.64817965 2.3509611e-38
2.1787248 -0.32273424 0.64215136 2.3509611e-38
2.1812165 -0.32064304 0.6375801 2.3509611e-38
2.1844215 -0.31820822 0.63158709 2.3509612e-38
2.1876266 -0.31577346 0.62559438 2.3509612e-38
2.1908319 -0.31333864 0.61960155 2.3509612e-38
2.194845 -0.31048822 0.61200988 2.3509612e-38
2.1980691 -0.30803907 0.60598165 2.3509614e-38
2.2012932 -0.30558982 0.59995347 2.3509614e-38
2.2060132 -0.30369309 0.59038329 2.3509614e-38
2.2084532 -0.30183491 0.58582318 2.3509615e-38
2.2108932 -0.2999768 0.58126324 2.3509615e-38
2.2125349 -0.29852685 0.57828337 2.3509615e-38
2.2179403 -0.29354817 0.5685606 2.3509615e-38
2.2216167 -0.29090196 0.56162179 2.3509617e-38
2.2255328 -0.28882778 0.55390286 2.3509617e-38
2.2310781 -0.28365463 0.54395747 2.3509617e-38
2.234051 -0.28139713 0.53839833 2.3509617e-38
2.23803 -0.2785739 0.53087109 2.3509618e-38
2.2432539 -0.27488443 0.52097994 2.3509618e-38
2.2462618 -0.27260086 0.51535589 2.3509618e-38
2.2492666 -0.27031946 0.50973707 2.3509619e-38
2.2522686 -0.26804024 0.50412381 2.3509619e-38
2.2561288 -0.26511055 0.49690446 2.3509619e-38
2.2591276 -0.26283351 0.49129671 2.3509619e-38
2.2638934 -0.26037222 0.48187456 2.3509621e-38
2.2663884 -0.25849447 0.47720212 2.3509621e-38
2.2738731 -0.25286111 0.46318394 2.3509621e-38
2.2763681 -0.25098336 0.45851135 2.3509622e-38
2.2837508 -0.24569273 0.44456723 2.3509622e-38
2.2878799 -0.24148992 0.4373163 2.3509622e-38
2.2909002 -0.23919685 0.4316687 2.3509622e-38
2.2943609 -0.23664325 0.42516521 2.3509624e-38
2.2973824 -0.23434949 0.41951492 2.3509624e-38
2.3053555 -0.22983713 0.40392536 2.3509624e-38
2.3130524 -0.22404438 0.38951057 2.3509624e-38
2.315618 -0.22211349 0.38470572 2.3509625e-38
2.3181834 -0.22018249 0.37990069 2.3509625e-38
2.3276901 -0.21344535 0.36191186 2.3509625e-38
2.3350217 -0.20655128 0.34878677 2.3509626e-38
2.3391988 -0.20352033 0.34091485 2.3509626e-38
2.3448935 -0.20063674 0.3296307 2.3509626e-38
2.3517175 -0.19563998 0.31678888 2.3509626e-38
2.3600519 -0.18800621 0.30177939 2.3509628e-38
2.3642218 -0.18484378 0.29398036 2.3509628e-38
2.3680506 -0.18203619 0.28677666 2.3509628e-38
2.3711426 -0.17969048 0.280994 2.3509629e-38
2.377373 -0.17708704 0.26840639 2.3509629e-38
2.3800724 -0.17503114 0.26336119 2.3509629e-38
2.3866649 -0.17051028 0.25082073 2.3509629e-38
2.393261 -0.16333413 0.23944116 2.3509631e-38
2.3975363 -0.16009313 0.23144437 2.3509631e-38
2.4015653 -0.15714714 0.22386032 2.3509631e-38
2.4055431 -0.1542324 0.21637554 2.3509631e-38
2.4099503 -0.15101923 0.20807564 2.3509632e-38
2.4130862 -0.14864135 0.20221075 2.3509632e-38
2.4209838 -0.14487334 0.18646023 2.3509632e-38
2.4341559 -0.13508137 0.16173619 2.3509633e-38
2.439239 -0.13147001 0.15212174 2.3509633e-38
2.4479756 -0.12275977 0.13670051 2.3509633e-38
2.4511449 -0.12035733 0.13077199 2.3509633e-38
2.4543123 -0.11795677 0.12484811 2.3509635e-38
2.4574769 -0.11555786 0.11892825 2.3509635e-38
2.4665127 -0.11121875 0.10092028 2.3509635e-38
2.4725091 -0.10440819 0.090702161 2.3509636e-38
2.4859397 -0.094597198 0.065417945 2.3509636e-38
2.4944263 -0.090779945 0.04839085 2.3509636e-38
2.4973145 -0.088580154 0.042992417 2.3509636e-38
2.5029981 -0.084531501 0.03224732 2.3509638e-38
2.5059052 -0.082317561 0.026814206 2.3509638e-38
2.5116444 -0.078226291 0.015964124 2.3509638e-38
2.5145702 -0.075998142 0.010496126 2.3509638e-38
2.5174961 -0.073770061 0.0050281803 2.3509639e-38
2.5233099 -0.069622092 -0.0059607704 2.3509639e-38
2.5262544 -0.067379758 -0.011463614 2.3509639e-38
2.532124 -0.063189261 -0.022557134 2.350964e-38
2.5350871 -0.060932681 -0.028094931 2.350964e-38
2.5380502 -0.058676101 -0.033632647 2.350964e-38
2.5410132 -0.056419563 -0.039170403 2.350964e-38
2.5439763 -0.054163028 -0.044708051 2.3509642e-38
2.5534077 -0.047579709 -0.062598817 2.3509642e-38
2.5564108 -0.045292795 -0.068211079 2.3509642e-38
2.5626876 -0.04081206 -0.080074579 2.3509643e-38
2.5657105 -0.038509853 -0.085724317 2.3509643e-38
2.5687335 -0.036207661 -0.09137404 2.3509643e-38
2.5717564 -0.033905514 -0.09702377 2.3509643e-38
2.5747795 -0.031603344 -0.10267338 2.3509645e-38
2.5778022 -0.029301111 -0.10832318 2.3509645e-38
2.5842192 -0.024713941 -0.12044777 2.3509645e-38
2.5872622 -0.022396604 -0.12613468 2.3509645e-38
2.5962033 -0.016329795 -0.14317234 2.3509646e-38
2.597883 -0.014957597 -0.14627016 2.3509646e-38
2.6022553 -0.011720719 -0.15448345 2.3509646e-38
2.6121528 -0.011686994 -0.17628846 2.3509647e-38
2.6140697 -0.010218541 -0.17986725 2.3509647e-38
2.6191058 -0.006685175 -0.1894128 2.3509647e-38
2.6210339 -0.005208279 -0.19301224 2.3509647e-38
2.6229618 -0.0037314591 -0.19661176 2.3509649e-38
2.6248899 -0.0022546502 -0.20021099 2.3509649e-38
2.6268084 -0.00066862814 -0.20374218 2.3509649e-38
2.6321847 0.0029821612 -0.21398604 2.350965e-38
2.634125 0.0044681719 -0.21760778 2.350965e-38
2.6360581 0.0060342634 -0.22117934 2.350965e-38
2.64148 0.0097507751 -0.23149467 2.350965e-38
2.643425 0.011329276 -0.23508668 2.3509652e-38
2.64538 0.012791037 -0.23875174 2.3509652e-38
2.65084 0.016660152 -0.24908395 2.3509652e-38
2.6528068 0.01813107 -0.25277174 2.3509652e-38
2.6585743 0.022213578 -0.26368758 2.3509653e-38
2.6605539 0.023694113 -0.26739952 2.3509653e-38
2.6625338 0.025174646 -0.27111146 2.3509653e-38
2.6680789 0.029107142 -0.28160307 2.3509654e-38
2.6700704 0.030596629 -0.28533745 2.3509654e-38
2.6720624 0.032086115 -0.28907183 2.3509654e-38
2.6740541 0.033575639 -0.29280627 2.3509654e-38
2.6760292 0.035289615 -0.29640588 2.3509656e-38
2.6819417 0.039243698 -0.30769745 2.3509656e-38
2.6839311 0.040952623 -0.3113302 2.3509656e-38
2.6938117 0.047658853 -0.33015659 2.3509657e-38
2.6958423 0.049177304 -0.33396363 2.3509657e-38
2.6978724 0.050695915 -0.33777094 2.3509657e-38
2.7038722 0.054951809 -0.34912157 2.3509657e-38
2.7059155 0.056480035 -0.35295311 2.3509659e-38
2.7119539 0.060764939 -0.36437675 2.3509659e-38
2.7140102 0.062302746 -0.36823234 2.3509659e-38
2.7160666 0.06384059 -0.37208804 2.3509659e-38
2.7224448 0.068363361 -0.3841562 2.350966e-38
2.7245152 0.069911517 -0.38803774 2.350966e-38
2.7330189 0.076023914 -0.40409136 2.350966e-38
2.7352843 0.077470616 -0.40844804 2.3509661e-38
2.7394803 0.080608532 -0.41631523 2.3509661e-38
2.7597494 0.094479218 -0.45488662 2.3509661e-38
2.7619014 0.096127845 -0.45890456 2.3509661e-38
2.7640536 0.097776458 -0.46292251 2.3509663e-38
2.7662055 0.099424958 -0.46694049 2.3509663e-38
2.7731073 0.10427909 -0.48001632 2.3509663e-38
2.775274 0.10593903 -0.48406199 2.3509664e-38
2.7822201 0.11082693 -0.49722025 2.3509664e-38
2.7891955 0.11573762 -0.51043385 2.3509664e-38
2.7935882 0.11910272 -0.51863521 2.3509664e-38
2.7965012 0.12087411 -0.52427578 2.3509666e-38
2.800925 0.12426306 -0.53253561 2.3509666e-38
2.8031373 0.12595753 -0.53666532 2.3509666e-38
2.8105211 0.13115409 -0.5506537 2.3509666e-38
2.8127489 0.13286069 -0.55481285 2.3509667e-38
2.8201799 0.1380932 -0.56888884 2.3509667e-38
2.8279493 0.14355783 -0.58360845 2.3509667e-38
2.8302093 0.14528908 -0.58782792 2.3509668e-38
2.8377197 0.15058239 -0.60205197 2.3509668e-38
2.8455708 0.15611008 -0.61692524 2.3509668e-38
2.8478634 0.15786599 -0.62120467 2.3509668e-38
2.8557644 0.16343172 -0.6361708 2.350967e-38
2.8580735 0.16520032 -0.64048141 2.350967e-38
2.8663373 0.17102475 -0.65613288 2.350967e-38
2.8686645 0.17279945 -0.66048086 2.3509671e-38
2.876981 0.17866166 -0.6762321 2.3509671e-38
2.8793256 0.1804523 -0.68061125 2.3509671e-38
2.8876951 0.18635263 -0.69646192 2.3509671e-38
2.8900564 0.18815883 -0.70087278 2.3509673e-38
2.8924184 0.18996772 -0.70528144 2.3509673e-38
2.9008582 0.19591887 -0.72126466 2.3509673e-38
2.9032371 0.1977414 -0.72570634 2.3509674e-38
2.9117291 0.20373288 -0.74178791 2.3509674e-38
2.9141257 0.20556863 -0.74626207 2.3509674e-38
2.9229944 0.21182124 -0.76305783 2.3509674e-38
2.9322248 0.21831797 -0.7805438 2.3509675e-38
2.9346585 0.22018854 -0.78508526 2.3509675e-38
2.937093 0.22205327 -0.78963017 2.3509675e-38
2.9395275 0.22391801 -0.79417503 2.3509675e-38
2.9485261 0.23027031 -0.81121343 2.3509677e-38
2.950979 0.23214926 -0.81579298 2.3509677e-38
2.9603629 0.23876967 -0.83356279 2.3509677e-38
2.9697852 0.24542452 -0.85140222 2.3509678e-38
2.9795759 0.25246066 -0.86988556 2.3509678e-38
2.98908 0.25904715 -0.88793498 2.3509678e-38
2.9992909 0.2660993 -0.90733707 2.3509678e-38
3.0018406 0.26817289 -0.91204453 2.350968e-38
3.0043902 0.27024627 -0.91675186 2.350968e-38
3.0069454 0.27209711 -0.92156881 2.350968e-38
3.0169189 0.27923799 -0.94040942 2.3509681e-38
3.0194941 0.28111339 -0.94526005 2.3509681e-38
3.0298681 0.28851718 -0.96486789 2.3509681e-38
3.0324643 0.29042438 -0.96975094 2.3509681e-38
3.0429022 0.29786548 -0.98948264 2.3509682e-38
3.0455148 0.29998991 -0.99430561 2.3509682e-38
3.0481334 0.30182147 -0.99927139 2.3509682e-38
3.0589993 0.30964983 -1.0197754 2.3509682e-38
3.0616395 0.31151557 -1.0247744 2.3509684e-38
3.0725718 0.31938165 -1.0454084 2.3509684e-38
3.0752344 0.32127792 -1.0504422 2.3509684e-38
3.0865808 0.32941386 -1.0718709 2.3509685e-38
3.0892661 0.33134729 -1.0769389 2.3509685e-38
3.0919471 0.33342004 -1.0819362 2.3509685e-38
3.10339 0.34148782 -1.1036069 2.3509685e-38
3.1060941 0.34357828 -1.1086473 2.3509687e-38
3.1267643 0.35795709 -1.147879 2.3509687e-38
3.1295142 0.36019322 -1.1529555 2.3509687e-38
3.1322689 0.36222544 -1.1581328 2.3509688e-38
3.13502 0.36435217 -1.1632608 2.3509688e-38
3.1433206 0.38714737 -1.1715136 2.3509688e-38
3.1423876 0.39586723 -1.1656135 2.3509688e-38
3.1365507 0.41026908 -1.1463979 2.3509689e-38
3.1316469 0.41595101 -1.1330826 2.3509689e-38
3.1248772 0.43907249 -1.1079671 2.3509689e-38
3.1190403 0.45347431 -1.0887517 2.3509689e-38
3.1050997 0.47362551 -1.0491369 2.3509691e-38
3.1037483 0.48203841 -1.0424504 2.3509691e-38
3.1010463 0.49886417 -1.0290772 2.3509691e-38
3.0996966 0.50725943 -1.0224013 2.3509692e-38
3.098346 0.51566786 -1.0157174 2.3509692e-38
3.0969951 0.5240764 -1.0090334 2.3509692e-38
3.0956442 0.53248495 -1.0023495 2.3509692e-38
3.0942936 0.54089344 -0.99566567 2.3509694e-38
3.0929427 0.54930204 -0.98898178 2.3509694e-38
3.0915918 0.55771053 -0.98229784 2.3509694e-38
3.0902412 0.56611907 -0.97561377 2.3509695e-38
3.0875397 0.58293605 -0.96224612 2.3509695e-38
3.1207211 0.66059923 -1.0011677 2.3509695e-38
3.1320574 0.65360087 -1.0292439 2.3509695e-38
3.1360567 0.63955146 -1.0442532 2.3509696e-38
3.1375058 0.63202345 -1.0507659 2.3509696e-38
3.1389549 0.62449521 -1.0572786 2.3509696e-38
3.140404 0.61696714 -1.0637913 2.3509696e-38
3.1418529 0.60943919 -1.070304 2.3509698e-38
3.1462004 0.58685493 -1.0898421 2.3509698e-38
3.1501997 0.57280535 -1.1048515 2.3509698e-38
3.1516488 0.56527728 -1.1113641 2.3509699e-38
3.1530979 0.55774903 -1.1178766 2.3509699e-38
3.1545472 0.55022097 -1.1243894 2.3509699e-38
3.1639073 0.5580135 -1.1415898 2.3509699e-38
3.1789181 0.50036752 -1.2000904 2.3509701e-38
3.1910346 0.49201694 -1.2304823 2.3509701e-38
3.2065387 0.47747236 -1.2710731 2.3509701e-38
3.2080228 0.46976191 -1.2777437 2.3509702e-38
3.2269709 0.50175035 -1.305418 2.3509702e-38
3.2555761 0.49616227 -1.3709437 2.3509702e-38
3.2571106 0.48819178 -1.377839 2.3509702e-38
3.2586448 0.48022136 -1.3847345 2.3509703e-38
3.274271 0.47330657 -1.4222322 2.3509703e-38
3.2754471 0.47438151 -1.4243507 2.3509703e-38
3.2868693 0.48236948 -1.4460114 2.3509703e-38
3.3007045 0.49256319 -1.472019 2.3509705e-38
3.3141868 0.49263492 -1.5017109 2.3509705e-38
3.3153934 0.49373803 -1.5038849 2.3509705e-38
3.3166003 0.49484107 -1.5060589 2.3509706e-38
3.3150125 0.50309068 -1.498922 2.3509706e-38
3.3122175 0.51023722 -1.4896109 2.3509706e-38
3.3046587 0.54213297 -1.4588894 2.3509706e-38
3.3030708 0.55038261 -1.4517525 2.3509708e-38
3.3014827 0.55863219 -1.4446155 2.3509708e-38
3.2967186 0.58338112 -1.4232047 2.3509708e-38
3.2939241 0.59052777 -1.4138935 2.3509709e-38
3.2907479 0.60702711 -1.3996198 2.3509709e-38
3.2847774 0.63067305 -1.376035 2.3509709e-38
3.2828081 0.64827532 -1.3639351 2.3509709e-38
3.2812197 0.6565249 -1.3567982 2.350971e-38
3.2796316 0.66477466 -1.3496615 2.350971e-38
3.2780437 0.67302418 -1.3425245 2.350971e-38
3.2760744 0.69062656 -1.3304245 2.350971e-38
3.2744863 0.6988762 -1.3232877 2.3509712e-38
3.2728984 0.70712578 -1.3161508 2.3509712e-38
3.2701039 0.71427244 -1.3068398 2.3509712e-38
3.2685158 0.72252214 -1.2997029 2.3509713e-38
3.2669277 0.73077184 -1.2925658 2.3509713e-38
3.2653396 0.73902142 -1.2854291 2.3509713e-38
3.2625451 0.74616796 -1.276118 2.3509713e-38
3.260957 0.75441772 -1.2689812 2.3509715e-38
3.2593689 0.7626673 -1.2618443 2.3509715e-38
3.257781 0.770917 -1.2547073 2.3509715e-38
3.2561929 0.77916658 -1.2475704 2.3509716e-38
3.2546051 0.78741628 -1.2404335 2.3509716e-38
3.2530169 0.79566592 -1.2332965 2.3509716e-38
3.2514291 0.8039155 -1.2261596 2.3509716e-38
3.249841 0.81216514 -1.2190225 2.3509717e-38
3.2482529 0.82041478 -1.2118857 2.3509717e-38
3.2466648 0.82866448 -1.2047487 2.3509717e-38
3.2450767 0.83691418 -1.1976119 2.3509717e-38
3.2406943 0.8523103 -1.181164 2.3509719e-38
3.2378998 0.85945708 -1.1718531 2.3509719e-38
3.2347236 0.87595636 -1.1575792 2.3509719e-38
3.2343421 0.88530904 -1.1526163 2.350972e-38
3.2327542 0.89355868 -1.1454793 2.350972e-38
3.2311661 0.90180832 -1.1383424 2.350972e-38
3.2295783 0.91005796 -1.1312054 2.350972e-38
3.2267835 0.91720462 -1.1218945 2.3509722e-38
3.2251956 0.9254542 -1.1147574 2.3509722e-38
3.2236075 0.93370378 -1.1076205 2.3509722e-38
3.2220194 0.94195348 -1.1004837 2.3509723e-38
3.2204313 0.95020324 -1.0933468 2.3509723e-38
3.218462 0.9678055 -1.0812469 2.3509723e-38
3.2168741 0.97605515 -1.07411 2.3509723e-38
3.215286 0.98430479 -1.0669732 2.3509724e-38
3.2096968 0.99859792 -1.0483513 2.3509724e-38
3.2081087 1.0068475 -1.0412143 2.3509724e-38
3.2065206 1.0150973 -1.0340774 2.3509724e-38
3.2049327 1.0233469 -1.0269403 2.3509726e-38
3.2029631 1.0409491 -1.0148406 2.3509726e-38
3.2001686 1.0480958 -1.0055296 2.3509726e-38
3.1985805 1.0563453 -0.99839264 2.3509727e-38
3.1969924 1.0645951 -0.99125582 2.3509727e-38
3.1926098 1.0799913 -0.97480786 2.3509727e-38
3.174268 1.0982416 -0.92632771 2.3509727e-38
3.172694 1.1064193 -0.91925299 2.3509729e-38
3.1711195 1.1145971 -0.91217828 2.3509729e-38
3.1695454 1.122775 -0.90510356 2.3509729e-38
3.1679714 1.1309527 -0.89802867 2.350973e-38
3.1648228 1.1473082 -0.8838793 2.350973e-38
3.1699963 1.2048391 -0.86992788 2.350973e-38
3.1672015 1.2119857 -0.86061704 2.350973e-38
3.1656134 1.2202352 -0.85348016 2.3509731e-38
3.1624374 1.2367346 -0.83920628 2.3509731e-38
3.1608493 1.2449843 -0.8320694 2.3509731e-38
3.1592615 1.2532339 -0.82493246 2.3509731e-38
3.1576734 1.2614837 -0.81779557 2.3509733e-38
3.1580939 1.288406 -0.80685604 2.3509733e-38
3.1582489 1.299319 -0.80238807 2.3509733e-38
3.1566551 1.3075407 -0.79525065 2.3509734e-38
3.155061 1.3157623 -0.78811347 2.3509734e-38
3.1534677 1.3239838 -0.780976 2.3509734e-38
3.1518736 1.3322053 -0.77383876 2.3509734e-38
3.1470919 1.3568698 -0.75242686 2.3509736e-38
3.1454985 1.3650913 -0.74528939 2.3509736e-38
3.1439044 1.3733128 -0.73815215 2.3509736e-38
3.1423106 1.3815345 -0.73101479 2.3509737e-38
3.1407168 1.389756 -0.72387743 2.3509737e-38
3.1392779 1.4088905 -0.71227193 2.3509737e-38
3.1376841 1.417112 -0.70513469 2.3509737e-38
3.1360905 1.4253334 -0.69799751 2.3509738e-38
3.1311541 1.439085 -0.68105364 2.3509738e-38
3.1295602 1.4473065 -0.67391616 2.3509738e-38
3.1279664 1.4555283 -0.66677892 2.3509738e-38
3.1246238 1.4610581 -0.65697229 2.350974e-38
3.11498 1.4462118 -0.64225531 2.350974e-38
3.1056697 1.4318789 -0.62804741 2.350974e-38
3.0815675 1.3947723 -0.59126669 2.3509741e-38
3.0660005 1.3708103 -0.56750882 2.3509741e-38
3.0643389 1.3682532 -0.564973 2.3509741e-38
3.0488076 1.3343649 -0.54566818 2.3509741e-38
3.0359688 1.3140349 -0.52632433 2.3509743e-38
3.0314114 1.3105887 -0.51779562 2.3509743e-38
3.0226612 1.2949083 -0.50541633 2.3509743e-38
3.0161378 1.2846878 -0.49553931 2.3509744e-38
3.0101144 1.2774451 -0.4854522 2.3509744e-38
3.0055947 1.2740276 -0.47699428 2.3509744e-38
2.9954977 1.2631898 -0.45951116 2.3509744e-38
2.9909275 1.2595016 -0.45106155 2.3509745e-38
2.9822094 1.252295 -0.43501803 2.3509745e-38
2.9777133 1.2486666 -0.42670554 2.3509745e-38
2.9670441 1.2355472 -0.40896657 2.3509747e-38
2.9663024 1.2349895 -0.40757734 2.3509747e-38
2.9625838 1.2319475 -0.40071976 2.3509747e-38
2.9509664 1.2179736 -0.3812663 2.3509747e-38
2.9464703 1.2143453 -0.37295389 2.3509748e-38
2.9358211 1.2103494 -0.35123813 2.3509748e-38
2.9313607 1.2067496 -0.34299099 2.3509748e-38
2.9269001 1.20315 -0.33474416 2.3509748e-38
2.9170315 1.199681 -0.31451693 2.350975e-38
2.9090583 1.1887512 -0.30175632 2.350975e-38
2.891443 1.1654997 -0.27316967 2.350975e-38
2.8788552 1.1641554 -0.24601129 2.3509751e-38
2.877835 1.1635534 -0.24402787 2.3509751e-38
2.8733747 1.1599538 -0.23578084 2.3509751e-38
2.8692505 1.1552064 -0.22878158 2.3509751e-38
2.8592358 1.1439677 -0.21165563 2.3509752e-38
2.854429 1.1399502 -0.20283036 2.3509752e-38
2.8500059 1.1363803 -0.19465181 2.3509752e-38
2.8455408 1.1339155 -0.18589485 2.3509754e-38
2.8412588 1.130165 -0.17810722 2.3509754e-38
2.831568 1.126088 -0.15854019 2.3509754e-38
2.8236027 1.1233447 -0.14218879 2.3509754e-38
2.817296 1.1174622 -0.13087767 2.3509755e-38
2.8127639 1.1138402 -0.12248321 2.3509755e-38
2.8012347 1.1063014 -0.10038807 2.3509755e-38
2.796093 1.100895 -0.091435529 2.3509755e-38
2.7891657 1.0937715 -0.079304576 2.3509757e-38
2.7854142 1.0903561 -0.072538197 2.3509757e-38
2.7762003 1.0862515 -0.054034702 2.3509757e-38
2.7616727 1.0829889 -0.023445792 2.3509758e-38
2.7431993 1.0961323 0.023074131 2.3509758e-38
2.7443714 1.1505567 0.044477548 2.3509758e-38
2.7532141 1.1729627 0.034857545 2.3509758e-38
2.7678411 1.1922486 0.011111639 2.3509759e-38
2.7757621 1.2170386 0.004575341 2.3509759e-38
2.7647691 1.2176598 0.029084243 2.3509759e-38
2.7549822 1.2013587 0.043475434 2.3509761e-38
2.751518 1.1978716 0.049576264 2.3509761e-38
2.7348263 1.170418 0.074273698 2.3509761e-38
2.7288644 1.1623209 0.083848722 2.3509761e-38
2.7246451 1.148084 0.086875714 2.3509762e-38
2.7186949 1.1318878 0.092855722 2.3509762e-38
2.7044535 1.111135 0.11510491 2.3509762e-38
2.6724217 1.1216875 0.19037291 2.3509762e-38
2.6720593 1.1301287 0.19489264 2.3509764e-38
2.6753399 1.1602926 0.20095482 2.3509764e-38
2.6759007 1.1677296 0.20299664 2.3509764e-38
2.6788523 1.1893307 0.20600973 2.3509765e-38
2.6805954 1.2215359 0.21636164 2.3509765e-38
2.6795754 1.2300419 0.22235906 2.3509765e-38
2.6785555 1.2385478 0.22835653 2.3509765e-38
2.6775358 1.2470536 0.23435396 2.3509767e-38
2.6773663 1.2725141 0.24594866 2.3509767e-38
2.6784437 1.2804292 0.24706271 2.3509767e-38
2.683233 1.3071358 0.2482743 2.3509768e-38
2.6844919 1.3165869 0.24966505 2.3509768e-38
2.6946642 1.3817968 0.25597966 2.3509768e-38
2.6980789 1.4060673 0.25914925 2.3509768e-38
2.7095451 1.4453315 0.25117603 2.3509769e-38
2.7171359 1.4616774 0.24164566 2.3509769e-38
2.7236125 1.4754733 0.23344776 2.3509769e-38
2.7395823 1.5161561 0.21617204 2.3509769e-38
2.7456813 1.5285302 0.20818016 2.3509771e-38
2.7585607 1.5662771 0.19642295 2.3509771e-38
2.7649865 1.5797976 0.18821536 2.3509771e-38
2.7822838 1.6242547 0.16967669 2.3509772e-38
2.7954566 1.6631705 0.15778805 2.3509772e-38
2.7950766 1.672287 0.16264312 2.3509772e-38
2.7925835 1.7262621 0.19192873 2.3509772e-38
2.7939856 1.7367793 0.19347385 2.3509774e-38
2.792635 1.7451876 0.20015775 2.3509774e-38
2.7885313 1.7514877 0.21198061 2.3509774e-38
2.7782536 1.7392799 0.22925803 2.3509775e-38
2.7755251 1.7371897 0.23435248 2.3509775e-38
2.7561336 1.7276509 0.27289858 2.3509775e-38
2.7450194 1.7241361 0.29585132 2.3509775e-38
2.742337 1.7220812 0.30085966 2.3509776e-38
2.7201595 1.71883 0.34831861 2.3509776e-38
2.7154436 1.7152475 0.35713637 2.3509776e-38
2.7107277 1.711665 0.36595413 2.3509776e-38
2.6965799 1.7009172 0.39240783 2.3509778e-38
2.677716 1.6865845 0.4276773 2.3509778e-38
2.6682637 1.6793981 0.44534895 2.3509778e-38
2.6635563 1.6758261 0.45415172 2.3509779e-38
2.6446319 1.6753085 0.4956449 2.3509779e-38
2.629108 1.6637248 0.524764 2.3509779e-38
2.6159403 1.658209 0.55136108 2.3509779e-38
2.6053429 1.6549835 0.57330287 2.3509781e-38
2.5960109 1.6479017 0.59075528 2.3509781e-38
2.5913451 1.6443608 0.59948117 2.3509781e-38
2.5784333 1.6246705 0.6192674 2.3509782e-38
2.5588546 1.5914114 0.64777213 2.3509782e-38
2.544889 1.5779145 0.67261088 2.3509782e-38
2.5419676 1.5765082 0.67843199 2.3509782e-38
2.5320284 1.577559 0.70080626 2.3509783e-38
2.5149915 1.5701145 0.73508579 2.3509783e-38
2.5034263 1.5728415 0.76178378 2.3509783e-38
2.4948313 1.5618774 0.77589989 2.3509783e-38
2.4863181 1.5508276 0.7897982 2.3509785e-38
2.4818361 1.5474387 0.79818505 2.3509785e-38
2.4719145 1.5398232 0.81670183 2.3509785e-38
2.4632022 1.53785 0.83503902 2.3509786e-38
2.4549549 1.5269985 0.84843862 2.3509786e-38
2.4291513 1.5032288 0.89484876 2.3509786e-38
2.4019713 1.4471916 0.93007135 2.3509786e-38
2.3813615 1.4626822 0.98233539 2.3509788e-38
2.3769014 1.4593058 0.99067968 2.3509788e-38
2.3669631 1.4559138 1.0110949 2.3509788e-38
2.3625062 1.4525589 1.019441 2.3509789e-38
2.3411031 1.4023896 1.044515 2.3509789e-38
2.3346181 1.3972318 1.0565382 2.3509789e-38
2.3266051 1.3911769 1.0715356 2.3509789e-38
2.3229547 1.3876759 1.0780395 2.350979e-38
2.313041 1.3826293 1.0976713 2.350979e-38
2.3053417 1.3743908 1.111014 2.350979e-38
2.2996948 1.3712132 1.1220616 2.350979e-38
2.2967262 1.3683004 1.1273229 2.3509792e-38
2.2915013 1.3644135 1.1371286 2.3509792e-38
2.2873862 1.3613508 1.1448509 2.3509792e-38
2.2843328 1.3586462 1.1503909 2.3509793e-38
2.2709777 1.3463067 1.1743939 2.3509793e-38
2.2598882 1.3391047 1.1956677 2.3509793e-38
2.248451 1.3294505 1.2166274 2.3509793e-38
2.2407396 1.3245299 1.231459 2.3509795e-38
2.2135787 1.3322953 1.2947608 2.3509795e-38
2.2053323 1.3230133 1.3088497 2.3509795e-38
2.2007806 1.3178306 1.3165997 2.3509796e-38
2.1862302 1.3063946 1.3436372 2.3509796e-38
2.1913774 1.2822281 1.3216381 2.3509796e-38
2.1921477 1.2684972 1.3138888 2.3509796e-38
2.1914835 1.256629 1.3101223 2.3509797e-38
2.1907735 1.2442328 1.3062233 2.3509797e-38
2.1909366 1.2259998 1.2978286 2.3509797e-38
2.1910892 1.2078667 1.2894988 2.3509797e-38
2.1936381 1.1884229 1.2753102 2.3509799e-38
2.1931608 1.1738906 1.2699573 2.3509799e-38
2.1905897 1.1577673 1.2685192 2.3509799e-38
2.1736183 1.1097918 1.2847896 2.35098e-38
2.1684248 1.095076 1.2897526 2.35098e-38
2.1549993 1.0566319 1.3024073 2.35098e-38
2.140975 1.0438901 1.327709 2.35098e-38
2.1242466 1.0283374 1.3577328 2.3509802e-38
2.0982895 1.00853 1.4062279 2.3509802e-38
2.0898745 1.0126115 1.4265785 2.3509802e-38
2.0857463 1.0177807 1.4379576 2.3509803e-38
2.0611587 1.0306804 1.4978496 2.3509803e-38
2.0566456 1.0540388 1.5180935 2.3509803e-38
2.0571861 1.0753263 1.5262847 2.3509803e-38
2.0590751 1.0942179 1.5304468 2.3509804e-38
2.0637732 1.144861 1.5424094 2.3509804e-38
2.0680537 1.1677243 1.5430499 2.3509804e-38
2.0688429 1.1762289 1.5450588 2.3509804e-38
2.0659311 1.1818686 1.553964 2.3509806e-38
2.0598989 1.2146657 1.5817175 2.3509806e-38
2.0557685 1.2164115 1.5915928 2.3509806e-38
2.019937 1.1805478 1.6547801 2.3509807e-38
2.0154958 1.1771617 1.6630787 2.3509807e-38
2.0110548 1.1737756 1.6713767 2.3509807e-38
2.0066137 1.1703897 1.6796751 2.3509807e-38
1.9977316 1.1636174 1.6962714 2.3509809e-38
1.9932907 1.1602312 1.7045699 2.3509809e-38
1.9888496 1.1568451 1.7128681 2.3509809e-38
1.9844085 1.153459 1.7211665 2.350981e-38
1.9698721 1.1082014 1.7332665 2.350981e-38
1.958519 1.0963998 1.7530932 2.350981e-38
1.9473715 1.0949043 1.7770098 2.350981e-38
1.9440395 1.087392 1.7810452 2.3509811e-38
1.9318177 1.0703657 1.800485 2.3509811e-38
1.9008991 1.0518669 1.8604944 2.3509811e-38
1.8775514 1.0631775 1.9169515 2.3509811e-38
1.845991 1.0602826 1.9852538 2.3509813e-38
1.8172948 1.0261313 2.0334647 2.3509813e-38
1.7954037 0.95444417 2.0501299 2.3509813e-38
1.7855945 0.9499777 2.0697873 2.3509814e-38
1.7816492 0.94699115 2.077168 2.3509814e-38
1.7615294 0.99920648 2.1445377 2.3509814e-38
1.7532091 0.99276555 2.160042 2.3509814e-38
1.7390451 0.97311562 2.1826077 2.3509816e-38
1.7347798 0.9698388 2.1905658 2.3509816e-38
1.7305149 0.96656197 2.1985242 2.3509816e-38
2.1053858 0.90233308 1.343778 2.3509817e-38
2.115021 0.910734 1.3262385 2.3509817e-38
2.1277499 0.9134109 1.2993565 2.3509817e-38
2.1446817 0.93653935 1.2722226 2.3509817e-38
2.1548328 0.94553328 1.2538068 2.3509818e-38
2.1651168 0.95453262 1.2351016 2.3509818e-38
2.1782684 0.95729822 1.2073268 2.3509818e-38
2.1813934 0.95965528 1.2014762 2.350982e-38
2.1881156 0.97302771 1.1925504 2.350982e-38
2.2108655 0.99415249 1.1517063 2.350982e-38
2.2218864 1.0037695 1.1316493 2.350982e-38
2.2296951 1.0180362 1.1207221 2.3509821e-38
2.24616 1.0332866 1.0911447 2.3509821e-38
2.2493751 1.0356783 1.085111 2.3509821e-38
2.2525899 1.03807 1.0790774 2.3509821e-38
2.255805 1.0404618 1.0730438 2.3509823e-38
2.267699 1.0493861 1.0507557 2.3509823e-38
2.2747467 1.0485841 1.0348657 2.3509823e-38
2.2779844 1.0509927 1.0287893 2.3509824e-38
2.2812223 1.0534015 1.0227128 2.3509824e-38
2.2964497 1.066184 0.99477577 2.3509824e-38
2.3021116 1.0722719 0.98497635 2.3509824e-38
2.3251915 1.0740238 0.9348672 2.3509825e-38
2.3284905 1.0708026 0.92617488 2.3509825e-38
2.336309 1.0930365 0.91873801 2.3509825e-38
2.3688867 1.1301441 0.86327183 2.3509827e-38
2.3791072 1.1377473 0.84409148 2.3509827e-38
2.3899717 1.1575817 0.82888091 2.3509827e-38
2.3956501 1.1643597 0.8193503 2.3509827e-38
2.4030066 1.1835476 0.81158924 2.3509828e-38
2.437253 1.1759882 0.73275805 2.3509828e-38
2.4352639 1.1165578 0.710949 2.3509828e-38
2.4311376 1.09956 0.71255392 2.3509828e-38
2.4270074 1.0789555 0.71257836 2.350983e-38
2.4235511 1.0600766 0.71187782 2.350983e-38
2.4196019 1.0397581 0.71162856 2.350983e-38
2.4203906 1.0253881 0.70355546 2.3509831e-38
2.4215026 1.0069373 0.69297266 2.3509831e-38
2.4157162 0.96523976 0.68735111 2.3509831e-38
2.3967679 0.90327144 0.70181197 2.3509831e-38
2.3947341 0.8966161 0.70336211 2.3509832e-38
2.3856587 0.87620801 0.7143755 2.3509832e-38
2.3774798 0.85196149 0.7217198 2.3509832e-38
2.3705046 0.83107877 0.72789258 2.3509834e-38
2.3634634 0.80366236 0.73133272 2.3509834e-38
2.3585882 0.79161876 0.736772 2.3509834e-38
2.3564885 0.78207159 0.73719412 2.3509834e-38
2.3436813 0.74491316 0.74905008 2.3509835e-38
2.3232446 0.73003733 0.78754836 2.3509835e-38
2.3192811 0.72701985 0.79495662 2.3509835e-38
2.3153174 0.72400224 0.80236501 2.3509835e-38
2.3029482 0.70126206 0.81961185 2.3509837e-38
2.3014376 0.69947869 0.82215548 2.3509837e-38
2.2980163 0.69393569 0.82725507 2.3509837e-38
2.2885866 0.68108755 0.84238076 2.3509838e-38
2.2746527 0.6650086 0.86601287 2.3509838e-38
2.2696831 0.64984381 0.8702848 2.3509838e-38
2.2696626 0.63090599 0.86198354 2.3509838e-38
2.2548685 0.56420344 0.86519957 2.3509839e-38
2.2302427 0.52124119 0.90055382 2.3509839e-38
2.222717 0.51552397 0.91462576 2.3509839e-38
2.2115703 0.50403929 0.93413764 2.3509841e-38
2.1994061 0.48956662 0.9545759 2.3509841e-38
2.1922448 0.48199371 0.96702611 2.3509841e-38
2.1884172 0.47908041 0.97418028 2.3509841e-38
2.1663716 0.50125188 1.0325536 2.3509842e-38
2.1677678 0.52673286 1.0407062 2.3509842e-38
2.1692479 0.54101008 1.0437361 2.3509842e-38
2.1685958 0.5471009 1.0478582 2.3509842e-38
2.1655595 0.56572294 1.0627596 2.3509844e-38
2.1643977 0.58112377 1.0721086 2.3509844e-38
2.1582007 0.57099837 1.081308 2.3509844e-38
2.1323123 0.56477594 1.1356387 2.3509845e-38
2.1295865 0.56839424 1.143243 2.3509845e-38
2.1239121 0.5715124 1.1571268 2.3509845e-38
2.1107192 0.562204 1.1821089 2.3509845e-38
2.1051271 0.55642372 1.1918896 2.3509846e-38
2.104933 0.54868156 1.1889057 2.3509846e-38
2.0962512 0.46690479 1.1720023 2.3509846e-38
2.0720451 0.43965241 1.2133557 2.3509848e-38
2.0687175 0.4370957 1.219565 2.3509848e-38
2.0628309 0.43468702 1.2314807 2.3509848e-38
2.0353577 0.4221153 1.2865071 2.3509848e-38
2.0319862 0.419525 1.292798 2.3509849e-38
1.9995054 0.39923397 1.3554621 2.3509849e-38
1.9789592 0.42970356 1.4141871 2.3509849e-38
1.9752412 0.44632202 1.4297092 2.3509849e-38
1.9688369 0.43172926 1.4373956 2.3509851e-38
1.9644334 0.42354247 1.4434958 2.3509851e-38
1.9614668 0.41720456 1.447242 2.3509851e-38
1.9220247 0.40799215 1.5301362 2.3509852e-38
1.9227486 0.34269053 1.4997585 2.3509852e-38
1.961004 0.3984395 1.4399923 2.3509852e-38
1.9614065 0.40624401 1.442544 2.3509852e-38
2.0468214 0.87504286 1.4608603 2.3509853e-38
2.0621054 0.89064622 1.4340425 2.3509853e-38
2.0736849 0.90601152 1.4152868 2.3509853e-38
2.088403 0.91187036 1.3854215 2.3509855e-38
1.8936092 0.76221967 1.7489048 2.3509855e-38
1.9045339 0.76714045 1.7269889 2.3509855e-38
1.9128394 0.77256644 1.7110704 2.3509855e-38
1.9285889 0.77361828 1.676813 2.3509856e-38
1.9432868 0.78937256 1.6513532 2.3509856e-38
1.9504983 0.79915965 1.6397685 2.3509856e-38
1.9571778 0.81317055 1.6312183 2.3509856e-38
1.9800562 0.82456201 1.5858016 2.3509858e-38
1.9839742 0.82752812 1.5784714 2.3509858e-38
1.9968027 0.83156163 1.5519673 2.3509858e-38
2.0048149 0.84548569 1.5404406 2.3509859e-38
2.014684 0.85962462 1.5249149 2.3509859e-38
2.0250497 0.86860019 1.5060184 2.3509859e-38
2.0343664 0.86826319 1.4853308 2.3509859e-38
1.8659387 0.51037377 1.6989067 2.350986e-38
1.8615448 0.54194862 1.7225103 2.350986e-38
1.8582462 0.5550707 1.735566 2.350986e-38
1.8559054 0.56898272 1.7468581 2.3509862e-38
1.8528523 0.5744921 1.7560172 2.3509862e-38
1.8490537 0.59595174 1.7738495 2.3509862e-38
1.8455244 0.63643658 1.7994736 2.3509862e-38
1.8450961 0.68133652 1.8202076 2.3509863e-38
1.8766514 0.7584427 1.7846253 2.3509863e-38
1.8818718 0.76087493 1.774189 2.3509863e-38
1.8923342 0.76272053 1.7519364 2.3509863e-38
1.876753 0.46389359 1.6545794 2.3509865e-38
1.8777798 0.45525157 1.6485072 2.3509865e-38
1.8794167 0.43486729 1.6359144 2.3509865e-38
1.8871155 0.41390589 1.6097032 2.3509866e-38
1.9067956 0.40222976 1.5611701 2.3509866e-38
1.9104985 0.40500697 1.5542306 2.3509866e-38
1.9142026 0.40778524 1.5472885 2.3509866e-38
1.9198275 0.4104988 1.5360842 2.3509867e-38
1.8744905 0.47735772 1.6655017 2.3509867e-38
1.8682673 0.48944059 1.6845471 2.3509867e-38
3.0453594 0.73004639 -0.80441707 2.3509869e-38
3.0399561 0.76368058 -0.77768147 2.3509869e-38
3.0386055 0.772089 -0.77099752 2.3509869e-38
3.0331514 0.78679752 -0.75249064 2.3509869e-38
3.029048 0.79309732 -0.7406674 2.350987e-38
3.0222468 0.84658813 -0.70209801 2.350987e-38
3.0218937 0.85509014 -0.69757205 2.350987e-38
3.0215402 0.86359221 -0.69304609 2.350987e-38
3.0211871 0.87209409 -0.6885199 2.3509872e-38
3.0208337 0.88059616 -0.68399417 2.3509872e-38
3.0270748 0.92465711 -0.6783337 2.3509872e-38
3.0697453 0.97730827 -0.74919844 2.3509873e-38
3.0711944 0.96978027 -0.7557112 2.3509873e-38
3.0726435 0.96225214 -0.76222384 2.3509873e-38
3.0755417 0.94719607 -0.77524918 2.3509873e-38
3.0769908 0.939668 -0.78176188 2.3509874e-38
3.07844 0.93213993 -0.78827459 2.3509874e-38
3.0813382 0.9170838 -0.80130005 2.3509874e-38
3.0827873 0.90955567 -0.80781281 2.3509876e-38
3.0842366 0.90202755 -0.81432533 2.3509876e-38
3.0819111 0.86221522 -0.82674569 2.3509876e-38
3.0833485 0.85474807 -0.83320588 2.3509876e-38
3.0847857 0.84728074 -0.83966595 2.3509877e-38
3.0862234 0.83981353 -0.84612608 2.3509877e-38
3.0876608 0.8323462 -0.85258603 2.3509877e-38
3.0919728 0.80994457 -0.8719663 2.3509877e-38
3.0977225 0.78007555 -0.89780664 2.3509879e-38
3.09916 0.77260816 -0.90426672 2.3509879e-38
3.1005971 0.76514095 -0.91072679 2.3509879e-38
3.1020348 0.75767374 -0.91718686 2.350988e-38
3.103472 0.75020647 -0.92364687 2.350988e-38
3.1049097 0.74273908 -0.93010688 2.350988e-38
3.1120965 0.70540285 -0.96240723 2.350988e-38
3.113534 0.69793564 -0.96886742 2.3509881e-38
3.1149714 0.69046837 -0.97532749 2.3509881e-38
3.1178463 0.67553389 -0.98824751 2.3509881e-38
3.0779819 0.60394448 -0.93191618 2.3509883e-38
3.071177 0.62706143 -0.90672523 2.3509883e-38
3.0643723 0.65017837 -0.88153446 2.3509883e-38
3.0630214 0.65858692 -0.87485063 2.3509883e-38
3.0575674 0.67329544 -0.85634369 2.3509884e-38
3.0549171 0.70903796 -0.83474696 2.3509884e-38
3.0494628 0.72374648 -0.81624013 2.3509884e-38
