# .PCD v0.7 - Point Cloud Data file format
VERSION 0.7
FIELDS x y z rgb
SIZE 4 4 4 4
TYPE F F F F
COUNT 1 1 1 1
WIDTH 1059
HEIGHT 1
VIEWPOINT 0 0 0 1 0 0 0
POINTS 1059
DATA ascii
-1.4145744 0.7762211 2.5857294 2.3509547e-38
-1.4003118 0.76933676 2.6020496 2.3509547e-38
-1.391925 0.7665382 2.6086745 2.3509547e-38
-1.3835378 0.76373959 2.6152995 2.3509548e-38
-1.3692752 0.75685519 2.6316197 2.3509548e-38
-1.3608882 0.75405657 2.6382446 2.3509548e-38
-1.3466256 0.74717224 2.6545649 2.3509548e-38
-1.3210664 0.73787177 2.6765897 2.3509548e-38
-1.3021792 0.7344662 2.6846194 2.3509548e-38
-1.2937922 0.73166746 2.6912444 2.3509548e-38
-1.2770183 0.72607023 2.7044945 2.3509549e-38
-1.2518573 0.71767426 2.7243693 2.3509549e-38
-1.215798 0.70776689 2.7477989 2.3509549e-38
-1.2074109 0.70496815 2.7544239 2.3509549e-38
-1.177844 0.70849299 2.7459319 2.3509549e-38
-1.1572459 0.7145412 2.731472 2.3509549e-38
-1.0959632 0.70697755 2.7492344 2.3509549e-38
-1.0853425 0.70550448 2.7526987 2.3509551e-38
-1.027463 0.69696993 2.7727828 2.3509551e-38
-1.0148921 0.69081289 2.7873793 2.3509551e-38
-0.99938411 0.68924057 2.7910616 2.3509551e-38
-0.99125272 0.68859482 2.7925675 2.3509551e-38
-0.98904765 0.68845117 2.7929013 2.3509551e-38
-0.90867794 0.67862171 2.8159819 2.3509551e-38
-0.83735967 0.66876584 2.839159 2.3509552e-38
-0.82761919 0.66834778 2.8401172 2.3509552e-38
-0.78747702 0.6492151 2.8854721 2.3509552e-38
-0.77679938 0.64920092 2.8854661 2.3509552e-38
-0.77146035 0.64919376 2.8854632 2.3509552e-38
-0.7607826 0.64917994 2.8854573 2.3509552e-38
-0.75009793 0.64836359 2.8873591 2.3509554e-38
-0.71352094 0.63778687 2.9123785 2.3509554e-38
-0.69250441 0.62800485 2.9355652 2.3509554e-38
-0.68706596 0.62718165 2.9375029 2.3509554e-38
-0.6436215 0.61651248 2.9627171 2.3509554e-38
-0.63814384 0.61650521 2.962714 2.3509554e-38
-0.59401935 0.60546601 2.9888058 2.3509554e-38
-0.57744896 0.60627425 2.9868221 2.3509555e-38
-0.57192302 0.60626709 2.986819 2.3509555e-38
-0.56639707 0.60625964 2.9868162 2.3509555e-38
-0.56087124 0.60625249 2.9868131 2.3509555e-38
-0.54430068 0.60706079 2.9848294 2.3509555e-38
-0.53877479 0.60705358 2.9848263 2.3509555e-38
-0.48938265 0.59298491 3.0181031 2.3509555e-38
-0.48167032 0.59041154 3.0241952 2.3509556e-38
-0.47395784 0.58783776 3.0302875 2.3509556e-38
-0.46624535 0.58526421 3.0363796 2.3509556e-38
-0.4264268 0.59219617 3.0197473 2.3509556e-38
-0.38404188 0.60601962 2.9867151 2.3509556e-38
-0.36747152 0.60682815 2.9847314 2.3509556e-38
-0.36194557 0.60682082 2.9847286 2.3509556e-38
-0.35641959 0.60681355 2.9847255 2.3509558e-38
-0.35089368 0.60680622 2.9847224 2.3509558e-38
-0.31984201 0.60211152 2.9957733 2.3509558e-38
-0.29386097 0.59858292 3.0040698 2.3509558e-38
-0.27729768 0.59307259 3.0171134 2.3509558e-38
-0.24793246 0.58634967 3.0329936 2.3509558e-38
-0.20701578 0.57915628 3.0499511 2.3509558e-38
-0.17797281 0.57361519 3.0630221 2.3509559e-38
-0.14848985 0.56776434 3.0768282 2.3509559e-38
-0.10958842 0.5545032 3.1082234 2.3509559e-38
-0.10800958 0.5426476 3.1364131 2.3509559e-38
-0.076849677 0.53654981 3.1508005 2.3509559e-38
-0.05556453 0.52870768 3.1693728 2.3509559e-38
-0.04516764 0.53014648 3.1659124 2.3509559e-38
-0.034770567 0.53158545 3.1624522 2.3509561e-38
-0.024373498 0.53302419 3.1589918 2.3509561e-38
-0.00222007 0.53441316 3.155607 2.3509561e-38
0.0081771156 0.5358519 3.1521471 2.3509561e-38
0.040791124 0.53858697 3.1455221 2.3509561e-38
0.051188249 0.54002565 3.1420622 2.3509561e-38
0.060162932 0.5430454 3.1348476 2.3509562e-38
0.091354311 0.54736137 3.1244683 2.3509562e-38
0.10175137 0.54880011 3.1210082 2.3509562e-38
0.11214861 0.55023867 3.1175485 2.3509562e-38
0.12254575 0.55167747 3.1140888 2.3509562e-38
0.16019861 0.56935507 3.071908 2.3509562e-38
0.17050496 0.57078147 3.0684779 2.3509562e-38
0.21336088 0.56766206 3.0757387 2.3509563e-38
0.22375795 0.56910092 3.0722785 2.3509563e-38
0.24594939 0.57043445 3.0690253 2.3509563e-38
0.2969718 0.55136448 3.1141903 2.3509563e-38
0.30379137 0.54100353 3.1388063 2.3509563e-38
0.30804655 0.53170341 3.1609087 2.3509563e-38
0.31242138 0.52199483 3.1839817 2.3509563e-38
0.3194488 0.51154774 3.2088015 2.3509565e-38
0.32401195 0.50140238 3.232913 2.3509565e-38
0.33919638 0.4930526 3.2527151 2.3509565e-38
0.34393668 0.48288208 3.2768857 2.3509565e-38
0.35955638 0.47413737 3.2976255 2.3509565e-38
0.375669 0.4793255 3.2852275 2.3509565e-38
0.46031436 0.4673456 3.3134069 2.3509565e-38
0.47463357 0.45920509 3.3327143 2.3509566e-38
0.47523069 0.4444775 3.367738 2.3509566e-38
0.51538509 0.44413701 3.3683999 2.3509566e-38
0.52678883 0.44565746 3.3647418 2.3509566e-38
0.5352686 0.44838777 3.3582172 2.3509566e-38
0.55222821 0.45384866 3.3451676 2.3509566e-38
0.56918776 0.45930934 3.332118 2.3509566e-38
0.57474363 0.46324974 3.322726 2.3509568e-38
0.58902705 0.469946 3.3067482 2.3509568e-38
0.5975157 0.47267759 3.3002207 2.3509568e-38
0.60600442 0.47540903 3.2936931 2.3509568e-38
0.61449301 0.47814062 3.2871659 2.3509568e-38
0.62298161 0.48087206 3.2806385 2.3509568e-38
0.6314702 0.48360345 3.2741108 2.3509568e-38
0.63995904 0.48633495 3.2675834 2.3509569e-38
0.64844751 0.48906639 3.2610559 2.3509569e-38
0.65693623 0.4917978 3.2545285 2.3509569e-38
0.66542482 0.4945294 3.2480011 2.3509569e-38
0.67133695 0.49853429 3.2384546 2.3509569e-38
0.68572217 0.50525331 3.2224221 2.3509569e-38
0.69421107 0.50798482 3.2158945 2.350957e-38
0.71377999 0.51219189 3.2058172 2.350957e-38
0.72816616 0.51891142 3.1897836 2.350957e-38
0.73665488 0.52164304 3.1832557 2.350957e-38
0.74514383 0.52437454 3.176728 2.350957e-38
0.75363261 0.52710617 3.1702001 2.350957e-38
0.77320045 0.53131223 3.1601253 2.350957e-38
0.78168905 0.53404379 3.1535978 2.3509572e-38
0.79017776 0.53677517 3.1470702 2.3509572e-38
0.80456531 0.54349589 3.1310337 2.3509572e-38
0.81305414 0.54622757 3.124506 2.3509572e-38
0.8215428 0.5489592 3.1179781 2.3509572e-38
0.84110963 0.55316401 3.1079056 2.3509572e-38
0.84959823 0.55589557 3.1013782 2.3509572e-38
0.85808676 0.55862707 3.094851 2.3509573e-38
0.86854321 0.57939792 3.045414 2.3509573e-38
0.87695795 0.5821057 3.0389431 2.3509573e-38
0.88537276 0.58481354 3.0324724 2.3509573e-38
0.89378762 0.58752131 3.0260012 2.3509573e-38
0.91061723 0.59293687 3.0130599 2.3509573e-38
0.95736355 0.59266502 3.0135341 2.3509573e-38
0.97536892 0.6000787 2.9958363 2.3509575e-38
0.98238546 0.60559958 2.9826806 2.3509575e-38
0.98325366 0.61683977 2.955945 2.3509575e-38
0.98830789 0.62577653 2.9346728 2.3509575e-38
1.0043354 0.63714367 2.9075794 2.3509575e-38
1.011739 0.64524221 2.8882916 2.3509575e-38
1.011732 0.64604449 2.8863838 2.3509575e-38
1.0086176 0.6546222 2.8659954 2.3509576e-38
1.0089008 0.65761369 2.8588796 2.3509576e-38
1.0106506 0.66475672 2.8418856 2.3509576e-38
1.0232801 0.67451537 2.8186305 2.3509576e-38
1.0451236 0.68277025 2.7989175 2.3509576e-38
1.0830131 0.69017404 2.7811699 2.3509576e-38
1.1224669 0.69093978 2.7792034 2.3509576e-38
1.1485187 0.6843065 2.794883 2.3509577e-38
1.16388 0.67433023 2.8185525 2.3509577e-38
1.1831714 0.68478888 2.7936082 2.3509577e-38
1.2577808 0.69352323 2.7725608 2.3509577e-38
1.2881972 0.69987684 2.7573378 2.3509577e-38
1.2932781 0.7006408 2.7555022 2.3509577e-38
1.3079847 0.70339566 2.7488966 2.3509579e-38
1.3643799 0.70512938 2.7445655 2.3509579e-38
1.4168217 0.6938796 2.7711275 2.3509579e-38
1.4280738 0.68604511 2.7897179 2.3509579e-38
1.4384103 0.68525571 2.7915576 2.3509579e-38
1.4435751 0.68524897 2.7915547 2.3509579e-38
1.44874 0.68524206 2.7915518 2.3509579e-38
1.4629451 0.69304907 2.7729328 2.350958e-38
1.4629316 0.6945886 2.7692711 2.350958e-38
1.462925 0.69535846 2.7674403 2.350958e-38
1.4507582 0.70577919 2.742702 2.350958e-38
1.4396542 0.714755 2.7213962 2.350958e-38
1.4433175 0.73101819 2.6827047 2.350958e-38
1.4804018 0.74474621 2.6499193 2.350958e-38
1.5313964 0.7396304 2.6618981 2.3509582e-38
1.5763928 0.71153599 2.7285483 2.3509582e-38
1.6347172 0.7084887 2.7355802 2.3509582e-38
1.6605734 0.70306867 2.7483752 2.3509582e-38
1.6799403 0.69896477 2.758064 2.3509582e-38
1.6835597 0.69817472 2.7599297 2.3509582e-38
1.6946895 0.70556068 2.7423232 2.3509582e-38
1.7002543 0.70925349 2.7335198 2.3509583e-38
1.7058194 0.71294647 2.7247167 2.3509583e-38
1.716949 0.72033221 2.7071104 2.3509583e-38
1.7225139 0.72402531 2.698307 2.3509583e-38
1.7280788 0.72771817 2.6895039 2.3509583e-38
1.7336438 0.73141086 2.680701 2.3509583e-38
1.7411541 0.73958671 2.6612291 2.3509583e-38
1.7542293 0.75145537 2.6329546 2.3509584e-38
1.7599864 0.75520319 2.6240199 2.3509584e-38
1.7562808 0.76974487 2.5894494 2.3509584e-38
1.7819343 0.78360486 2.5563927 2.3509584e-38
1.8171171 0.78680468 2.5486531 2.3509584e-38
1.8442978 0.79510611 2.52881 2.3509584e-38
1.8664893 0.79643959 2.5255568 2.3509584e-38
1.8768864 0.79787838 2.5220966 2.3509586e-38
1.8872834 0.7993173 2.5186365 2.3509586e-38
1.9080774 0.80219501 2.5117159 2.3509586e-38
1.9302689 0.80352861 2.5084624 2.3509586e-38
1.9392686 0.80651158 2.5013349 2.3509586e-38
2.0133364 0.81500834 2.4808547 2.3509586e-38
2.0356762 0.81638414 2.4775002 2.3509587e-38
2.0654304 0.82223368 2.463479 2.3509587e-38
2.1147008 0.82002121 2.4685593 2.3509587e-38
2.13515 0.8134135 2.4841988 2.3509587e-38
2.1631401 0.80606848 2.5015638 2.3509587e-38
2.1845055 0.79917085 2.5178897 2.3509587e-38
2.2059343 0.79226679 2.5342302 2.3509587e-38
2.2319996 0.78470933 2.5521078 2.3509589e-38
2.2581973 0.77713895 2.5700157 2.3509589e-38
2.2806239 0.76993698 2.5870609 2.3509589e-38
2.2845268 0.76955557 2.5879538 2.3509589e-38
2.3098087 0.77508456 2.5747113 2.3509589e-38
2.3157279 0.77890944 2.565593 2.3509589e-38
2.3177109 0.78311908 2.5555739 2.3509589e-38
2.321676 0.79153848 2.5355363 2.350959e-38
2.3256979 0.81756586 2.4736211 2.350959e-38
2.3276806 0.82177573 2.4636021 2.350959e-38
2.3355827 0.82981032 2.4444647 2.350959e-38
2.312098 0.84543222 2.4073982 2.350959e-38
2.2955425 0.85233849 2.3910344 2.350959e-38
2.287452 0.8586421 2.3760726 2.350959e-38
2.2860317 0.86024249 2.3722718 2.3509591e-38
2.2510965 0.87080628 2.3472769 2.3509591e-38
2.2262692 0.87946856 2.3267672 2.3509591e-38
2.1992579 0.886042 2.3112335 2.3509591e-38
2.1697447 0.8918885 2.2974379 2.3509591e-38
2.1572289 0.89350414 2.2936416 2.3509591e-38
2.1499095 0.89477807 2.2906387 2.3509591e-38
2.128135 0.89937079 2.2797964 2.3509593e-38
2.107554 0.91072327 2.2528732 2.3509593e-38
2.0848894 0.91652703 2.2391536 2.3509593e-38
2.0669622 0.92602444 2.2166324 2.3509593e-38
2.0633991 0.92637283 2.2158172 2.3509593e-38
2.0415647 0.93127847 2.2042305 2.3509593e-38
2.0221097 0.93752342 2.1894503 2.3509593e-38
1.9938098 0.94640237 2.1684384 2.3509594e-38
1.9887854 0.94772613 2.1653085 2.3509594e-38
1.9708134 0.95287085 2.1531391 2.3509594e-38
1.9624574 0.95756882 2.1419971 2.3509594e-38
1.9415528 0.96594602 2.1221509 2.3509594e-38
1.9312215 0.96846926 2.116188 2.3509594e-38
1.9210682 0.97113883 2.1098764 2.3509596e-38
1.900097 0.97882539 2.0916731 2.3509596e-38
1.892741 1.0041403 2.0314951 2.3509596e-38
1.8981781 1.0079038 2.0225246 2.3509596e-38
1.9011804 1.012899 2.0106332 2.3509596e-38
1.8891768 1.0253657 1.9810287 2.3509596e-38
1.9151592 1.0513643 1.9191016 2.3509596e-38
1.9252323 1.0554988 1.9092318 2.3509597e-38
1.9288428 1.0594358 1.8998548 2.3509597e-38
1.9140842 1.0709451 1.8725373 2.3509597e-38
1.9546393 1.0960138 1.8127683 2.3509597e-38
1.962203 1.0984474 1.8069525 2.3509597e-38
1.9720993 1.1178759 1.7607102 2.3509597e-38
1.9846398 1.1236491 1.7469341 2.3509597e-38
2.0156956 1.1344023 1.7212459 2.3509598e-38
2.028234 1.13633 1.716615 2.3509598e-38
2.0365047 1.1389312 1.7103983 2.3509598e-38
2.0384696 1.1431214 1.7004257 2.3509598e-38
2.0436325 1.1599269 1.6604388 2.3509598e-38
2.0537899 1.1666663 1.6443735 2.3509598e-38
2.0760534 1.184303 1.6023468 2.3509598e-38
2.1132703 1.1898658 1.5889797 2.35096e-38
2.1101174 1.1906605 1.5871017 2.35096e-38
2.1069643 1.1914549 1.5852237 2.35096e-38
2.073698 1.2024163 1.5592773 2.35096e-38
2.0617442 1.2065502 1.5494897 2.35096e-38
2.0136709 1.2095569 1.5425162 2.35096e-38
2.0044255 1.2114608 1.5380225 2.35096e-38
1.9807789 1.2174795 1.523796 2.3509601e-38
1.9662936 1.2207625 1.5160412 2.3509601e-38
1.9611402 1.222607 1.5116736 2.3509601e-38
1.9144591 1.2374526 1.4765389 2.3509601e-38
1.8958498 1.2461084 1.4560214 2.3509601e-38
1.8900492 1.2593267 1.4246067 2.3509601e-38
1.8918284 1.2631214 1.4155753 2.3509601e-38
1.894411 1.2836909 1.3666463 2.3509603e-38
1.8997742 1.2888814 1.3542821 2.3509603e-38
1.9185365 1.3014169 1.3244003 2.3509603e-38
1.9597526 1.3105474 1.3025341 2.3509603e-38
1.9662126 1.3126259 1.2975669 2.3509603e-38
1.9852157 1.3157887 1.289975 2.3509603e-38
2.0110724 1.3163741 1.2884877 2.3509604e-38
2.0436184 1.3106234 1.3020442 2.3509604e-38
2.0686965 1.3096519 1.3042624 2.3509604e-38
2.079248 1.3081076 1.3078961 2.3509604e-38
2.0972979 1.3055654 1.3138756 2.3509604e-38
2.1206813 1.3027337 1.3205239 2.3509604e-38
2.1402533 1.299763 1.327517 2.3509604e-38
2.1590836 1.2968856 1.3342906 2.3509605e-38
2.2111964 1.2914246 1.3470863 2.3509605e-38
2.2336318 1.2874838 1.3563757 2.3509605e-38
2.2371569 1.2871699 1.3571097 2.3509605e-38
2.255378 1.2899287 1.3504812 2.3509605e-38
2.2536662 1.2938939 1.3410573 2.3509605e-38
2.2532141 1.2990117 1.3288873 2.3509605e-38
2.245054 1.3042893 1.316366 2.3509607e-38
2.2682271 1.3286468 1.2583524 2.3509607e-38
2.2783024 1.3353317 1.2424169 2.3509607e-38
2.2829049 1.3387774 1.2342051 2.3509607e-38
2.2886875 1.3542434 1.1974018 2.3509607e-38
2.2955658 1.3578228 1.1888638 2.3509607e-38
2.3098683 1.3752502 1.1473645 2.3509607e-38
2.3148668 1.3785665 1.1394587 2.3509608e-38
2.3559036 1.3888932 1.1147479 2.3509608e-38
2.3969469 1.4183824 1.044464 2.3509608e-38
2.398814 1.4223508 1.0350194 2.3509608e-38
2.4006805 1.4263191 1.0255748 2.3509608e-38
2.3971338 1.4349043 1.00517 2.3509608e-38
2.4156151 1.4580656 0.95001829 2.3509608e-38
2.4542661 1.4845666 0.88685024 2.350961e-38
2.4827385 1.4877845 0.87909228 2.350961e-38
2.508934 1.5027111 0.8434965 2.350961e-38
2.5357547 1.5057746 0.83611178 2.350961e-38
2.5376854 1.5098785 0.82634455 2.350961e-38
2.5297303 1.5341957 0.76854122 2.350961e-38
2.5531297 1.5427089 0.74820858 2.350961e-38
2.5710731 1.5538176 0.72172332 2.3509611e-38
2.5760651 1.5588588 0.70971566 2.3509611e-38
2.5957747 1.5792675 0.66110581 2.3509611e-38
2.629077 1.5992162 0.61354023 2.3509611e-38
2.6488986 1.6073624 0.59409332 2.3509611e-38
2.6519473 1.6112616 0.58480877 2.3509611e-38
2.6710448 1.6202636 0.56332946 2.3509612e-38
2.669163 1.6248187 0.55250305 2.3509612e-38
2.6662738 1.6315002 0.5366233 2.3509612e-38
2.6543095 1.6418812 0.51197869 2.3509612e-38
2.6368124 1.6731853 0.43759412 2.3509612e-38
2.6493354 1.6836642 0.41262645 2.3509612e-38
2.6646242 1.6897552 0.39808434 2.3509612e-38
2.6791494 1.7026347 0.36740023 2.3509614e-38
2.6858151 1.7079501 0.35473391 2.3509614e-38
2.6932247 1.7112802 0.34678674 2.3509614e-38
2.7081139 1.7201022 0.32575113 2.3509614e-38
2.7176356 1.7343236 0.29189396 2.3509614e-38
2.7331154 1.7418177 0.27401412 2.3509614e-38
2.754554 1.7566178 0.2387367 2.3509614e-38
2.7680902 1.768724 0.20989542 2.3509615e-38
2.7772303 1.7743769 0.19641761 2.3509615e-38
2.7724073 1.7860579 0.16865459 2.3509615e-38
2.7728372 1.7950143 0.14735258 2.3509615e-38
2.7801821 1.8028135 0.12877721 2.3509615e-38
2.7786684 1.8075811 0.11744434 2.3509615e-38
2.7844992 1.8201475 0.087536335 2.3509615e-38
2.7864428 1.8243364 0.077567123 2.3509617e-38
2.784929 1.8291039 0.066234343 2.3509617e-38
2.7050805 1.8411452 0.037891351 2.3509617e-38
2.7059186 1.8586018 -0.0036279531 2.3509617e-38
2.7063372 1.86733 -0.024387648 2.3509617e-38
2.659518 1.8665518 -0.022364106 2.3509617e-38
2.6268456 1.873444 -0.038635209 2.3509617e-38
2.5640709 1.8870198 -0.070690729 2.3509618e-38
2.5417197 1.8967525 -0.093755364 2.3509618e-38
2.5247791 1.898296 -0.097363688 2.3509618e-38
2.4980831 1.9055288 -0.11446653 2.3509618e-38
2.4775074 1.9215308 -0.15244767 2.3509618e-38
2.4775963 1.9294039 -0.17117245 2.3509618e-38
2.451052 1.9654191 -0.25672758 2.3509618e-38
2.4664528 1.9731671 -0.27521142 2.3509619e-38
2.4645627 1.9832104 -0.29909024 2.3509619e-38
2.4695797 1.9912442 -0.31821463 2.3509619e-38
2.4841168 1.9981532 -0.3346996 2.3509619e-38
2.4979737 2.0051377 -0.3513616 2.3509619e-38
2.5122192 2.0121078 -0.36799115 2.3509619e-38
2.5437906 2.0407946 -0.43633157 2.3509621e-38
2.5593753 2.0484278 -0.45454288 2.3509621e-38
2.561311 2.0492814 -0.45658016 2.3509621e-38
2.5935118 2.0792 -0.52785259 2.3509621e-38
2.5786881 2.0856602 -0.54316235 2.3509621e-38
2.5514865 2.0931611 -0.56090087 2.3509621e-38
2.5430815 2.0959532 -0.56751055 2.3509621e-38
2.4941783 2.09883 -0.57417202 2.3509622e-38
2.4858465 2.101598 -0.58072412 2.3509622e-38
2.477515 2.1043658 -0.5872761 2.3509622e-38
2.469183 2.1071339 -0.5938282 2.3509622e-38
2.4608512 2.1099017 -0.60038036 2.3509622e-38
2.4378247 2.1190736 -0.62210864 2.3509622e-38
2.4128294 2.1273773 -0.64176482 2.3509622e-38
2.4051225 2.1277869 -0.64271033 2.3509624e-38
2.380796 2.1309226 -0.65007818 2.3509624e-38
2.3781159 2.1313612 -0.65111166 2.3509624e-38
2.3636296 2.1645899 -0.73008496 2.3509624e-38
2.3857255 2.1774969 -0.76086247 2.3509624e-38
2.4080312 2.1871202 -0.78383136 2.3509624e-38
2.3838708 2.1816692 -0.770778 2.3509624e-38
2.3266993 2.1876285 -0.78474009 2.3509625e-38
2.3400893 2.2185867 -0.85841614 2.3509625e-38
2.3908181 2.2300968 -0.88597679 2.3509625e-38
2.3982484 2.2413404 -0.91274446 2.3509625e-38
2.3834491 2.247 -0.92614985 2.3509625e-38
2.370713 2.2469177 -0.92590725 2.3509625e-38
2.3223069 2.2631378 -0.96430498 2.3509625e-38
2.3183599 2.2684298 -0.9768756 2.3509626e-38
2.3147383 2.276737 -0.99661887 2.3509626e-38
2.3129277 2.2808907 -1.0064905 2.3509626e-38
2.3111167 2.285044 -1.0163622 2.3509626e-38
2.2584808 2.2808011 -1.0060769 2.3509626e-38
2.2242084 2.2949214 -1.0395327 2.3509626e-38
2.217757 2.2981563 -1.0472023 2.3509626e-38
2.2144859 2.2981904 -1.0472716 2.3509628e-38
2.1928506 2.292006 -1.0324838 2.3509628e-38
2.1670537 2.2900801 -1.0278082 2.3509628e-38
2.1540332 2.2848411 -1.0153006 2.3509628e-38
2.1323044 2.2750807 -0.99200761 2.3509628e-38
2.0853429 2.2632141 -0.96361285 2.3509628e-38
2.0309811 2.2599313 -0.95560503 2.3509629e-38
2.0051229 2.268276 -0.97535563 2.3509629e-38
1.9742501 2.2690613 -0.97710967 2.3509629e-38
1.9394003 2.2678571 -0.97411728 2.3509629e-38
1.9285114 2.2693326 -0.97758651 2.3509629e-38
1.8803051 2.2747443 -0.99027938 2.3509629e-38
1.8612067 2.2788684 -1.0000168 2.3509629e-38
1.8592708 2.2780149 -0.99797964 2.3509631e-38
1.8270361 2.2656343 -0.96841753 2.3509631e-38
1.801029 2.2496252 -0.93024725 2.3509631e-38
1.7846473 2.2432702 -0.91507339 2.3509631e-38
1.7611332 2.239758 -0.90663403 2.3509631e-38
1.7430506 2.2326028 -0.88955069 2.3509631e-38
1.7342774 2.2235961 -0.86809808 2.3509631e-38
1.7242017 2.2140656 -0.84539485 2.3509632e-38
1.6962155 2.1822264 -0.76956969 2.3509632e-38
1.6907676 2.1751394 -0.75269485 2.3509632e-38
1.7296329 2.1684504 -0.73693019 2.3509632e-38
1.7177272 2.1390944 -0.66707033 2.3509632e-38
1.75512 2.124624 -0.63279378 2.3509632e-38
1.7569011 2.1186588 -0.6186139 2.3509632e-38
1.7798598 2.0974562 -0.56827325 2.3509633e-38
1.771132 2.0899029 -0.55027699 2.3509633e-38
1.7538495 2.0806727 -0.52826166 2.3509633e-38
1.7441318 2.073761 -0.51178825 2.3509633e-38
1.776989 2.0544145 -0.46589848 2.3509633e-38
1.7582902 2.0381505 -0.42714944 2.3509633e-38
1.7454319 2.0338209 -0.4168053 2.3509633e-38
1.736398 2.0319889 -0.41241515 2.3509635e-38
1.7200612 2.0105956 -0.36147597 2.3509635e-38
1.705294 2.0062213 -0.3510184 2.3509635e-38
1.7072195 1.9991175 -0.33413061 2.3509635e-38
1.7210447 1.9870893 -0.30557555 2.3509635e-38
1.7238737 1.9807252 -0.29045072 2.3509635e-38
1.7252884 1.9775431 -0.28288805 2.3509635e-38
1.7329339 1.9722185 -0.27025297 2.3509636e-38
1.7337756 1.958451 -0.23751365 2.3509636e-38
1.7291572 1.9482155 -0.21315378 2.3509636e-38
1.694599 1.9369313 -0.18618974 2.3509636e-38
1.6811801 1.9305902 -0.17105916 2.3509636e-38
1.6831255 1.927399 -0.16347751 2.3509636e-38
1.6872818 1.9245641 -0.15675041 2.3509638e-38
1.6914383 1.9217291 -0.15002345 2.3509638e-38
1.7191672 1.9126683 -0.12857679 2.3509638e-38
1.7233512 1.9098147 -0.12180535 2.3509638e-38
1.7450985 1.9022572 -0.10391206 2.3509638e-38
1.7492558 1.89934 -0.09698952 2.3509638e-38
1.7660505 1.88782 -0.069653891 2.3509638e-38
1.7702906 1.8849775 -0.062909119 2.3509639e-38
1.7744893 1.8820975 -0.056075338 2.3509639e-38
1.7984786 1.8583984 0.00019864808 2.3509639e-38
1.8188103 1.8448929 0.032243595 2.3509639e-38
1.8202311 1.8416342 0.039988231 2.3509639e-38
1.8216518 1.8383754 0.04773296 2.3509639e-38
1.8230724 1.835117 0.055477522 2.3509639e-38
1.8244931 1.8318583 0.06322211 2.350964e-38
1.8259137 1.8285996 0.070966773 2.350964e-38
1.8273344 1.825341 0.07871145 2.350964e-38
1.8315964 1.8155651 0.10194535 2.350964e-38
1.833017 1.8123064 0.10968998 2.350964e-38
1.8344375 1.8090478 0.11743462 2.350964e-38
1.8358582 1.8057891 0.12517935 2.350964e-38
1.837279 1.8025305 0.13292387 2.3509642e-38
1.8386995 1.7992718 0.14066851 2.3509642e-38
1.8401202 1.7960132 0.14841315 2.3509642e-38
1.8415409 1.7927547 0.15615781 2.3509642e-38
1.8429615 1.7894959 0.16390257 2.3509642e-38
1.844382 1.7862372 0.17164704 2.3509642e-38
1.8458028 1.7829788 0.17939173 2.3509642e-38
1.8472235 1.7797201 0.18713632 2.3509643e-38
1.848644 1.7764614 0.19488099 2.3509643e-38
1.8500648 1.7732028 0.20262574 2.3509643e-38
1.8514854 1.7699442 0.21037026 2.3509643e-38
1.852906 1.7666855 0.21811487 2.3509643e-38
1.8543266 1.7634269 0.22585955 2.3509643e-38
1.8557473 1.7601682 0.23360418 2.3509643e-38
1.8571681 1.7569095 0.24134892 2.3509645e-38
1.8585887 1.753651 0.24909344 2.3509645e-38
1.8600092 1.7503923 0.25683805 2.3509645e-38
1.8614299 1.7471336 0.26458275 2.3509645e-38
1.8628505 1.743875 0.27232742 2.3509645e-38
1.8642712 1.7406163 0.28007215 2.3509645e-38
1.8656919 1.7373577 0.28781661 2.3509646e-38
1.8671125 1.734099 0.29556125 2.3509646e-38
1.8685331 1.7308406 0.30330592 2.3509646e-38
1.8699538 1.7275819 0.31105062 2.3509646e-38
1.8713745 1.7243232 0.31879532 2.3509646e-38
1.8727951 1.7210646 0.32653981 2.3509646e-38
1.8742157 1.7178059 0.33428448 2.3509646e-38
1.8696386 1.7008328 0.3746677 2.3509647e-38
1.8710499 1.6975955 0.38236171 2.3509647e-38
1.8724613 1.6943581 0.39005566 2.3509647e-38
1.8738725 1.6911209 0.39774972 2.3509647e-38
1.8752388 1.6878453 0.40553468 2.3509647e-38
1.8766953 1.6846461 0.41313779 2.3509647e-38
1.8781066 1.6814088 0.42083177 2.3509647e-38
1.8879411 1.6587087 0.47478202 2.3509649e-38
1.8893526 1.6554713 0.48247617 2.3509649e-38
1.890764 1.652234 0.49017033 2.3509649e-38
1.8921753 1.6489966 0.49786448 2.3509649e-38
1.8935868 1.6457591 0.50555861 2.3509649e-38
1.8949982 1.6425219 0.51325279 2.3509649e-38
1.8964095 1.6392844 0.52094686 2.3509649e-38
1.8978208 1.636047 0.52864105 2.350965e-38
1.9034665 1.6230974 0.55941767 2.350965e-38
1.9099271 1.6158355 0.57666427 2.350965e-38
1.9076356 1.6021141 0.6093061 2.350965e-38
1.9046004 1.595662 0.62466192 2.350965e-38
1.9030826 1.592436 0.63233989 2.350965e-38
1.9000473 1.5859839 0.64769572 2.350965e-38
1.8985298 1.5827578 0.65537369 2.3509652e-38
1.8970122 1.5795318 0.66305155 2.3509652e-38
1.8954946 1.5763057 0.6707294 2.3509652e-38
1.8939769 1.5730798 0.67840731 2.3509652e-38
1.8924592 1.5698537 0.68608528 2.3509652e-38
1.8909416 1.5666276 0.69376326 2.3509652e-38
1.8894241 1.5634017 0.70144105 2.3509653e-38
1.8833535 1.5504977 0.73215276 2.3509653e-38
1.8818359 1.5472715 0.73983061 2.3509653e-38
1.8803183 1.5440456 0.74750847 2.3509653e-38
1.8727301 1.5279154 0.78589803 2.3509653e-38
1.8712126 1.5246893 0.79357594 2.3509653e-38
1.8696949 1.5214633 0.80125386 2.3509653e-38
1.8681773 1.5182372 0.80893189 2.3509654e-38
1.8666596 1.5150112 0.81660962 2.3509654e-38
1.8681015 1.5115217 0.82490361 2.3509654e-38
1.857554 1.4956552 0.86267704 2.3509654e-38
1.8383799 1.4868821 0.88361233 2.3509654e-38
1.8368721 1.4836773 0.89123982 2.3509654e-38
1.8424536 1.4701104 0.92348439 2.3509654e-38
1.8409361 1.4668845 0.93116218 2.3509656e-38
1.8394183 1.4636585 0.93884003 2.3509656e-38
1.8217955 1.4516287 0.96751511 2.3509656e-38
1.8202878 1.4484237 0.9751426 2.3509656e-38
1.8187802 1.4452189 0.98277003 2.3509656e-38
1.8172725 1.4420141 0.99039763 2.3509656e-38
1.8157649 1.4388092 0.99802512 2.3509656e-38
1.8142571 1.4356043 1.0056527 2.3509657e-38
1.8127494 1.4323995 1.0132803 2.3509657e-38
1.8112419 1.4291946 1.0209076 2.3509657e-38
1.8097341 1.4259897 1.0285351 2.3509657e-38
1.8082266 1.4227849 1.0361627 2.3509657e-38
1.8067187 1.41958 1.0437903 2.3509657e-38
1.8052111 1.4163752 1.0514179 2.3509657e-38
1.8037035 1.4131702 1.0590456 2.3509659e-38
1.8021958 1.4099655 1.0666728 2.3509659e-38
1.8006883 1.4067606 1.0743004 2.3509659e-38
1.7991805 1.4035558 1.081928 2.3509659e-38
1.7976727 1.4003509 1.0895555 2.3509659e-38
1.7961651 1.397146 1.097183 2.3509659e-38
1.7946575 1.3939412 1.1048105 2.3509659e-38
1.7931499 1.3907363 1.1124381 2.350966e-38
1.7916422 1.3875314 1.1200657 2.350966e-38
1.7901345 1.3843266 1.1276931 2.350966e-38
1.7886268 1.3811218 1.1353205 2.350966e-38
1.7863376 1.3705248 1.1605313 2.350966e-38
1.7834926 1.3675117 1.1677077 2.350966e-38
1.7734005 1.3618978 1.1810962 2.3509661e-38
1.7561882 1.3569242 1.1929878 2.3509661e-38
1.7519805 1.3541325 1.1996428 2.3509661e-38
1.7477729 1.3513407 1.206298 2.3509661e-38
1.7435654 1.348549 1.2129527 2.3509661e-38
1.7393578 1.3457572 1.2196078 2.3509661e-38
1.7351502 1.3429655 1.2262629 2.3509661e-38
1.7309427 1.3401737 1.2329179 2.3509663e-38
1.726735 1.337382 1.239573 2.3509663e-38
1.7225275 1.3345902 1.2462279 2.3509663e-38
1.71832 1.3317986 1.252883 2.3509663e-38
1.7141124 1.3290067 1.2595379 2.3509663e-38
1.7056973 1.3234231 1.2728481 2.3509663e-38
1.6997056 1.3104903 1.3036276 2.3509663e-38
1.69547 1.3076799 1.3103269 2.3509664e-38
1.6912346 1.3048697 1.3170261 2.3509664e-38
1.6869991 1.3020593 1.3237253 2.3509664e-38
1.6594141 1.2927139 1.3460531 2.3509664e-38
1.6552066 1.289922 1.3527081 2.3509664e-38
1.650999 1.2871304 1.3593631 2.3509664e-38
1.6467915 1.2843386 1.3660181 2.3509664e-38
1.6425837 1.2815468 1.3726733 2.3509666e-38
1.6383762 1.2787551 1.3793281 2.3509666e-38
1.6341687 1.2759633 1.3859832 2.3509666e-38
1.6277015 1.2627149 1.4175152 2.3509666e-38
1.6234659 1.2599046 1.4242144 2.3509666e-38
1.6192304 1.2570941 1.4309137 2.3509666e-38
1.6149949 1.2542839 1.437613 2.3509666e-38
1.6107591 1.2514735 1.4443123 2.3509667e-38
1.6065236 1.2486632 1.4510114 2.3509667e-38
1.6022881 1.2458529 1.4577106 2.3509667e-38
1.5668477 1.2312951 1.4924635 2.3509667e-38
1.5626401 1.2285033 1.4991184 2.3509667e-38
1.5584325 1.2257117 1.5057734 2.3509667e-38
1.5542248 1.2229198 1.5124284 2.3509667e-38
1.5500174 1.2201282 1.5190835 2.3509668e-38
1.5373948 1.2117529 1.5390486 2.3509668e-38
1.5066655 1.2003208 1.5663499 2.3509668e-38
1.4911115 1.1810436 1.6122537 2.3509668e-38
1.4682199 1.1682765 1.642701 2.3509668e-38
1.4413002 1.1602935 1.6617861 2.3509668e-38
1.4360507 1.1578878 1.6675267 2.350967e-38
1.4224919 1.150931 1.6841216 2.350967e-38
1.4060431 1.1397958 1.7106646 2.350967e-38
1.3996252 1.1377306 1.7156 2.350967e-38
1.3932076 1.1356653 1.7205353 2.350967e-38
1.3867897 1.1336001 1.7254705 2.350967e-38
1.3803718 1.1315348 1.7304059 2.350967e-38
1.3739541 1.1294695 1.7353412 2.3509671e-38
1.3675361 1.1274043 1.7402767 2.3509671e-38
1.3611184 1.1253392 1.7452118 2.3509671e-38
1.3547007 1.1232738 1.7501471 2.3509671e-38
1.3482828 1.1212087 1.7550825 2.3509671e-38
1.3418649 1.1191434 1.7600178 2.3509671e-38
1.3354471 1.1170781 1.7649531 2.3509671e-38
1.3290294 1.115013 1.7698884 2.3509673e-38
1.3226116 1.1129476 1.7748237 2.3509673e-38
1.3161937 1.1108825 1.7797589 2.3509673e-38
1.3097759 1.1088172 1.7846943 2.3509673e-38
1.2758638 1.1037464 1.7968788 2.3509673e-38
1.2694886 1.1016949 1.8017813 2.3509673e-38
1.2631135 1.0996433 1.8066841 2.3509673e-38
1.2567384 1.0975919 1.8115864 2.3509674e-38
1.2503632 1.0955404 1.8164889 2.3509674e-38
1.1974167 1.080073 1.8534695 2.3509674e-38
1.1910417 1.0780214 1.8583719 2.3509674e-38
1.1846665 1.0759701 1.8632743 2.3509674e-38
1.1782913 1.0739185 1.8681768 2.3509674e-38
1.1719162 1.071867 1.8730794 2.3509674e-38
1.1464157 1.0636609 1.8926892 2.3509675e-38
1.1200438 1.0610061 1.8991003 2.3509675e-38
1.1137112 1.0589683 1.90397 2.3509675e-38
1.1073787 1.0569305 1.9088397 2.3509675e-38
1.0890394 1.0451974 1.9368117 2.3509675e-38
1.0826643 1.0431459 1.9417142 2.3509675e-38
1.0762892 1.0410943 1.9466168 2.3509675e-38
1.069914 1.0390428 1.9515193 2.3509677e-38
1.0635389 1.0369914 1.9564217 2.3509677e-38
1.0571637 1.0349399 1.9613242 2.3509677e-38
1.0507886 1.0328883 1.9662267 2.3509677e-38
1.0444134 1.0308368 1.9711292 2.3509677e-38
1.0123917 1.026364 1.9818848 2.3509677e-38
1.0060592 1.0243261 1.9867544 2.3509678e-38
0.99972671 1.0222884 1.9916241 2.3509678e-38
0.97132593 1.0084897 2.0245457 2.3509678e-38
0.93735063 1.0042902 2.0346582 2.3509678e-38
0.9295947 1.0032169 2.0372393 2.3509678e-38
0.9218387 1.0021436 2.0398207 2.3509678e-38
0.89857084 0.99892348 2.0475645 2.3509678e-38
0.89081484 0.99785018 2.0501456 2.350968e-38
0.88305891 0.99677682 2.052727 2.350968e-38
0.87530291 0.99570346 2.0553083 2.350968e-38
0.8675468 0.99463004 2.0578897 2.350968e-38
0.85979104 0.99355674 2.0604708 2.350968e-38
0.85203499 0.99248338 2.0630522 2.350968e-38
0.84427905 0.99141014 2.0656333 2.350968e-38
0.83652312 0.99033672 2.0682147 2.3509681e-38
0.81075013 0.98203778 2.0880466 2.3509681e-38
0.80294186 0.98095709 2.0906456 2.3509681e-38
0.79513353 0.97987652 2.0932441 2.3509681e-38
0.78732544 0.97879595 2.0958426 2.3509681e-38
0.77951717 0.97771537 2.0984414 2.3509681e-38
0.77170897 0.9766348 2.1010401 2.3509681e-38
0.76390076 0.97555423 2.1036389 2.3509682e-38
0.75609237 0.97447366 2.1062374 2.3509682e-38
0.72018367 0.97423643 2.1069338 2.3509682e-38
0.71242756 0.97316295 2.1095154 2.3509682e-38
0.70467168 0.97208971 2.1120965 2.3509682e-38
0.69691575 0.97101629 2.1146779 2.3509682e-38
0.66589189 0.96672297 2.1250029 2.3509682e-38
0.65813589 0.96564966 2.127584 2.3509684e-38
0.65038002 0.96457613 2.1301656 2.3509684e-38
0.64262402 0.96350282 2.1327467 2.3509684e-38
0.63486791 0.96242952 2.1353281 2.3509684e-38
0.62711209 0.96135616 2.1379094 2.3509684e-38
0.57282031 0.95384264 2.1559782 2.3509684e-38
0.56506431 0.95276934 2.1585596 2.3509684e-38
0.55730844 0.95169592 2.1611409 2.3509685e-38
0.54955244 0.95062268 2.163722 2.3509685e-38
0.54179645 0.94954926 2.1663034 2.3509685e-38
0.53404051 0.94847596 2.1688848 2.3509685e-38
0.52628452 0.94740248 2.1714661 2.3509685e-38
0.50301665 0.94418252 2.1792097 2.3509685e-38
0.49526069 0.94310921 2.1817911 2.3509687e-38
0.48750475 0.94203573 2.1843724 2.3509687e-38
0.47974879 0.94096249 2.1869535 2.3509687e-38
0.47199279 0.93988907 2.1895349 2.3509687e-38
0.46423683 0.93881577 2.1921163 2.3509687e-38
0.45648089 0.93774235 2.1946976 2.3509687e-38
0.4487249 0.93666905 2.1972787 2.3509687e-38
0.44096893 0.93559563 2.1998601 2.3509688e-38
0.433213 0.93452239 2.2024412 2.3509688e-38
0.425457 0.93344903 2.2050226 2.3509688e-38
0.37972602 0.92697316 2.2205923 2.3509688e-38
0.35433865 0.92958713 2.2144692 2.3509688e-38
0.33795357 0.92960864 2.2144783 2.3509688e-38
0.33385721 0.92961401 2.2144806 2.3509688e-38
0.329761 0.92961949 2.2144828 2.3509689e-38
0.32566476 0.9296248 2.2144852 2.3509689e-38
0.32156837 0.92963022 2.2144873 2.3509689e-38
0.31747216 0.92963558 2.2144897 2.3509689e-38
0.31337577 0.92964101 2.2144918 2.3509689e-38
0.30927953 0.92964631 2.2144942 2.3509689e-38
0.30518332 0.92965174 2.2144964 2.3509689e-38
0.30108693 0.92965716 2.2144988 2.3509691e-38
0.29699069 0.92966264 2.2145009 2.3509691e-38
0.2928943 0.92966795 2.2145033 2.3509691e-38
0.28879812 0.92967337 2.2145054 2.3509691e-38
0.28470188 0.92967874 2.2145078 2.3509691e-38
0.28060547 0.92968416 2.21451 2.3509691e-38
0.27650928 0.92968947 2.2145123 2.3509691e-38
0.2724129 0.92969495 2.2145145 2.3509692e-38
0.26831666 0.92970031 2.2145169 2.3509692e-38
0.26422042 0.92970574 2.214519 2.3509692e-38
0.26012406 0.92971104 2.2145214 2.3509692e-38
0.25602785 0.92971647 2.2145236 2.3509692e-38
0.25193146 0.92972183 2.2145259 2.3509692e-38
0.24783522 0.92972714 2.2145283 2.3509692e-38
0.24373901 0.92973262 2.2145305 2.3509694e-38
0.23964262 0.92973804 2.2145329 2.3509694e-38
0.2355464 0.92974347 2.214535 2.3509694e-38
0.204044 0.92566097 2.2243602 2.3509694e-38
0.19992168 0.92566639 2.2243624 2.3509694e-38
0.19167721 0.92567736 2.2243669 2.3509694e-38
0.18755509 0.92568272 2.2243693 2.3509695e-38
0.15771684 0.92984581 2.2145782 2.3509695e-38
0.15362063 0.92985129 2.2145803 2.3509695e-38
0.14133179 0.92986739 2.2145872 2.3509695e-38
0.1372354 0.92987281 2.2145894 2.3509695e-38
0.13313919 0.92987818 2.2145917 2.3509695e-38
0.1290428 0.92988366 2.2145939 2.3509695e-38
0.12494658 0.92988908 2.2145963 2.3509696e-38
0.11265774 0.92990524 2.2146029 2.3509696e-38
0.10856136 0.9299106 2.2146053 2.3509696e-38
0.10446513 0.92991602 2.2146075 2.3509696e-38
0.1003689 0.92992133 2.2146099 2.3509696e-38
0.096272528 0.92992681 2.214612 2.3509696e-38
0.092176303 0.92993218 2.2146144 2.3509696e-38
0.059766509 0.92585087 2.2244401 2.3509698e-38
0.047394313 0.92648649 2.2229741 2.3509698e-38
0.043272164 0.92649192 2.2229762 2.3509698e-38
0.039150015 0.92649734 2.2229786 2.3509698e-38
0.035027705 0.92650282 2.2229807 2.3509698e-38
0.03090555 0.92650819 2.2229831 2.3509698e-38
0.026783243 0.92651361 2.2229853 2.3509698e-38
0.022661094 0.9265191 2.2229877 2.3509699e-38
0.018538943 0.92652446 2.22299 2.3509699e-38
0.014416634 0.92652994 2.2229922 2.3509699e-38
0.010294482 0.92653531 2.2229946 2.3509699e-38
-0.002072206 0.9265517 2.2230012 2.3509699e-38
-0.034814037 0.93071473 2.2132211 2.3509699e-38
-0.038910341 0.93072015 2.2132232 2.3509699e-38
-0.043006644 0.93072551 2.2132256 2.3509701e-38
-0.047102951 0.93073094 2.2132277 2.3509701e-38
-0.076272026 0.92664921 2.2230425 2.3509701e-38
-0.080394246 0.92665476 2.2230446 2.3509701e-38
-0.084516481 0.92666018 2.223047 2.3509701e-38
-0.088638715 0.92666566 2.2230492 2.3509701e-38
-0.092760868 0.92667097 2.2230515 2.3509701e-38
-0.096883088 0.92667639 2.2230539 2.3509702e-38
-0.10100532 0.92668188 2.2230561 2.3509702e-38
-0.12902331 0.93022335 2.2147367 2.3509702e-38
-0.13312495 0.93084413 2.2132754 2.3509702e-38
-0.13722123 0.93084949 2.2132778 2.3509702e-38
-0.14131755 0.93085492 2.21328 2.3509702e-38
-0.14541385 0.93086028 2.2132823 2.3509703e-38
-0.14951015 0.93086576 2.2132845 2.3509703e-38
-0.15360638 0.93087107 2.2132869 2.3509703e-38
-0.18228042 0.93090886 2.2133026 2.3509703e-38
-0.18637674 0.93091422 2.213305 2.3509703e-38
-0.19047303 0.93091965 2.2133071 2.3509703e-38
-0.19456926 0.93092495 2.2133095 2.3509703e-38
-0.19866556 0.93093044 2.2133117 2.3509705e-38
-0.20276187 0.9309358 2.2133141 2.3509705e-38
-0.20685817 0.93094128 2.2133162 2.3509705e-38
-0.21095447 0.93094659 2.2133186 2.3509705e-38
-0.23143591 0.93097359 2.2133298 2.3509705e-38
-0.23553215 0.93097895 2.2133322 2.3509705e-38
-0.23962845 0.93098438 2.2133343 2.3509705e-38
-0.24372476 0.93098968 2.2133367 2.3509706e-38
-0.24782105 0.93099511 2.2133389 2.3509706e-38
-0.25191733 0.93100047 2.2133412 2.3509706e-38
-0.2560136 0.93100595 2.2133434 2.3509706e-38
-0.2601099 0.93101132 2.2133458 2.3509706e-38
-0.26420617 0.9310168 2.2133479 2.3509706e-38
-0.2683025 0.93102211 2.2133503 2.3509706e-38
-0.2723988 0.93102753 2.2133524 2.3509708e-38
-0.27649504 0.9310329 2.2133548 2.3509708e-38
-0.28059128 0.93103832 2.213357 2.3509708e-38
-0.28468764 0.93104362 2.2133594 2.3509708e-38
-0.29288024 0.93105447 2.2133639 2.3509708e-38
-0.29697645 0.9310599 2.213366 2.3509708e-38
-0.30107278 0.9310652 2.2133684 2.3509708e-38
-0.30516908 0.93107063 2.2133706 2.3509709e-38
-0.30926538 0.93107599 2.2133729 2.3509709e-38
-0.31336167 0.93108141 2.2133751 2.3509709e-38
-0.31745791 0.93108678 2.2133775 2.3509709e-38
-0.34203562 0.93111914 2.2133911 2.3509709e-38
-0.34613195 0.93112451 2.2133934 2.3509709e-38
-0.35022825 0.93112993 2.2133956 2.3509709e-38
-0.35432455 0.9311353 2.213398 2.350971e-38
-0.35842079 0.93114072 2.2134001 2.350971e-38
-0.36251709 0.93114603 2.2134025 2.350971e-38
-0.36661339 0.93115151 2.2134047 2.350971e-38
-0.37070972 0.93115681 2.213407 2.350971e-38
-0.37480599 0.93116236 2.2134092 2.350971e-38
-0.37890226 0.93116772 2.2134116 2.3509712e-38
-0.3829985 0.93117315 2.2134137 2.3509712e-38
-0.38709483 0.93117845 2.2134161 2.3509712e-38
-0.39119115 0.93118387 2.2134182 2.3509712e-38
-0.42126259 0.9353435 2.2036364 2.3509712e-38
-0.42533299 0.93534875 2.2036388 2.3509712e-38
-0.42940339 0.93535417 2.2036409 2.3509712e-38
-0.43347374 0.93535954 2.2036433 2.3509713e-38
-0.43754405 0.93536496 2.2036455 2.3509713e-38
-0.45789587 0.93539172 2.2036567 2.3509713e-38
-0.46196622 0.93539709 2.2036591 2.3509713e-38
-0.46603662 0.93540245 2.2036612 2.3509713e-38
-0.47010699 0.93540776 2.2036636 2.3509713e-38
-0.47417736 0.93541312 2.2036657 2.3509713e-38
-0.47824764 0.93541849 2.2036681 2.3509715e-38
-0.48231801 0.93542385 2.2036703 2.3509715e-38
-0.5189513 0.93547207 2.2036905 2.3509715e-38
-0.52302164 0.93547744 2.2036927 2.3509715e-38
-0.52709204 0.93548274 2.2036951 2.3509715e-38
-0.53116244 0.93548816 2.2036972 2.3509715e-38
-0.53523278 0.93549347 2.2036996 2.3509715e-38
-0.53930312 0.93549889 2.2037017 2.3509716e-38
-0.54337341 0.9355042 2.2037041 2.3509716e-38
-0.54744381 0.93550962 2.2037063 2.3509716e-38
-0.55151427 0.93551487 2.2037086 2.3509716e-38
-0.55558461 0.93552029 2.2037108 2.3509716e-38
-0.55965495 0.9355256 2.2037132 2.3509716e-38
-0.56372529 0.93553102 2.2037153 2.3509716e-38
-0.56779569 0.93553638 2.2037175 2.3509717e-38
-0.57186604 0.93554169 2.2037199 2.3509717e-38
-0.57593644 0.93554705 2.203722 2.3509717e-38
-0.58814746 0.93556315 2.2037289 2.3509717e-38
-0.59221786 0.93556851 2.2037311 2.3509717e-38
-0.6254456 0.94113415 2.1906168 2.3509717e-38
-0.65015686 0.94937998 2.1710973 2.3509717e-38
-0.6563347 0.95144153 2.1662171 2.3509719e-38
-0.66251248 0.95350295 2.1613374 2.3509719e-38
-0.66869026 0.95556444 2.1564574 2.3509719e-38
-0.69340158 0.96381021 2.1369379 2.3509719e-38
-0.69957942 0.96587175 2.1320577 2.3509719e-38
-0.70575726 0.96793324 2.1271777 2.3509719e-38
-0.71193498 0.96999466 2.122298 2.350972e-38
-0.74900192 0.98236346 2.0930183 2.350972e-38
-0.75517976 0.98442495 2.0881383 2.350972e-38
-0.76135755 0.98648632 2.0832586 2.350972e-38
-0.76753551 0.9885478 2.0783787 2.350972e-38
-0.77371329 0.99060923 2.0734987 2.350972e-38
-0.77989107 0.99267071 2.0686188 2.350972e-38
-0.78606892 0.99473214 2.0637391 2.3509722e-38
-0.81589258 0.99917608 2.0532801 2.3509722e-38
-0.83454424 1.0053999 2.038547 2.3509722e-38
-0.8407613 1.0074745 2.0336361 2.3509722e-38
-0.84697843 1.009549 2.0287251 2.3509722e-38
-0.85319561 1.0116237 2.023814 2.3509722e-38
-0.85941279 1.0136982 2.018903 2.3509722e-38
-0.86563003 1.0157728 2.0139921 2.3509723e-38
-0.87184715 1.0178474 2.0090811 2.3509723e-38
-0.89109188 1.0297771 1.9807802 2.3509723e-38
-0.90344745 1.0339 1.9710203 2.3509723e-38
-0.93401879 1.0385934 1.959971 2.3509723e-38
-0.94023597 1.040668 1.95506 2.3509723e-38
-0.94645315 1.0427425 1.9501489 2.3509723e-38
-0.95267034 1.0448172 1.9452379 2.3509724e-38
-0.95888758 1.0468918 1.9403268 2.3509724e-38
-0.96510464 1.0489664 1.935416 2.3509724e-38
-0.97132182 1.0510409 1.9305049 2.3509724e-38
-1.002444 1.0559181 1.9190204 2.3509724e-38
-1.0087007 1.0580058 1.9140782 2.3509724e-38
-1.0149572 1.0600936 1.9091362 2.3509724e-38
-1.0212138 1.0621814 1.9041941 2.3509726e-38
-1.0274704 1.0642692 1.8992519 2.3509726e-38
-1.0462399 1.0705322 1.8844258 2.3509726e-38
-1.0524963 1.0726199 1.8794836 2.3509726e-38
-1.0587529 1.0747076 1.8745415 2.3509726e-38
-1.0650094 1.0767955 1.8695995 2.3509726e-38
-1.0712659 1.0788831 1.8646574 2.3509726e-38
-1.0775224 1.0809709 1.8597153 2.3509727e-38
-1.083779 1.0830585 1.8547733 2.3509727e-38
-1.0900354 1.0851463 1.849831 2.3509727e-38
-1.0962919 1.087234 1.844889 2.3509727e-38
-1.1025485 1.0893217 1.839947 2.3509727e-38
-1.1186724 1.1017852 1.810365 2.3509727e-38
-1.1444706 1.1048958 1.8030621 2.3509729e-38
-1.1632402 1.1111591 1.7882358 2.3509729e-38
-1.1808441 1.1225312 1.7612548 2.3509729e-38
-1.1870611 1.1246058 1.7563438 2.3509729e-38
-1.1932783 1.1266804 1.7514328 2.3509729e-38
-1.1994954 1.128755 1.7465218 2.3509729e-38
-1.2057127 1.1308296 1.7416108 2.3509729e-38
-1.2119298 1.1329041 1.7366998 2.350973e-38
-1.218147 1.1349788 1.7317889 2.350973e-38
-1.2243642 1.1370534 1.7268777 2.350973e-38
-1.2305814 1.1391279 1.7219667 2.350973e-38
-1.2367985 1.1412026 1.7170557 2.350973e-38
-1.2430156 1.143277 1.7121447 2.350973e-38
-1.2492328 1.1453518 1.7072338 2.350973e-38
-1.25545 1.1474262 1.7023227 2.3509731e-38
-1.2616671 1.1495008 1.6974118 2.3509731e-38
-1.2678844 1.1515754 1.6925008 2.3509731e-38
-1.2741015 1.15365 1.6875898 2.3509731e-38
-1.2803187 1.1557246 1.6826788 2.3509731e-38
-1.2865359 1.1577992 1.6777678 2.3509731e-38
-1.2927531 1.1598738 1.6728568 2.3509731e-38
-1.3320763 1.1707985 1.6470199 2.3509733e-38
-1.3372208 1.1732106 1.6413023 2.3509733e-38
-1.3423595 1.1756244 1.6355807 2.3509733e-38
-1.3474923 1.1780401 1.6298544 2.3509733e-38
-1.3582981 1.1858337 1.6113591 2.3509733e-38
-1.3623165 1.1886047 1.6047837 2.3509733e-38
-1.366335 1.1913757 1.5982082 2.3509733e-38
-1.3703536 1.1941469 1.5916327 2.3509734e-38
-1.374372 1.1969179 1.5850575 2.3509734e-38
-1.3783904 1.1996888 1.578482 2.3509734e-38
-1.3824089 1.2024598 1.5719067 2.3509734e-38
-1.3864275 1.205231 1.5653312 2.3509734e-38
-1.3904459 1.208002 1.5587556 2.3509734e-38
-1.3944644 1.2107729 1.5521804 2.3509734e-38
-1.3984828 1.213544 1.5456049 2.3509736e-38
-1.4065198 1.2190861 1.5324541 2.3509736e-38
-1.4105383 1.2218572 1.5258785 2.3509736e-38
-1.4315208 1.2277874 1.5118523 2.3509736e-38
-1.4436525 1.2361531 1.4920013 2.3509736e-38
-1.4598283 1.2473073 1.465533 2.3509736e-38
-1.4638721 1.2500958 1.4589161 2.3509737e-38
-1.467916 1.2528845 1.452299 2.3509737e-38
-1.4719598 1.2556731 1.445682 2.3509737e-38
-1.4760039 1.2584616 1.439065 2.3509737e-38
-1.4800478 1.2612503 1.4324479 2.3509737e-38
-1.4840916 1.2640388 1.425831 2.3509737e-38
-1.4881356 1.2668273 1.4192139 2.3509737e-38
-1.4921794 1.2696159 1.4125968 2.3509738e-38
-1.5083551 1.2807702 1.3861288 2.3509738e-38
-1.512399 1.2835587 1.3795117 2.3509738e-38
-1.5164429 1.2863474 1.3728946 2.3509738e-38
-1.5204868 1.2891359 1.3662775 2.3509738e-38
-1.5245306 1.2919245 1.3596606 2.3509738e-38
-1.5528381 1.3114445 1.3133414 2.3509738e-38
-1.556882 1.3142329 1.3067243 2.350974e-38
-1.560926 1.3170215 1.3001074 2.350974e-38
-1.5649698 1.3198102 1.2934904 2.350974e-38
-1.5690137 1.3225987 1.2868732 2.350974e-38
-1.5730577 1.3253872 1.2802563 2.350974e-38
-1.5771015 1.3281759 1.2736392 2.350974e-38
-1.5811455 1.3309646 1.2670221 2.350974e-38
-1.5851893 1.333753 1.2604052 2.3509741e-38
-1.5892333 1.3365415 1.2537881 2.3509741e-38
-1.5932772 1.3393302 1.2471712 2.3509741e-38
-1.597321 1.3421187 1.240554 2.3509741e-38
-1.601365 1.3449073 1.233937 2.3509741e-38
-1.6054088 1.3476958 1.22732 2.3509741e-38
-1.6094528 1.3504844 1.220703 2.3509741e-38
-1.6134968 1.3532729 1.2140859 2.3509743e-38
-1.6175406 1.3560616 1.207469 2.3509743e-38
-1.6215845 1.3588502 1.2008518 2.3509743e-38
-1.6256284 1.3616387 1.1942348 2.3509743e-38
-1.6337163 1.3672159 1.1810008 2.3509743e-38
-1.6512722 1.3808119 1.1487306 2.3509743e-38
-1.6673399 1.39789 1.1081736 2.3509743e-38
-1.668687 1.4010429 1.1006804 2.3509744e-38
-1.6727283 1.4105016 1.0782 2.3509744e-38
-1.6893576 1.4218276 1.0513252 2.3509744e-38
-1.6907138 1.4250017 1.0437813 2.3509744e-38
-1.69207 1.4281759 1.0362371 2.3509744e-38
-1.6934261 1.43135 1.0286933 2.3509744e-38
-1.6947824 1.4345242 1.0211494 2.3509745e-38
-1.6961385 1.4376984 1.0136054 2.3509745e-38
-1.6974947 1.4408726 1.0060614 2.3509745e-38
-1.698851 1.4440466 0.99851745 2.3509745e-38
-1.7002071 1.4472208 0.99097365 2.3509745e-38
-1.7015632 1.4503949 0.98342967 2.3509745e-38
-1.7029195 1.4535691 0.97588575 2.3509745e-38
-1.7042756 1.4567431 0.96834177 2.3509747e-38
-1.7056319 1.4599174 0.96079779 2.3509747e-38
-1.7097003 1.4694399 0.93816602 2.3509747e-38
-1.7110566 1.4726139 0.93062204 2.3509747e-38
-1.7124128 1.4757882 0.923078 2.3509747e-38
-1.7137688 1.4789623 0.9155342 2.3509747e-38
-1.7151251 1.4821365 0.90799028 2.3509747e-38
-1.7164812 1.4853106 0.9004463 2.3509748e-38
-1.7178375 1.4884847 0.89290237 2.3509748e-38
-1.7191936 1.4916589 0.88535833 2.3509748e-38
-1.7115172 1.5085206 0.84522849 2.3509748e-38
-1.7128643 1.5116736 0.83773518 2.3509748e-38
-1.7297641 1.5236813 0.80923986 2.3509748e-38
-1.7311202 1.5268555 0.80169606 2.3509748e-38
-1.7324765 1.5300295 0.79415208 2.350975e-38
-1.7263353 1.5432025 0.76280069 2.350975e-38
-1.7276825 1.5463555 0.7553072 2.350975e-38
-1.7290295 1.5495083 0.74781376 2.350975e-38
-1.7303766 1.5526613 0.74032044 2.350975e-38
-1.7317238 1.5558143 0.73282695 2.350975e-38
-1.7371122 1.5684258 0.70285308 2.350975e-38
-1.7384593 1.5715787 0.69535971 2.3509751e-38
-1.7398064 1.5747316 0.68786615 2.3509751e-38
-1.7411535 1.5778846 0.68037277 2.3509751e-38
-1.7425007 1.5810374 0.67287934 2.3509751e-38
-1.7596 1.5935127 0.64327329 2.3509751e-38
-1.7609563 1.5966867 0.63572931 2.3509751e-38
-1.7623124 1.5998609 0.62818545 2.3509751e-38
-1.7636687 1.603035 0.62064141 2.3509752e-38
-1.7718058 1.62208 0.57537782 2.3509752e-38
-1.7702515 1.6367494 0.54048443 2.3509752e-38
-1.7687217 1.6399077 0.53296751 2.3509752e-38
-1.767192 1.643066 0.52545059 2.3509752e-38
-1.7656621 1.6462244 0.51793355 2.3509752e-38
-1.7641324 1.6493826 0.51041675 2.3509754e-38
-1.7626027 1.6525409 0.50289983 2.3509754e-38
-1.7610729 1.6556993 0.49538293 2.3509754e-38
-1.7595432 1.6588576 0.48786604 2.3509754e-38
-1.753424 1.6714909 0.45779836 2.3509754e-38
-1.7518944 1.6746491 0.45028147 2.3509754e-38
-1.7503841 1.6778119 0.44275391 2.3509754e-38
-1.7488539 1.6809701 0.43523732 2.3509755e-38
-1.7473049 1.684124 0.42773071 2.3509755e-38
-1.7528332 1.6972753 0.39647418 2.3509755e-38
-1.7350668 1.7093906 0.36759534 2.3509755e-38
-1.7335371 1.7125489 0.36007857 2.3509755e-38
-1.7320073 1.7157072 0.35256165 2.3509755e-38
-1.7304776 1.7188655 0.34504473 2.3509755e-38
-1.7358931 1.7322493 0.31323481 2.3509757e-38
-1.7343531 1.7354287 0.30566752 2.3509757e-38
-1.7328131 1.7386081 0.29810026 2.3509757e-38
-1.7312732 1.7417877 0.29053298 2.3509757e-38
-1.7297332 1.7449671 0.28296581 2.3509757e-38
-1.728193 1.7481465 0.27539864 2.3509757e-38
-1.7266531 1.751326 0.26783141 2.3509757e-38
-1.7251132 1.7545054 0.26026422 2.3509758e-38
-1.7235731 1.7576848 0.25269684 2.3509758e-38
-1.7220331 1.7608643 0.24512972 2.3509758e-38
-1.7288251 1.7714069 0.22008193 2.3509758e-38
-1.708173 1.7894794 0.17702478 2.3509758e-38
-1.706633 1.7926589 0.16945754 2.3509758e-38
-1.705093 1.7958384 0.16189039 2.3509758e-38
-1.7148728 1.8002121 0.15152416 2.3509759e-38
-1.730803 1.8048857 0.140468 2.3509759e-38
-1.7467936 1.8096049 0.12930347 2.3509759e-38
-1.7620599 1.8110582 0.12590365 2.3509759e-38
-1.7651871 1.8111885 0.12560491 2.3509759e-38
-1.7905047 1.8135966 0.11997103 2.3509759e-38
-1.8088943 1.8155491 0.11539536 2.3509759e-38
-1.8373224 1.822927 0.097953483 2.3509761e-38
-1.8441893 1.826254 0.090066597 2.3509761e-38
-1.8560256 1.8338673 0.072003923 2.3509761e-38
-1.8647535 1.8375882 0.063186683 2.3509761e-38
-1.8674231 1.8388046 0.060303513 2.3509761e-38
-1.8806947 1.845987 0.04327096 2.3509761e-38
-1.8991827 1.8523345 0.028242987 2.3509762e-38
-1.9075249 1.856703 0.017884372 2.3509762e-38
-1.950646 1.862071 0.0052765058 2.3509762e-38
-1.9771925 1.8626348 0.0040336302 2.3509762e-38
-1.9945226 1.8617544 0.0061913179 2.3509762e-38
-2.0306497 1.8593136 0.012129258 2.3509762e-38
-2.092109 1.8716093 -0.016886616 2.3509762e-38
-2.1430407 1.8814946 -0.040208891 2.3509764e-38
-2.1524565 1.8871363 -0.053591393 2.3509764e-38
-2.175873 1.8994367 -0.082758889 2.3509764e-38
-2.220082 1.9139351 -0.11707664 2.3509764e-38
