# .PCD v0.7 - Point Cloud Data file format
VERSION 0.7
FIELDS x y z rgb
SIZE 4 4 4 4
TYPE F F F F
COUNT 1 1 1 1
WIDTH 70
HEIGHT 1
VIEWPOINT 0 0 0 1 0 0 0
POINTS 70
DATA ascii
-2.813874 0.55806392 0.62449086 2.3509528e-38
-2.8164449 0.55655533 0.62904531 2.3509532e-38
-2.8181245 0.5467279 0.62807381 2.3509538e-38
-2.8198044 0.53690052 0.62710226 2.3509542e-38
-2.8214843 0.52707314 0.62613076 2.3509548e-38
-2.823164 0.51724565 0.62515938 2.3509554e-38
-2.8307745 0.48625466 0.6267994 2.3509558e-38
-2.8383851 0.45526385 0.62843937 2.3509563e-38
-2.8624382 0.40925774 0.65681267 2.3509569e-38
-2.862608 0.39110315 0.6490531 2.3509573e-38
-2.8820729 0.3353253 0.6637333 2.3509579e-38
-2.8974216 0.27282417 0.66704065 2.3509584e-38
-2.9033992 0.24938449 0.66873252 2.3509589e-38
-2.9060719 0.2284555 0.66482323 2.3509594e-38
-2.9187589 0.1775604 0.6679005 2.35096e-38
-2.9092431 0.11193173 0.61924994 2.3509604e-38
-2.91505 0.090967558 0.62169939 2.350961e-38
-2.907316 0.051483106 0.58834362 2.3509614e-38
-2.9085197 -0.0043619382 0.56586033 2.3509619e-38
-2.9097512 -0.013534479 0.56426877 2.3509625e-38
-2.9199557 -0.06204652 0.56336176 2.3509629e-38
-2.9211922 -0.071198247 0.56178987 2.3509635e-38
-2.9165418 -0.08502961 0.54615831 2.350964e-38
-2.9273887 -0.14917408 0.5395788 2.3509645e-38
-2.9224229 -0.15449473 0.52710521 2.350965e-38
-2.9080727 -0.17045665 0.49079755 2.3509656e-38
-2.9051538 -0.21031252 0.4670684 2.350966e-38
-2.8951294 -0.21037091 0.44665754 2.3509666e-38
-2.8862109 -0.20378396 0.43146259 2.3509671e-38
-2.8736639 -0.18983483 0.4121756 2.3509675e-38
-2.8699465 -0.18749109 0.40566188 2.3509681e-38
-2.8662288 -0.18514751 0.39914852 2.3509685e-38
-2.8625114 -0.18280382 0.39263484 2.3509691e-38
-2.8587935 -0.18046029 0.38612145 2.3509696e-38
-2.845017 -0.17228241 0.36175781 2.3509701e-38
-2.8365042 -0.16659586 0.34698567 2.3509706e-38
-2.8261468 -0.16326705 0.32740977 2.3509712e-38
-2.8228478 -0.16011992 0.32210582 2.3509716e-38
-2.8221436 -0.14391783 0.32790717 2.3509722e-38
-2.8229392 -0.13649023 0.3328411 2.3509727e-38
-2.8163764 -0.093940146 0.33849189 2.3509731e-38
-2.8141568 -0.06879025 0.34520695 2.3509737e-38
-2.8126464 -0.059954964 0.34608048 2.3509743e-38
-2.8111362 -0.051119588 0.34695384 2.3509747e-38
-2.8096261 -0.042284094 0.3478272 2.3509752e-38
-2.8123868 -0.028360253 0.35965765 2.3509757e-38
-2.8175416 0.0085864896 0.38663524 2.3509762e-38
-2.8174639 0.041069876 0.40097868 2.3509768e-38
-2.8143013 0.061447401 0.40364495 2.3509772e-38
-2.817498 0.09287972 0.42417902 2.3509778e-38
-2.8160679 0.11019507 0.42900085 2.3509783e-38
-2.8158202 0.12171094 0.43363872 2.3509788e-38
-2.8081832 0.15627576 0.4335399 2.3509793e-38
-2.812031 0.19436987 0.45837176 2.3509799e-38
-2.8155708 0.2186853 0.47642606 2.3509803e-38
-2.8160815 0.23679681 0.48554981 2.3509809e-38
-2.8137262 0.26348603 0.4926759 2.3509814e-38
-2.8105206 0.28223836 0.49452966 2.3509818e-38
-2.8104458 0.31838632 0.51051515 2.3509824e-38
-2.8096869 0.33583817 0.51676416 2.3509828e-38
-2.810544 0.34383872 0.52207869 2.3509834e-38
-2.8108318 0.36324725 0.53132886 2.3509839e-38
-2.8100677 0.38083154 0.53762513 2.3509844e-38
-2.8084397 0.39035451 0.53856659 2.3509849e-38
-2.8072791 0.4198443 0.54937184 2.3509855e-38
-2.8101859 0.43865001 0.5636791 2.3509859e-38
-2.8102868 0.46470058 0.57551414 2.3509865e-38
-2.8086333 0.47437394 0.57647043 2.350987e-38
-2.8109868 0.51176757 0.5979507 2.3509874e-38
-2.8093197 0.5215199 0.59891468 2.350988e-38
