# .PCD v0.7 - Point Cloud Data file format
VERSION 0.7
FIELDS x y z rgb
SIZE 4 4 4 4
TYPE F F F F
COUNT 1 1 1 1
WIDTH 118
HEIGHT 1
VIEWPOINT 0 0 0 1 0 0 0
POINTS 118
DATA ascii
-0.64512408 1.4397042 -3.3429136 2.3509528e-38
-0.64863771 1.4638686 -3.3182075 2.3509531e-38
-0.65237868 1.4900762 -3.2915385 2.3509534e-38
-0.65158063 1.4992228 -3.2860291 2.3509537e-38
-0.65078235 1.5083692 -3.28052 2.3509539e-38
-0.64998454 1.5175159 -3.2750106 2.3509542e-38
-0.64918625 1.5266622 -3.2695017 2.3509545e-38
-0.64838827 1.5358088 -3.2639923 2.3509549e-38
-0.64759004 1.5449553 -3.2584832 2.3509552e-38
-0.65244502 1.5491052 -3.2465639 2.3509555e-38
-0.65676385 1.5640428 -3.2274153 2.3509558e-38
-0.65695059 1.5654236 -3.2260287 2.3509561e-38
-0.65866721 1.606661 -3.1915939 2.3509563e-38
-0.65786201 1.6158878 -3.1860361 2.3509568e-38
-0.65464163 1.6527954 -3.1638057 2.350957e-38
-0.65383637 1.6620221 -3.1582482 2.3509573e-38
-0.65303141 1.671249 -3.1526904 2.3509576e-38
-0.66408449 1.6734436 -3.1310658 2.3509579e-38
-0.67001373 1.6699275 -3.1230323 2.3509582e-38
-0.66649997 1.645763 -3.1477385 2.3509586e-38
-0.66891521 1.6180823 -3.1644115 2.3509589e-38
-0.7230826 1.5772099 -3.0976675 2.3509591e-38
-0.72901171 1.5736938 -3.0896339 2.3509594e-38
-0.75031304 1.5873096 -3.0408268 2.3509597e-38
-0.75895077 1.6171849 -3.0025294 2.35096e-38
-0.76487994 1.6136687 -2.9944959 2.3509604e-38
-0.7855947 1.6361996 -2.9399736 2.3509607e-38
-0.79582793 1.6476423 -2.9128022 2.350961e-38
-0.80015928 1.6625615 -2.8936441 2.3509612e-38
-0.81707901 1.6613297 -2.8640311 2.3509615e-38
-0.82888174 1.6543764 -2.8480041 2.3509618e-38
-0.83478326 1.6508998 -2.8399906 2.3509621e-38
-0.85681903 1.6553891 -2.796792 2.3509625e-38
-0.86193579 1.6611105 -2.7832065 2.3509628e-38
-0.87138379 1.6817513 -2.7504625 2.3509631e-38
-0.88161725 1.6931939 -2.7232909 2.3509633e-38
-0.88673365 1.6989154 -2.7097054 2.3509636e-38
-0.90208322 1.7160795 -2.6689479 2.3509639e-38
-0.9071998 1.7218008 -2.6553624 2.3509643e-38
-0.91231632 1.7275221 -2.6417763 2.3509646e-38
-0.91743296 1.7332435 -2.6281908 2.3509649e-38
-0.92176461 1.7481629 -2.6090326 2.3509652e-38
-0.92019492 1.766559 -2.597888 2.3509654e-38
-0.92531145 1.7722802 -2.5843027 2.3509657e-38
-0.93042803 1.7780014 -2.5707169 2.3509661e-38
-0.93554443 1.7837228 -2.5571311 2.3509664e-38
-0.95704252 1.7745043 -2.5253203 2.3509667e-38
-0.97381037 1.7695286 -2.4988258 2.350967e-38
-0.98064989 1.7639561 -2.4907115 2.3509673e-38
-0.98718172 1.71575 -2.5155482 2.3509675e-38
-0.99008763 1.7048118 -2.5186131 2.350968e-38
-0.99358171 1.6863806 -2.5263102 2.3509682e-38
-0.99904406 1.6663243 -2.531688 2.3509685e-38
-1.005199 1.6270363 -2.5504291 2.3509688e-38
-1.0059704 1.6179955 -2.5559061 2.3509691e-38
-1.0065593 1.6079613 -2.5624678 2.3509694e-38
-1.0186809 1.5669913 -2.5717139 2.3509698e-38
-1.0251969 1.5546392 -2.5693345 2.3509701e-38
-1.0486517 1.4981273 -2.5699279 2.3509703e-38
-1.0573502 1.4847621 -2.5643783 2.3509706e-38
-1.0362285 1.4886889 -2.5995307 2.3509709e-38
-1.0314736 1.4501266 -2.6374183 2.3509712e-38
-1.0392768 1.3882942 -2.670315 2.3509715e-38
-1.0407149 1.3643667 -2.6859004 2.3509719e-38
-1.0469943 1.3378733 -2.694694 2.3509722e-38
-1.0465435 1.3301514 -2.701376 2.3509724e-38
-1.0584569 1.2629521 -2.7309291 2.3509727e-38
-1.0612317 1.2526873 -2.7337189 2.350973e-38
-1.0630289 1.230094 -2.7476425 2.3509733e-38
-1.0637752 1.2215379 -2.7527959 2.3509737e-38
-1.0712152 1.18952 -2.7636926 2.350974e-38
-1.0719502 1.1811001 -2.768764 2.3509743e-38
-1.0726846 1.1726803 -2.7738357 2.3509745e-38
-1.0734193 1.1642605 -2.7789071 2.3509748e-38
-1.0854988 1.1121961 -2.7966595 2.3509751e-38
-1.0815896 1.0986751 -2.8139923 2.3509755e-38
-1.0776802 1.0851541 -2.8313251 2.3509758e-38
-1.0578901 1.0943009 -2.8601069 2.3509761e-38
-1.0529859 1.0976485 -2.8664181 2.3509764e-38
-1.0480813 1.100996 -2.8727295 2.3509767e-38
-1.0347638 1.1058753 -2.8930674 2.3509769e-38
-1.0298172 1.1092516 -2.8994329 2.3509774e-38
-1.0163729 1.1142175 -2.9199338 2.3509776e-38
-1.002503 1.1193054 -2.9411106 2.3509779e-38
-0.99747062 1.1227405 -2.9475868 2.3509782e-38
-0.99243808 1.1261756 -2.9540629 2.3509785e-38
-0.98237288 1.1330458 -2.9670155 2.3509788e-38
-0.97734052 1.1364809 -2.9734917 2.3509792e-38
-0.95723492 1.1565231 -2.9945641 2.3509795e-38
-0.95385557 1.1593218 -2.9985387 2.3509797e-38
-0.95047605 1.1621205 -3.0025136 2.35098e-38
-0.947097 1.1649195 -3.0064883 2.3509803e-38
-0.93666106 1.172051 -3.0199115 2.3509806e-38
-0.91841459 1.1775315 -3.0486922 2.3509809e-38
-0.90201974 1.1854248 -3.0722964 2.3509813e-38
-0.8890025 1.1905203 -3.0919273 2.3509816e-38
-0.88550621 1.193416 -3.0960395 2.3509818e-38
-0.8820098 1.1963115 -3.1001523 2.3509821e-38
-0.8598572 1.1978723 -3.1389642 2.3509824e-38
-0.8446753 1.2034656 -3.1621258 2.3509827e-38
-0.83904207 1.2068062 -3.1697583 2.3509831e-38
-0.82330173 1.2125821 -3.1937895 2.3509834e-38
-0.81762093 1.2159511 -3.2014863 2.3509837e-38
-0.81194019 1.2193198 -3.2091835 2.3509839e-38
-0.79600924 1.2252091 -3.2334726 2.3509842e-38
-0.79028058 1.2286061 -3.2412343 2.3509845e-38
-0.78455216 1.2320033 -3.248996 2.3509849e-38
-0.76799709 1.2381142 -3.2742434 2.3509852e-38
-0.76221913 1.2415409 -3.2820723 2.3509855e-38
-0.72724038 1.2671775 -3.3257475 2.3509858e-38
-0.72141278 1.2706337 -3.3336434 2.350986e-38
-0.71558487 1.2740896 -3.3415399 2.3509863e-38
-0.71479356 1.283159 -3.336077 2.3509867e-38
-0.70041329 1.3228194 -3.3319042 2.350987e-38
-0.66863143 1.3676865 -3.3551943 2.3509873e-38
-0.65075982 1.3751161 -3.3818169 2.3509876e-38
-0.64753956 1.4120237 -3.3595862 2.3509879e-38
-0.64673424 1.4212503 -3.3540289 2.3509881e-38
