# .PCD v0.7 - Point Cloud Data file format
VERSION 0.7
FIELDS x y z rgb
SIZE 4 4 4 4
TYPE F F F F
COUNT 1 1 1 1
WIDTH 872
HEIGHT 1
VIEWPOINT 0 0 0 1 0 0 0
POINTS 872
DATA ascii
0.94907194 -1.2305174 2.9110119 2.3509528e-38
0.93530482 -1.2371466 2.9001033 2.3509528e-38
0.93150753 -1.2362344 2.8983779 2.3509528e-38
0.89776814 -1.2293283 2.8824859 2.3509528e-38
0.89403069 -1.2284304 2.8807876 2.350953e-38
0.88655525 -1.2266346 2.8773909 2.350953e-38
0.87572813 -1.2246189 2.8721969 2.350953e-38
0.86460215 -1.2219465 2.8671415 2.3509531e-38
0.85826409 -1.2194278 2.864728 2.3509531e-38
0.85480922 -1.2183638 2.8632677 2.3509531e-38
0.83645099 -1.214805 2.8545272 2.3509531e-38
0.81885535 -1.2113817 2.8461559 2.3509532e-38
0.81545329 -1.2103338 2.8447177 2.3509532e-38
0.81205124 -1.2092861 2.8432798 2.3509532e-38
0.793854 -1.2057772 2.8346076 2.3509534e-38
0.79047894 -1.2047377 2.8331811 2.3509534e-38
0.78710383 -1.2036982 2.8317547 2.3509534e-38
0.76971591 -1.2003385 2.8234711 2.3509534e-38
0.75307864 -1.1971104 2.8155515 2.3509535e-38
0.74975413 -1.1960863 2.814146 2.3509535e-38
0.74642932 -1.1950624 2.8127408 2.3509535e-38
0.74310452 -1.1940384 2.8113358 2.3509537e-38
0.73977971 -1.1930145 2.8099303 2.3509537e-38
0.73645484 -1.1919905 2.8085251 2.3509537e-38
0.73313016 -1.1909666 2.8071198 2.3509538e-38
0.72980529 -1.1899426 2.8057146 2.3509538e-38
0.71367061 -1.1792854 2.8015583 2.3509538e-38
0.69093239 -1.1688766 2.7935426 2.3509538e-38
0.68331647 -1.1655095 2.790802 2.3509539e-38
0.6612559 -1.161621 2.7801175 2.3509539e-38
0.64666367 -1.1606871 2.7722826 2.3509539e-38
0.63921297 -1.1589944 2.7688518 2.3509541e-38
0.63175613 -1.1573012 2.7654178 2.3509541e-38
0.61039168 -1.153495 2.755089 2.3509541e-38
0.60477978 -1.1515118 2.752836 2.3509541e-38
0.59733719 -1.1498231 2.749408 2.3509542e-38
0.58071899 -1.1467654 2.7414193 2.3509542e-38
0.56122988 -1.1426911 2.7322793 2.3509542e-38
0.5456872 -1.1382892 2.7255297 2.3509544e-38
0.54169655 -1.1374203 2.7236743 2.3509544e-38
0.52562249 -1.1366137 2.7149401 2.3509544e-38
0.52095056 -1.1355346 2.7127969 2.3509544e-38
0.51498348 -1.1334993 2.7103674 2.3509545e-38
0.49779764 -1.1278633 2.7032642 2.3509545e-38
0.49380693 -1.1269945 2.7014089 2.3509545e-38
0.48981634 -1.1261256 2.6995533 2.3509547e-38
0.46701366 -1.1279933 2.6857529 2.3509547e-38
0.44371682 -1.1189483 2.6767817 2.3509547e-38
0.43352273 -1.1156569 2.6725442 2.3509548e-38
0.4295949 -1.1148019 2.6707182 2.3509548e-38
0.42566729 -1.1139467 2.6688919 2.3509548e-38
0.42173934 -1.1130917 2.6670659 2.3509548e-38
0.41781175 -1.1122365 2.6652396 2.3509549e-38
0.4021284 -1.1107605 2.6570404 2.3509549e-38
0.37930274 -1.1098382 2.6445329 2.3509549e-38
0.37346262 -1.1084079 2.6418924 2.3509551e-38
0.36348358 -1.1049773 2.6378415 2.3509551e-38
0.3426618 -1.103188 2.6268761 2.3509551e-38
0.3401581 -1.0940635 2.6297295 2.3509551e-38
0.33765459 -1.0849391 2.6325827 2.3509552e-38
0.34509999 -1.0641919 2.6465185 2.3509552e-38
0.33967105 -1.0184721 2.6648493 2.3509552e-38
0.33652455 -1.0036669 2.6699984 2.3509554e-38
0.33865166 -0.98570049 2.6796169 2.3509554e-38
0.33891156 -0.96383625 2.690002 2.3509554e-38
0.34105638 -0.94571936 2.6997013 2.3509555e-38
0.33789828 -0.93151879 2.7045605 2.3509555e-38
0.33578289 -0.9044745 2.7160249 2.3509555e-38
0.33323815 -0.89520037 2.718925 2.3509555e-38
0.33285528 -0.86766523 2.7316015 2.3509556e-38
0.33213794 -0.85908812 2.7352109 2.3509556e-38
0.33025202 -0.83493578 2.7454515 2.3509556e-38
0.32986614 -0.80717355 2.7582326 2.3509558e-38
0.32730049 -0.79782301 2.7611566 2.3509558e-38
0.3247349 -0.78847235 2.7640803 2.3509558e-38
0.31933212 -0.74532384 2.7812223 2.3509558e-38
0.316652 -0.73265845 2.7856336 2.3509559e-38
0.3141588 -0.72646981 2.7871182 2.3509559e-38
0.31157219 -0.71704274 2.790066 2.3509559e-38
0.31596714 -0.67991847 2.8099411 2.3509561e-38
0.31338048 -0.67049134 2.8128889 2.3509561e-38
0.33410573 -0.63289583 2.842242 2.3509561e-38
0.33783057 -0.61622798 2.8521578 2.3509561e-38
0.33884656 -0.61086076 2.8552473 2.3509562e-38
0.33949879 -0.60625327 2.8577745 2.3509562e-38
0.34088093 -0.58312172 2.8693895 2.3509562e-38
0.34047604 -0.57859015 2.8712816 2.3509563e-38
0.33966246 -0.5737263 2.8730981 2.3509563e-38
0.34248137 -0.56428379 2.8791175 2.3509563e-38
0.34607115 -0.53186125 2.8963344 2.3509565e-38
0.34196058 -0.50804389 2.9051569 2.3509565e-38
0.33930737 -0.4983741 2.9081807 2.3509565e-38
0.33665422 -0.48870423 2.9112043 2.3509565e-38
0.34116232 -0.4506239 2.9315913 2.3509566e-38
0.33316225 -0.39339212 2.9538553 2.3509566e-38
0.2932983 -0.3670204 2.9436061 2.3509566e-38
0.27432176 -0.36817649 2.9323075 2.3509568e-38
0.26913586 -0.36829063 2.9293141 2.3509568e-38
0.25156221 -0.37117478 2.9180014 2.3509568e-38
0.21920651 -0.36163497 2.9041271 2.3509568e-38
0.16435461 -0.35217664 2.8774617 2.3509569e-38
0.13658157 -0.35185453 2.8618691 2.3509569e-38
0.10335217 -0.33548063 2.8506994 2.3509569e-38
0.09723103 -0.33398128 2.8479314 2.350957e-38
0.091308825 -0.33121803 2.8458679 2.350957e-38
0.043439437 -0.33270827 2.8180346 2.350957e-38
0.012218315 -0.31539255 2.8084443 2.350957e-38
-0.030384097 -0.31024948 2.7867024 2.3509572e-38
-0.062970906 -0.31401324 2.7664671 2.3509572e-38
-0.10123146 -0.3036637 2.7496245 2.3509572e-38
-0.14077368 -0.29820701 2.7297642 2.3509573e-38
-0.1699924 -0.27777579 2.7227681 2.3509573e-38
-0.17566156 -0.27638707 2.7202044 2.3509573e-38
-0.18133083 -0.27499837 2.7176409 2.3509575e-38
-0.19865122 -0.27056527 2.7098985 2.3509575e-38
-0.22229989 -0.2741065 2.6948345 2.3509575e-38
-0.23708262 -0.28393918 2.68185 2.3509575e-38
-0.299474 -0.28375345 2.6465693 2.3509576e-38
-0.33413893 -0.25708002 2.6394083 2.3509576e-38
-0.34161562 -0.25386 2.6366777 2.3509576e-38
-0.36613464 -0.24972957 2.6247125 2.3509577e-38
-0.40878558 -0.24412315 2.6031604 2.3509577e-38
-0.42247289 -0.25131643 2.5920329 2.3509577e-38
-0.42762476 -0.24991596 2.5897682 2.3509577e-38
-0.44812009 -0.24921814 2.5784764 2.3509579e-38
-0.47059405 -0.23645003 2.5717156 2.3509579e-38
-0.49172962 -0.22994579 2.5627799 2.3509579e-38
-0.53155732 -0.20467773 2.5520344 2.350958e-38
-0.53533721 -0.20385492 2.5502772 2.350958e-38
-0.57938737 -0.19465464 2.5296142 2.350958e-38
-0.58311146 -0.19384387 2.5278828 2.3509582e-38
-0.59875876 -0.19267726 2.5195589 2.3509582e-38
-0.60245514 -0.1918727 2.5178406 2.3509582e-38
-0.62013137 -0.19185488 2.5078287 2.3509582e-38
-0.62382764 -0.19105016 2.50611 2.3509583e-38
-0.64257866 -0.18528348 2.4981809 2.3509583e-38
-0.66529059 -0.17819294 2.4886262 2.3509583e-38
-0.67658913 -0.17803085 2.4822972 2.3509584e-38
-0.71413529 -0.19999848 2.4507267 2.3509584e-38
-0.73175943 -0.19431065 2.4433997 2.3509584e-38
-0.74442476 -0.18726841 2.4395175 2.3509584e-38
-0.80652618 -0.1671219 2.4137478 2.3509586e-38
-0.81006551 -0.16635126 2.412102 2.3509586e-38
-0.81360489 -0.1655807 2.4104564 2.3509586e-38
-0.81714427 -0.16481015 2.4088109 2.3509587e-38
-0.8384313 -0.14957879 2.4038758 2.3509587e-38
-0.8712942 -0.14401335 2.3878529 2.3509587e-38
-0.88267875 -0.14534518 2.3807755 2.3509587e-38
-0.88614488 -0.14459063 2.379164 2.3509589e-38
-0.91462839 -0.1347976 2.3676031 2.3509589e-38
-0.91809446 -0.13404296 2.3659916 2.3509589e-38
-0.93030226 -0.13322102 2.3594561 2.350959e-38
-0.93374491 -0.1324715 2.3578556 2.350959e-38
-0.93718755 -0.131722 2.3562548 2.350959e-38
-0.94063026 -0.13097258 2.3546543 2.3509591e-38
-0.95859289 -0.12349414 2.3479733 2.3509591e-38
-0.97236365 -0.12049629 2.3415711 2.3509591e-38
-0.9758063 -0.11974678 2.3399704 2.3509591e-38
-0.97924894 -0.11899728 2.3383698 2.3509593e-38
-0.98269171 -0.11824786 2.3367693 2.3509593e-38
-1.0158368 -0.12339998 2.3155675 2.3509593e-38
-1.0544345 -0.10850101 2.3006642 2.3509594e-38
-1.0755299 -0.11081856 2.2876203 2.3509594e-38
-1.0821867 -0.10936937 2.2845254 2.3509594e-38
-1.1069343 -0.097083189 2.2762499 2.3509594e-38
-1.1102626 -0.096358687 2.2747025 2.3509596e-38
-1.113591 -0.095633909 2.2731547 2.3509596e-38
-1.1169194 -0.094909407 2.2716076 2.3509596e-38
-1.1202477 -0.094184816 2.2700601 2.3509597e-38
-1.1235759 -0.093460135 2.2685125 2.3509597e-38
-1.1269044 -0.092735536 2.2669649 2.3509597e-38
-1.153597 -0.095906794 2.2503486 2.3509598e-38
-1.1572018 -0.093945652 2.2492239 2.3509598e-38
-1.1836326 -0.086559601 2.2376993 2.3509598e-38
-1.1999646 -0.084033854 2.229624 2.3509598e-38
-1.2121235 -0.086370029 2.2216375 2.35096e-38
-1.2153448 -0.085668728 2.2201397 2.35096e-38
-1.2185662 -0.084967434 2.218642 2.35096e-38
-1.2217875 -0.084266044 2.2171443 2.3509601e-38
-1.2250088 -0.083564751 2.2156465 2.3509601e-38
-1.2511187 -0.076229647 2.2042804 2.3509601e-38
-1.2543194 -0.075532757 2.2027922 2.3509601e-38
-1.2671227 -0.072745375 2.1968393 2.3509603e-38
-1.3154149 -0.045467645 2.1822369 2.3509603e-38
-1.342804 -0.0519545 2.1636732 2.3509603e-38
-1.3819857 -0.053416882 2.1407771 2.3509604e-38
-1.4181596 -0.056988843 2.1185987 2.3509604e-38
-1.4214873 -0.058302306 2.1160972 2.3509604e-38
-1.4606121 -0.020747239 2.1115038 2.3509604e-38
-1.4787574 -0.013042982 2.1048253 2.3509605e-38
-1.5112236 -0.0080364943 2.0887654 2.3509605e-38
-1.5262824 -0.0036573373 2.0822794 2.3509605e-38
-1.5329602 -0.0027160384 2.0789347 2.3509607e-38
-1.5543395 -0.00708543 2.064769 2.3509607e-38
-1.5623636 -0.01333727 2.0572932 2.3509607e-38
-1.5757189 -0.011454822 2.0506039 2.3509608e-38
-1.6093253 0.0046624583 2.0391004 2.3509608e-38
-1.6182154 0.012587447 2.0377719 2.3509608e-38
-1.6576536 0.023180122 2.0203755 2.3509608e-38
-1.6796571 0.018683217 2.0057964 2.350961e-38
-1.6908054 0.026374873 2.0030785 2.350961e-38
-1.7334876 0.040651385 1.9855677 2.350961e-38
-1.7640356 0.04116625 1.968492 2.3509611e-38
-1.771065 0.042156912 1.9649714 2.3509611e-38
-1.7914629 0.043265812 1.9539273 2.3509611e-38
-1.8161302 -0.020346526 1.9101574 2.3509611e-38
-1.7922983 -0.045206383 1.9120263 2.3509612e-38
-1.7751184 -0.060389765 1.9146557 2.3509612e-38
-1.7840643 -0.061843093 1.9089038 2.3509612e-38
-1.7873254 -0.062289137 1.9068463 2.3509614e-38
-1.7998519 -0.064043924 1.8989239 2.3509614e-38
-1.8174503 -0.072591826 1.884945 2.3509614e-38
-1.8232301 -0.079728253 1.8783271 2.3509614e-38
-1.8320547 -0.078183822 1.8740478 2.3509615e-38
-1.8675563 -0.080483675 1.8528457 2.3509615e-38
-1.8763812 -0.078939319 1.8485667 2.3509615e-38
-1.8801571 -0.073958203 1.8487583 2.3509617e-38
-1.8855553 -0.058808707 1.852792 2.3509617e-38
-1.9012582 -0.034466021 1.8552895 2.3509617e-38
-1.8998724 -0.017737422 1.8639081 2.3509618e-38
-1.9013551 -0.0069008768 1.8681417 2.3509618e-38
-1.8992633 0.018279824 1.8811187 2.3509618e-38
-1.901406 0.033567447 1.8870622 2.3509618e-38
-1.9293419 0.082436658 1.8941095 2.3509619e-38
-1.9736452 0.092729948 1.8738149 2.3509619e-38
-1.9930683 0.091260314 1.8621162 2.3509619e-38
-2.0055478 0.087401167 1.8532349 2.3509621e-38
-2.043232 0.10125593 1.8383603 2.3509621e-38
-2.0592141 0.1040749 1.8306204 2.3509621e-38
-2.1138144 0.06656073 1.7821027 2.3509621e-38
-2.1151516 0.058026355 1.7773484 2.3509622e-38
-2.1217504 0.019421482 1.7555306 2.3509622e-38
-2.1239817 0.011381298 1.7505012 2.3509622e-38
-2.1247466 0.0028070454 1.7460525 2.3509624e-38
-2.1255114 -0.005767338 1.7416042 2.3509624e-38
-2.1374288 -0.042305015 1.7177393 2.3509624e-38
-2.1329055 -0.059583448 1.7122132 2.3509625e-38
-2.1267407 -0.089491516 1.7017032 2.3509625e-38
-2.1270635 -0.10674594 1.6934407 2.3509625e-38
-2.1272647 -0.11515521 1.6893891 2.3509625e-38
-2.1213176 -0.14467841 1.6789361 2.3509626e-38
-2.1290767 -0.19083816 1.6529232 2.3509626e-38
-2.1292782 -0.19924724 1.6488714 2.3509626e-38
-2.1233151 -0.22811662 1.6387336 2.3509628e-38
-2.1235149 -0.23646042 1.6347132 2.3509628e-38
-2.1237147 -0.24480416 1.6306927 2.3509628e-38
-2.124114 -0.26149184 1.6226523 2.3509628e-38
-2.1243141 -0.26983583 1.6186322 2.3509629e-38
-2.1245136 -0.2781795 1.6146119 2.3509629e-38
-2.1185317 -0.30626428 1.604852 2.3509629e-38
-2.1187298 -0.31454259 1.6008633 2.3509631e-38
-2.1189284 -0.32282114 1.5968746 2.3509631e-38
-2.1254489 -0.34306678 1.583698 2.3509631e-38
-2.1157284 -0.37594682 1.573812 2.3509631e-38
-2.1159239 -0.3840977 1.5698849 2.3509632e-38
-2.116509 -0.40854996 1.5581028 2.3509632e-38
-2.1167045 -0.41670078 1.5541757 2.3509632e-38
-2.1189656 -0.42542547 1.5488083 2.3509633e-38
-2.1158309 -0.45976612 1.5345051 2.3509633e-38
-2.1160216 -0.46773639 1.530665 2.3509633e-38
-2.1162128 -0.4757067 1.5268248 2.3509635e-38
-2.1173575 -0.52352792 1.5037833 2.3509635e-38
-2.113555 -0.54031503 1.4980782 2.3509635e-38
-2.1137431 -0.54816693 1.4942951 2.3509635e-38
-2.1148708 -0.59527826 1.4715954 2.3509636e-38
-2.1150587 -0.60313016 1.4678123 2.3509636e-38
-2.1152468 -0.61098218 1.4640292 2.3509636e-38
-2.1188498 -0.61313593 1.4609782 2.3509638e-38
-2.1266358 -0.61185133 1.4571661 2.3509638e-38
-2.1344218 -0.61056656 1.4533539 2.3509638e-38
-2.1422079 -0.60928172 1.4495416 2.3509638e-38
-2.1499941 -0.60799706 1.4457295 2.3509639e-38
-2.1577799 -0.60671246 1.4419175 2.3509639e-38
-2.165566 -0.60542774 1.4381055 2.3509639e-38
-2.173352 -0.60414296 1.4342933 2.350964e-38
-2.1890426 -0.60092998 1.4269032 2.350964e-38
-2.1968863 -0.59963584 1.423063 2.350964e-38
-2.20473 -0.59834135 1.4192222 2.3509642e-38
-2.2125738 -0.59704733 1.4153821 2.3509642e-38
-2.2204173 -0.59575313 1.4115418 2.3509642e-38
-2.228261 -0.59445888 1.4077015 2.3509642e-38
-2.2361047 -0.59316474 1.403861 2.3509643e-38
-2.2439482 -0.59187049 1.4000207 2.3509643e-38
-2.251792 -0.59057623 1.3961804 2.3509643e-38
-2.2596357 -0.58928204 1.3923401 2.3509645e-38
-2.2667844 -0.58872652 1.3885477 2.3509645e-38
-2.2831664 -0.58539957 1.3808192 2.3509645e-38
-2.2910101 -0.58410501 1.3769785 2.3509645e-38
-2.2988536 -0.58281112 1.3731387 2.3509646e-38
-2.3145411 -0.58022261 1.3654578 2.3509646e-38
-2.3302283 -0.57763398 1.3577769 2.3509646e-38
-2.3380721 -0.57633996 1.3539367 2.3509647e-38
-2.35447 -0.57304484 1.346184 2.3509647e-38
-2.3623679 -0.5717417 1.3423172 2.3509647e-38
-2.3794386 -0.5683009 1.3342514 2.3509647e-38
-2.3860621 -0.56783211 1.330716 2.3509649e-38
-2.3939602 -0.56652886 1.3268492 2.3509649e-38
-2.4018581 -0.56522566 1.3229822 2.3509649e-38
-2.4192171 -0.56173742 1.3147753 2.350965e-38
-2.4271727 -0.56042469 1.3108802 2.350965e-38
-2.4334505 -0.560013 1.3075144 2.350965e-38
-2.4413486 -0.55870992 1.3036474 2.3509652e-38
-2.4492464 -0.5574066 1.2997804 2.3509652e-38
-2.4650428 -0.55480021 1.2920464 2.3509652e-38
-2.4729409 -0.55349696 1.2881792 2.3509652e-38
-2.480839 -0.55219376 1.2843122 2.3509653e-38
-2.4987741 -0.54861039 1.2758234 2.3509653e-38
-2.5067298 -0.54729766 1.271928 2.3509653e-38
-2.5146854 -0.54598504 1.268033 2.3509654e-38
-2.5226412 -0.54467231 1.2641379 2.3509654e-38
-2.5408642 -0.54104125 1.2555078 2.3509654e-38
-2.5488777 -0.53971916 1.2515843 2.3509654e-38
-2.5544639 -0.53942144 1.248557 2.3509656e-38
-2.5729175 -0.53575248 1.2398142 2.3509656e-38
-2.5809307 -0.53443021 1.2358905 2.3509656e-38
-2.5889442 -0.53310812 1.2319673 2.3509657e-38
-2.5969574 -0.53178585 1.2280439 2.3509657e-38
-2.6049709 -0.53046346 1.2241203 2.3509657e-38
-2.6129842 -0.52914137 1.2201968 2.3509657e-38
-2.6324437 -0.52527189 1.2109779 2.3509659e-38
-2.640518 -0.52393967 1.2070247 2.3509659e-38
-2.6485922 -0.52260721 1.2030712 2.3509659e-38
-2.6682949 -0.5186975 1.1937332 2.350966e-38
-2.6764297 -0.5173552 1.1897504 2.350966e-38
-2.6845648 -0.51601303 1.1857674 2.350966e-38
-2.6926999 -0.51467055 1.1817843 2.3509661e-38
-2.7008348 -0.51332849 1.1778015 2.3509661e-38
-2.7089698 -0.51198608 1.1738182 2.3509661e-38
-2.7171049 -0.51064372 1.1698351 2.3509661e-38
-2.7252398 -0.50930142 1.1658523 2.3509663e-38
-2.7576053 -0.50264353 1.1506226 2.3509663e-38
-2.7741187 -0.49991876 1.1425376 2.3509663e-38
-2.7782731 -0.49989229 1.1401951 2.3509664e-38
-2.7864692 -0.49853989 1.1361822 2.3509664e-38
-2.8196254 -0.49175143 1.1205654 2.3509664e-38
-2.8279428 -0.4903791 1.1164931 2.3509664e-38
-2.8362601 -0.4890067 1.1124209 2.3509666e-38
-2.8445778 -0.4876343 1.1083486 2.3509666e-38
-2.8528953 -0.4862619 1.1042762 2.3509666e-38
-2.8612125 -0.48488948 1.1002039 2.3509667e-38
-2.8778477 -0.48214471 1.0920591 2.3509667e-38
-2.8861651 -0.48077232 1.0879868 2.3509667e-38
-2.8944824 -0.47939998 1.0839146 2.3509668e-38
-2.9165773 -0.4750607 1.0734212 2.3509668e-38
-2.9249589 -0.47367772 1.0693176 2.3509668e-38
-2.9365587 -0.46005544 1.0691209 2.3509668e-38
-2.9662125 -0.4424935 1.0605342 2.350967e-38
-2.9803622 -0.43994382 1.0537069 2.350967e-38
-3.0171952 -0.4335703 1.035812 2.350967e-38
-3.0406072 -0.42937148 1.0245063 2.3509671e-38
-3.0522022 -0.42822957 1.018468 2.3509671e-38
-3.0808024 -0.42319497 1.0046127 2.3509671e-38
-3.08145 -0.40525883 1.0126444 2.3509671e-38
-3.0788496 -0.39657882 1.0181831 2.3509673e-38
-3.0645523 -0.3890506 1.0298129 2.3509673e-38
-3.0509024 -0.36358613 1.0494744 2.3509673e-38
-3.0529344 -0.34081659 1.0589846 2.3509674e-38
-3.060333 -0.31464842 1.0670435 2.3509674e-38
-3.0828059 -0.28404662 1.0686338 2.3509674e-38
-3.0823631 -0.2757397 1.0727744 2.3509674e-38
-3.0966351 -0.22893216 1.0866021 2.3509675e-38
-3.0961885 -0.22055557 1.0907774 2.3509675e-38
-3.0957417 -0.21217912 1.0949527 2.3509675e-38
-3.0774894 -0.18436542 1.1183236 2.3509677e-38
-3.0770464 -0.17605862 1.1224644 2.3509677e-38
-3.0824156 -0.12987699 1.1410453 2.3509677e-38
-3.0864422 -0.074860193 1.1645244 2.3509678e-38
-3.0928051 -0.052817512 1.1712394 2.3509678e-38
-3.0828943 -0.03727781 1.1841341 2.3509678e-38
-3.0663331 -0.035591863 1.1943119 2.3509678e-38
-3.0574038 -0.037065096 1.1986835 2.350968e-38
-3.048475 -0.0385383 1.203055 2.350968e-38
-3.0015786 -0.0036898758 1.2459575 2.350968e-38
-2.9991469 0.00042908173 1.2492645 2.3509681e-38
-2.9968767 0.042992204 1.2704817 2.3509681e-38
-3.0018351 0.074655034 1.282497 2.3509681e-38
-3.0164394 0.10856108 1.2900951 2.3509681e-38
-3.0159779 0.11721593 1.2944094 2.3509682e-38
-3.0300894 0.16035792 1.3066114 2.3509682e-38
-3.029624 0.16908558 1.3109617 2.3509682e-38
-3.0443652 0.21325183 1.3232865 2.3509684e-38
-3.0438957 0.22205511 1.3276746 2.3509684e-38
-3.0492101 0.26535296 1.3449367 2.3509684e-38
-3.06428 0.30183807 1.353478 2.3509685e-38
-3.0732725 0.31235528 1.3533049 2.3509685e-38
-3.0727949 0.32130983 1.3577687 2.3509685e-38
-3.0723171 0.33026439 1.3622326 2.3509685e-38
-3.0718396 0.33921897 1.3666964 2.3509687e-38
-3.0770941 0.39337996 1.3890789 2.3509687e-38
-3.067059 0.40083694 1.3982594 2.3509687e-38
-3.0383992 0.39610815 1.4122912 2.3509688e-38
-3.018811 0.4019888 1.4261491 2.3509688e-38
-2.9992225 0.40786952 1.4400071 2.3509688e-38
-2.9796343 0.41375026 1.4538647 2.3509688e-38
-2.9695992 0.42120737 1.4630449 2.3509689e-38
-2.9595642 0.42866412 1.4722255 2.3509689e-38
-2.9495294 0.43612126 1.4814056 2.3509689e-38
-2.9299409 0.442002 1.4952633 2.3509691e-38
-2.9203877 0.44042557 1.499941 2.3509691e-38
-2.8912463 0.44473013 1.5184759 2.3509691e-38
-2.871176 0.45964411 1.5368369 2.3509691e-38
-2.8334448 0.44430557 1.5510433 2.3509692e-38
-2.8138566 0.45018634 1.5649011 2.3509692e-38
-2.7837515 0.47255731 1.592442 2.3509692e-38
-2.7741983 0.47098106 1.5971195 2.3509694e-38
-2.7646449 0.46940479 1.6017967 2.3509694e-38
-2.7550919 0.46782839 1.6064744 2.3509694e-38
-2.7455385 0.46625218 1.6111515 2.3509695e-38
-2.716397 0.4705565 1.629687 2.3509695e-38
-2.706362 0.47801352 1.6388673 2.3509695e-38
-2.6958451 0.49450392 1.6525506 2.3509695e-38
-2.6848464 0.52002746 1.670737 2.3509696e-38
-2.6566687 0.50626534 1.680266 2.3509696e-38
-2.6194191 0.48189357 1.6899695 2.3509696e-38
-2.5835605 0.49294677 1.7154725 2.3509698e-38
-2.569911 0.51841122 1.735134 2.3509698e-38
-2.5673103 0.52709115 1.7406728 2.3509698e-38
-2.5647099 0.53577137 1.7462113 2.3509698e-38
-2.5452118 0.56065983 1.7689183 2.3509699e-38
-2.5289614 0.59480417 1.7941185 2.3509699e-38
-2.512711 0.62894875 1.8193185 2.3509699e-38
-2.4990613 0.65441287 1.8389802 2.3509701e-38
-2.4997087 0.67234927 1.8470118 2.3509701e-38
-2.4886594 0.68913352 1.8611345 2.3509701e-38
-2.4776099 0.70591784 1.8752575 2.3509701e-38
-2.4665608 0.72270197 1.8893805 2.3509702e-38
-2.4568064 0.77535844 1.9195665 2.3509702e-38
-2.454206 0.78403866 1.9251051 2.3509702e-38
-2.4516056 0.79271895 1.9306437 2.3509703e-38
-2.4431565 0.80082303 1.9392279 2.3509703e-38
-2.4288592 0.80835128 1.9508578 2.3509703e-38
-2.4067605 0.84191966 1.9791037 2.3509705e-38
-2.3730805 0.84250015 1.9984677 2.3509705e-38
-2.3589077 0.84996277 2.0099962 2.3509705e-38
-2.3505323 0.85799634 2.0185058 2.3509705e-38
-2.3421571 0.86602992 2.0270152 2.3509706e-38
-2.3144534 0.89873493 2.0580342 2.3509706e-38
-2.3118756 0.90733951 2.0635245 2.3509706e-38
-2.3189566 0.94347024 2.0764284 2.3509708e-38
-2.3326631 0.96866578 2.0804567 2.3509708e-38
-2.2986767 0.9622708 2.0967281 2.3509708e-38
-2.2929282 0.96170461 2.0997217 2.3509708e-38
-2.2690752 0.95342845 2.1093686 2.3509709e-38
-2.2633755 0.95286727 2.1123366 2.3509709e-38
-2.2519765 0.95174474 2.1182725 2.3509709e-38
-2.2462771 0.95118344 2.1212406 2.350971e-38
-2.2405775 0.9506222 2.1242087 2.350971e-38
-2.2291789 0.94949979 2.1301446 2.350971e-38
-2.2087715 0.94434273 2.1392984 2.3509712e-38
-2.2031682 0.94379097 2.1422164 2.3509712e-38
-2.1805685 0.93571764 2.151247 2.3509712e-38
-2.1750121 0.93517053 2.1541405 2.3509712e-38
-2.1694558 0.9346233 2.1570342 2.3509713e-38
-2.1583428 0.93352884 2.1628213 2.3509713e-38
-2.1472299 0.93243456 2.1686084 2.3509713e-38
-2.1288853 0.92806637 2.1769621 2.3509715e-38
-2.1234188 0.92752808 2.1798089 2.3509715e-38
-2.1070204 0.92591321 2.1883485 2.3509715e-38
-2.1015539 0.92537493 2.1911952 2.3509715e-38
-2.0960875 0.92483646 2.1940422 2.3509716e-38
-2.0851552 0.92375994 2.1997352 2.3509716e-38
-2.0875857 0.91564721 2.1945584 2.3509716e-38
-2.0900161 0.90753406 2.1893818 2.3509717e-38
-2.0924466 0.89942127 2.1842051 2.3509717e-38
-2.0948775 0.89130849 2.179028 2.3509717e-38
-2.1041389 0.82107329 2.1408906 2.3509717e-38
-2.0910075 0.78626198 2.1320338 2.3509719e-38
-2.0184937 0.7467773 2.1546512 2.3509719e-38
-2.0086484 0.75444818 2.1638238 2.3509719e-38
-1.998803 0.76211888 2.172997 2.350972e-38
-1.9889576 0.76978987 2.1821699 2.350972e-38
-1.9709189 0.77630579 2.1954467 2.350972e-38
-1.9528804 0.78282171 2.2087238 2.3509722e-38
-1.9348418 0.78933781 2.2220001 2.3509722e-38
-1.9249964 0.79700851 2.2311733 2.3509722e-38
-1.9168023 0.79585928 2.23528 2.3509722e-38
-1.9086075 0.79471594 2.2393904 2.3509723e-38
-1.8757634 0.78554595 2.2537148 2.3509723e-38
-1.8578799 0.79202056 2.2668841 2.3509723e-38
-1.8419966 0.78552908 2.2728481 2.3509724e-38
-1.8339443 0.78438735 2.2768784 2.3509724e-38
-1.7968569 0.80589426 2.3079731 2.3509724e-38
-1.7871794 0.81343788 2.3169913 2.3509724e-38
-1.7790655 0.85677445 2.3418832 2.3509726e-38
-1.7710108 0.85565072 2.3459229 2.3509726e-38
-1.7629558 0.85452706 2.3499629 2.3509726e-38
-1.7399276 0.84618664 2.3591115 2.3509727e-38
-1.7319417 0.84507233 2.363117 2.3509727e-38
-1.7239554 0.84395826 2.3671224 2.3509727e-38
-1.7159692 0.84284419 2.3711278 2.3509727e-38
-1.6918542 0.84294248 2.3848441 2.3509729e-38
-1.6839368 0.84183788 2.3888152 2.3509729e-38
-1.6681017 0.83962876 2.3967571 2.3509729e-38
-1.6462865 0.83164859 2.4053867 2.350973e-38
-1.638435 0.83055317 2.4093246 2.350973e-38
-1.6305833 0.8294577 2.4132626 2.350973e-38
-1.6091903 0.82139057 2.4216125 2.3509731e-38
-1.6014044 0.82030445 2.4255173 2.3509731e-38
-1.5936189 0.81921822 2.4294224 2.3509731e-38
-1.5789741 0.82105005 2.4385815 2.3509731e-38
-1.5712514 0.81997263 2.4424551 2.3509733e-38
-1.5635293 0.81889522 2.4463279 2.3509733e-38
-1.5558064 0.81781793 2.4502013 2.3509733e-38
-1.5480841 0.81674045 2.4540746 2.3509734e-38
-1.5403618 0.8156631 2.4579475 2.3509734e-38
-1.5027739 0.84319502 2.492147 2.3509734e-38
-1.493384 0.84164566 2.4967444 2.3509734e-38
-1.4691702 0.8335821 2.5066948 2.3509736e-38
-1.4058836 0.82209039 2.5371892 2.3509736e-38
-1.3994842 0.82615221 2.5427186 2.3509736e-38
-1.3900943 0.82460278 2.5473163 2.3509737e-38
-1.362398 0.81107557 2.5566828 2.3509737e-38
-1.3436178 0.8079772 2.5658774 2.3509737e-38
-1.3342279 0.80642766 2.5704749 2.3509738e-38
-1.315448 0.80332887 2.57967 2.3509738e-38
-1.2892386 0.80390525 2.5947971 2.3509738e-38
-1.282447 0.80525714 2.5992799 2.3509738e-38
-1.2603503 0.80817825 2.6131737 2.350974e-38
-1.2362977 0.79764229 2.6218753 2.350974e-38
-1.2270676 0.79611951 2.6263943 2.350974e-38
-1.2103753 0.78983128 2.6329124 2.3509741e-38
-1.1933769 0.78319883 2.6394427 2.3509741e-38
-1.181384 0.77977693 2.6446393 2.3509741e-38
-1.1536942 0.77520829 2.6581962 2.3509741e-38
-1.1444643 0.7736851 2.6627154 2.3509743e-38
-1.1006038 0.73914051 2.6714029 2.3509743e-38
-1.0902405 0.73725629 2.6763954 2.3509743e-38
-1.0629045 0.72433835 2.6858423 2.3509744e-38
-1.0440894 0.71665102 2.6929085 2.3509744e-38
-1.0167623 0.71118069 2.7058382 2.3509744e-38
-0.98899341 0.70384294 2.7181432 2.3509744e-38
-0.97453707 0.70743924 2.7280226 2.3509745e-38
-0.97048253 0.70655191 2.7299056 2.3509745e-38
-0.96642768 0.70566463 2.7317884 2.3509745e-38
-0.94013822 0.69058657 2.7396312 2.3509747e-38
-0.93587297 0.68967849 2.7416236 2.3509747e-38
-0.93209499 0.68883562 2.7433705 2.3509747e-38
-0.92789143 0.68794084 2.7453346 2.3509748e-38
-0.92390054 0.6870721 2.74719 2.3509748e-38
-0.91990995 0.68620312 2.7490456 2.3509748e-38
-0.91059691 0.68517154 2.7538419 2.3509748e-38
-0.90789694 0.68468189 2.7551429 2.350975e-38
-0.90381002 0.68378747 2.757041 2.350975e-38
-0.88403136 0.6843248 2.7685044 2.350975e-38
-0.86510527 0.67801124 2.7762766 2.3509751e-38
-0.85038108 0.67271489 2.7821436 2.3509751e-38
-0.85016567 0.67267013 2.7822444 2.3509751e-38
-0.84031487 0.67145568 2.7872601 2.3509751e-38
-0.83788478 0.67138803 2.7886064 2.3509752e-38
-0.82150537 0.67106652 2.7977405 2.3509752e-38
-0.81735104 0.67015737 2.7996697 2.3509752e-38
-0.81252253 0.66944939 2.8020754 2.3509754e-38
-0.80488801 0.66742998 2.8054574 2.3509754e-38
-0.78703243 0.65995538 2.8120799 2.3509754e-38
-0.76625597 0.65976197 2.8237667 2.3509755e-38
-0.74060959 0.65909076 2.8379905 2.3509755e-38
-0.73638487 0.65816623 2.8399525 2.3509755e-38
-0.71856594 0.64989293 2.8461797 2.3509755e-38
-0.71011472 0.64805853 2.8501115 2.3509757e-38
-0.7058894 0.64713871 2.8520758 2.3509757e-38
-0.68702877 0.64390177 2.8612521 2.3509757e-38
-0.68276751 0.64296919 2.8632309 2.3509758e-38
-0.64921719 0.64965868 2.8853819 2.3509758e-38
-0.6281113 0.66728789 2.9056015 2.3509758e-38
-0.62381321 0.66634744 2.9075975 2.3509758e-38
-0.54643482 0.64953536 2.9435885 2.3509759e-38
-0.54307216 0.65325797 2.9472382 2.3509759e-38
-0.53222859 0.6561265 2.9547281 2.3509759e-38
-0.52450198 0.65893722 2.9604242 2.3509761e-38
-0.52016693 0.6579932 2.96244 2.3509761e-38
-0.51583159 0.65704954 2.9644554 2.3509761e-38
-0.51149648 0.65610564 2.9664712 2.3509761e-38
-0.5062176 0.65046352 2.9668219 2.3509762e-38
-0.48698905 0.63729209 2.9715543 2.3509762e-38
-0.46531299 0.63257313 2.981632 2.3509762e-38
-0.46138152 0.6327461 2.9839413 2.3509764e-38
-0.45700842 0.6317938 2.985975 2.3509764e-38
-0.45230737 0.62974179 2.9876788 2.3509764e-38
-0.42871577 0.62720686 2.9998651 2.3509765e-38
-0.4139379 0.59136945 2.9914613 2.3509765e-38
-0.35665551 0.56771958 3.0128593 2.3509765e-38
-0.35053426 0.56622034 3.0156269 2.3509765e-38
-0.33098796 0.56281483 3.0251129 2.3509767e-38
-0.30007291 0.56828517 3.0451996 2.3509767e-38
-0.29380336 0.56674957 3.0480344 2.3509767e-38
-0.27230746 0.5530501 3.0538049 2.3509768e-38
-0.24409604 0.55120242 3.0689323 2.3509768e-38
-0.20642528 0.53832543 3.0842571 2.3509768e-38
-0.18355146 0.53444445 3.0954061 2.3509768e-38
-0.17707075 0.53285694 3.0983367 2.3509769e-38
-0.17059004 0.53126949 3.1012671 2.3509769e-38
-0.16410911 0.5296821 3.1041975 2.3509769e-38
-0.1576283 0.52809477 3.1071279 2.3509771e-38
-0.15114769 0.52650708 3.1100588 2.3509771e-38
-0.14466687 0.52491975 3.1129889 2.3509771e-38
-0.12080856 0.52457422 3.1263518 2.3509771e-38
-0.10327076 0.52562541 3.136786 2.3509772e-38
-0.0966774 0.52401072 3.1397669 2.3509772e-38
-0.057795368 0.51626295 3.1581807 2.3509772e-38
-0.04916909 0.48707843 3.1494045 2.3509774e-38
-0.036710765 0.46597892 3.1465874 2.3509774e-38
-0.020419752 0.45296463 3.1497283 2.3509774e-38
-0.0079612108 0.43186516 3.1469109 2.3509775e-38
0.014080553 0.39939457 3.1442008 2.3509775e-38
0.033013888 0.35479486 3.1340499 2.3509775e-38
0.071579508 0.33116674 3.1448479 2.3509775e-38
0.078287333 0.32952371 3.147881 2.3509776e-38
0.081162743 0.31979555 3.1449556 2.3509776e-38
0.093621053 0.29869613 3.1421382 2.3509776e-38
0.108955 0.26786849 3.1363955 2.3509778e-38
0.12812126 0.24512592 3.1366112 2.3509778e-38
0.13099673 0.23539774 3.1336858 2.3509778e-38
0.13387203 0.22566949 3.1307607 2.3509778e-38
0.14633051 0.20457004 3.127943 2.3509779e-38
0.14920588 0.1948418 3.1250179 2.3509779e-38
0.15208128 0.18511364 3.1220925 2.3509779e-38
0.15783194 0.16565698 3.1162419 2.3509781e-38
0.1607074 0.15592888 3.1133165 2.3509781e-38
0.16358259 0.14620072 3.1103914 2.3509781e-38
0.1664581 0.13647264 3.1074657 2.3509782e-38
0.18466718 0.095916666 3.0987978 2.3509782e-38
0.19904396 0.047275573 3.0841713 2.3509782e-38
0.2086273 0.035904426 3.0842791 2.3509782e-38
0.22779357 0.013161747 3.0844948 2.3509783e-38
0.23737675 0.0017904881 3.0846024 2.3509783e-38
0.24025205 -0.0079377498 3.0816772 2.3509783e-38
0.25271058 -0.029037161 3.0788596 2.3509785e-38
0.25558594 -0.038765401 3.0759344 2.3509785e-38
0.26804438 -0.0598648 3.073117 2.3509785e-38
0.27091971 -0.069593035 3.0701919 2.3509785e-38
0.27379513 -0.079321176 3.0672665 2.3509786e-38
0.28529656 -0.11823411 3.0555651 2.3509786e-38
0.2948795 -0.12960549 3.0556731 2.3509786e-38
0.30733824 -0.1507048 3.0528555 2.3509788e-38
0.38004604 -0.14723942 3.0956941 2.3509788e-38
0.38477719 -0.1239749 3.1092699 2.3509788e-38
0.36949933 -0.079925209 3.1212358 2.3509788e-38
0.37014025 -0.071983814 3.1253176 2.3509789e-38
0.3481105 -0.018255176 3.1379881 2.3509789e-38
0.34505489 -0.0094452091 3.1403811 2.3509789e-38
0.33283263 0.025794681 3.1499541 2.350979e-38
0.32977715 0.034604609 3.1523471 2.350979e-38
0.33040377 0.067946129 3.1683142 2.350979e-38
0.32732502 0.076822899 3.1707258 2.3509792e-38
0.32424626 0.085699551 3.1731372 2.3509792e-38
0.32517129 0.11993718 3.1896935 2.3509792e-38
0.32206833 0.12888414 3.1921237 2.3509792e-38
0.31896526 0.13783094 3.1945541 2.3509793e-38
0.31586218 0.1467777 3.1969845 2.3509793e-38
0.30345008 0.182565 3.206706 2.3509793e-38
0.30034703 0.19151179 3.2091365 2.3509795e-38
0.29103792 0.21835247 3.2164276 2.3509795e-38
0.31195799 0.2437028 3.2401569 2.3509795e-38
0.3237077 0.28154486 3.2645369 2.3509795e-38
0.36885285 0.32363504 3.3098376 2.3509796e-38
0.35176292 0.36242741 3.3183146 2.3509796e-38
0.31946528 0.3835296 3.3098872 2.3509796e-38
0.29847613 0.39296263 3.3024056 2.3509797e-38
0.28194201 0.40160698 3.2970808 2.3509797e-38
0.29523778 0.40227163 3.304929 2.3509797e-38
0.31293535 0.40230134 3.314975 2.3509799e-38
0.31682652 0.40136659 3.3167431 2.3509799e-38
0.33467302 0.40121967 3.3267915 2.3509799e-38
0.34973407 0.3889302 3.3295741 2.3509799e-38
0.37556836 0.37845641 3.3393149 2.35098e-38
0.37952465 0.37750608 3.3411126 2.35098e-38
0.40228906 0.37629461 3.3534496 2.35098e-38
0.42170244 0.3762801 3.3644476 2.3509802e-38
0.44124278 0.37608179 3.375432 2.3509802e-38
0.46843845 0.36484388 3.3855863 2.3509802e-38
0.50117815 0.36161929 3.4026356 2.3509802e-38
0.47187278 0.35497078 3.3829103 2.3509803e-38
0.42105472 0.36754048 3.3599885 2.3509803e-38
0.40499437 0.35800746 3.3464203 2.3509803e-38
0.39484897 0.31260833 3.319411 2.3509804e-38
0.4054445 0.29257283 3.3160355 2.3509804e-38
0.43911085 0.27044445 3.3247583 2.3509804e-38
0.48682073 0.26644605 3.3499312 2.3509804e-38
0.53289491 0.22268803 3.3555598 2.3509806e-38
0.55794251 0.22019768 3.3685925 2.3509806e-38
0.5655365 0.20924591 3.3677692 2.3509806e-38
0.57313055 0.19829427 3.366946 2.3509807e-38
0.57659519 0.18833435 3.3642464 2.3509807e-38
0.58005983 0.17837444 3.3615465 2.3509807e-38
0.58352441 0.16841459 3.3588469 2.3509809e-38
0.58698916 0.15845481 3.3561473 2.3509809e-38
0.59804791 0.13754302 3.3526244 2.3509809e-38
0.60151255 0.12758319 3.3499246 2.3509809e-38
0.61257124 0.10667183 3.3464012 2.350981e-38
0.61603582 0.096711896 3.3437018 2.350981e-38
0.61950058 0.086752087 3.341002 2.350981e-38
0.6229654 0.07679224 3.3383024 2.3509811e-38
0.63402408 0.055880681 3.3347793 2.3509811e-38
0.64161789 0.044928849 3.333956 2.3509811e-38
0.64508265 0.034969024 3.3312566 2.3509811e-38
0.64854747 0.025009282 3.3285565 2.3509813e-38
0.65134758 0.0060814768 3.321281 2.3509813e-38
0.66240615 -0.014830355 3.3177578 2.3509813e-38
0.66587096 -0.02479019 3.3150582 2.3509814e-38
0.67692959 -0.045701519 3.3115351 2.3509814e-38
0.68039429 -0.055661436 3.3088353 2.3509814e-38
0.68385899 -0.065621257 3.3061359 2.3509814e-38
0.68732369 -0.075581178 3.3034363 2.3509816e-38
0.69078833 -0.085540995 3.3007364 2.3509816e-38
0.69425315 -0.09550073 3.2980368 2.3509816e-38
0.69771779 -0.10546064 3.2953372 2.3509817e-38
0.70118254 -0.11542046 3.2926373 2.3509817e-38
0.7046473 -0.12538031 3.2899377 2.3509817e-38
0.71570587 -0.14629191 3.2864146 2.3509818e-38
0.71917063 -0.15625174 3.283715 2.3509818e-38
0.72263521 -0.16621156 3.2810154 2.3509818e-38
0.72609997 -0.17617139 3.2783158 2.3509818e-38
0.72956455 -0.18613133 3.2756162 2.350982e-38
0.7406233 -0.20704295 3.2720931 2.350982e-38
0.74408805 -0.21700281 3.2693934 2.350982e-38
0.74755281 -0.22696254 3.2666936 2.3509821e-38
0.75861138 -0.24787411 3.2631705 2.3509821e-38
0.76620525 -0.2588259 3.2623472 2.3509821e-38
0.76967019 -0.26878572 3.2596474 2.3509821e-38
0.77939969 -0.30763322 3.2469723 2.3509823e-38
0.78699362 -0.31858483 3.2461491 2.3509823e-38
0.79045826 -0.32854474 3.2434494 2.3509823e-38
0.79392296 -0.33850458 3.2407498 2.3509824e-38
0.80498183 -0.35941619 3.2372267 2.3509824e-38
0.80844641 -0.36937606 3.2345269 2.3509824e-38
0.81950504 -0.39028758 3.231004 2.3509825e-38
0.82296973 -0.40024745 3.2283044 2.3509825e-38
0.82643449 -0.41020733 3.2256048 2.3509825e-38
0.82989925 -0.42016715 3.2229049 2.3509825e-38
0.83336383 -0.43012708 3.2202055 2.3509827e-38
0.83682865 -0.44008687 3.2175055 2.3509827e-38
0.84029329 -0.45004681 3.2148061 2.3509827e-38
0.84375817 -0.46000651 3.2121062 2.3509828e-38
0.84722263 -0.46996647 3.2094066 2.3509828e-38
0.85068738 -0.47992617 3.2067068 2.3509828e-38
0.8610816 -0.50980574 3.1986077 2.3509828e-38
0.86801094 -0.52972543 3.1932085 2.350983e-38
0.8929286 -0.59047639 3.1788867 2.350983e-38
0.89639306 -0.60043633 3.1761873 2.350983e-38
0.899858 -0.61039609 3.1734872 2.3509831e-38
0.89309686 -0.65101719 3.1506338 2.3509831e-38
0.8965314 -0.6608904 3.1479576 2.3509831e-38
0.89996582 -0.67076343 3.1452813 2.3509831e-38
0.92532504 -0.72209519 3.1356206 2.3509832e-38
0.92875963 -0.73196822 3.1329446 2.3509832e-38
0.9262237 -0.77214813 3.1126926 2.3509832e-38
0.92962921 -0.78193772 3.110039 2.3509834e-38
0.91540772 -0.80972695 3.0889649 2.3509834e-38
0.91247654 -0.84858835 3.0691063 2.3509834e-38
0.91518199 -0.86687529 3.062077 2.3509835e-38
0.92586643 -0.88707924 3.0586731 2.3509835e-38
0.92921376 -0.89670187 3.0560648 2.3509835e-38
0.9319191 -0.91498911 3.0490355 2.3509835e-38
0.9292562 -0.9526419 3.0298948 2.3509837e-38
0.94875151 -1.0157776 3.0113828 2.3509837e-38
0.95407706 -1.0214691 3.0117366 2.3509837e-38
0.95502907 -1.0262086 3.010057 2.3509838e-38
0.95598125 -1.0309482 3.0083776 2.3509838e-38
0.95693326 -1.0356877 3.0066979 2.3509838e-38
0.95788544 -1.040427 3.0050182 2.3509838e-38
0.96588922 -1.101088 2.9811509 2.3509839e-38
0.9668414 -1.1058276 2.9794712 2.3509839e-38
0.96779346 -1.110567 2.9777918 2.3509839e-38
0.96874559 -1.1153065 2.9761121 2.3509841e-38
0.96668649 -1.1303248 2.9679127 2.3509841e-38
0.9651826 -1.1434755 2.9609022 2.3509841e-38
0.96206582 -1.1712098 2.9461486 2.3509842e-38
0.96261406 -1.208267 2.9291074 2.3509842e-38
0.96487057 -1.217494 2.9260659 2.3509842e-38
0.96647942 -1.2234213 2.9242024 2.3509842e-38
0.96310973 -1.2257557 2.9211993 2.3509844e-38
-2.5124805 0.20875959 1.6226944 2.3509844e-38
-2.4639709 0.20235103 1.6471924 2.3509844e-38
-2.43224 0.20177217 1.6649086 2.3509845e-38
-2.420249 0.19631882 1.6691527 2.3509845e-38
-2.3980541 0.18311781 1.6755528 2.3509845e-38
-2.3817165 0.17224532 1.6797229 2.3509845e-38
-2.3412101 0.17698212 1.7049034 2.3509846e-38
-2.3286433 0.17577478 1.7114617 2.3509846e-38
-2.3204949 0.17325394 1.7149003 2.3509846e-38
-2.3048456 0.1669385 1.7208145 2.3509848e-38
-2.2997146 0.16643324 1.7234864 2.3509848e-38
-2.2945833 0.1659279 1.7261585 2.3509848e-38
-2.2681401 0.16406727 1.7402773 2.3509848e-38
-2.2248924 0.11675432 1.7426387 2.3509849e-38
-2.2221267 0.1088723 1.7405158 2.3509849e-38
-2.2203603 0.082028747 1.7289475 2.3509849e-38
-2.2210715 0.057950202 1.7172697 2.3509851e-38
-2.2252419 0.042363409 1.707607 2.3509851e-38
-2.2314582 0.00393763 1.68609 2.3509851e-38
-2.2463219 -0.037650622 1.6581903 2.3509852e-38
-2.2142575 -0.098194554 1.6480168 2.3509852e-38
-2.2144892 -0.10176555 1.6462134 2.3509852e-38
-2.2013748 -0.12119523 1.6445497 2.3509852e-38
-2.1814013 -0.19582656 1.620926 2.3509853e-38
-2.1819892 -0.19849126 1.6193446 2.3509853e-38
-2.2411952 -0.21925075 1.576062 2.3509853e-38
-2.2629018 -0.20448293 1.5706719 2.3509855e-38
-2.2789319 -0.19897607 1.5641632 2.3509855e-38
-2.2943506 -0.19893584 1.5554419 2.3509855e-38
-2.3106446 -0.19338265 1.5488057 2.3509855e-38
-2.3265009 -0.19058587 1.5411267 2.3509856e-38
-2.3759737 -0.18799539 1.5142947 2.3509856e-38
-2.4019041 -0.17820671 1.504179 2.3509856e-38
-2.4100273 -0.17677397 1.5002451 2.3509858e-38
-2.4411707 -0.16243871 1.4893031 2.3509858e-38
-2.4492939 -0.16100599 1.4853694 2.3509858e-38
-2.4963391 -0.16509993 1.4567838 2.3509858e-38
-2.5150776 -0.15903844 1.4489998 2.3509859e-38
-2.562607 -0.14580245 1.4282541 2.3509859e-38
-2.5697997 -0.14175791 1.4260708 2.3509859e-38
-2.5868709 -0.13530093 1.4194167 2.350986e-38
-2.623354 -0.10813762 1.4114552 2.350986e-38
-2.6352153 -0.093742557 1.4114715 2.350986e-38
-2.6456246 -0.062886626 1.4200194 2.3509862e-38
-2.6301076 -0.027055923 1.4455931 2.3509862e-38
-2.6332955 0.0021180296 1.4574468 2.3509862e-38
-2.6367323 0.016287496 1.4621336 2.3509862e-38
-2.638783 0.055433381 1.4793017 2.3509863e-38
-2.6387179 0.066859119 1.4846884 2.3509863e-38
-2.6269355 0.096322261 1.5051637 2.3509863e-38
-2.6077266 0.11870461 1.5265332 2.3509865e-38
-2.6182361 0.16085431 1.5403124 2.3509865e-38
-2.5953195 0.21369702 1.5780472 2.3509865e-38
-2.5673988 0.21782111 1.5958059 2.3509865e-38
-2.5216334 0.21026988 1.6182128 2.3509866e-38
-2.5637302 -0.42370927 1.2974864 2.3509866e-38
-2.6218133 -0.37137917 1.2890648 2.3509866e-38
-2.616663 -0.3303979 1.3111739 2.3509867e-38
-2.6005423 -0.31815264 1.326046 2.3509867e-38
-2.6105437 -0.28570434 1.3355706 2.3509867e-38
-2.5529838 -0.23606902 1.3914418 2.3509869e-38
-2.5468297 -0.24072923 1.3927482 2.3509869e-38
-2.5413384 -0.24495272 1.3938833 2.3509869e-38
-2.5119622 -0.21826141 1.4230344 2.3509869e-38
-2.4981728 -0.20623328 1.4364834 2.350987e-38
-2.4804034 -0.19972877 1.4496021 2.350987e-38
-2.4372315 -0.20089385 1.4735296 2.350987e-38
-2.4130607 -0.20515734 1.4852355 2.3509872e-38
-2.3812788 -0.22185379 1.4954329 2.3509872e-38
-2.3572154 -0.23919664 1.5009532 2.3509872e-38
-2.3502522 -0.23817608 1.5053786 2.3509872e-38
-2.3323238 -0.23502895 1.5170151 2.3509873e-38
-2.2943177 -0.25029072 1.5314132 2.3509873e-38
-2.2864556 -0.25167742 1.5352205 2.3509873e-38
-2.2710757 -0.25644359 1.5417075 2.3509874e-38
-2.2087755 -0.31515542 1.5495319 2.3509874e-38
-2.2100401 -0.3232255 1.5450363 2.3509874e-38
-2.205677 -0.34203774 1.5387008 2.3509874e-38
-2.1935799 -0.36363247 1.5354463 2.3509876e-38
-2.1771505 -0.40575522 1.5250357 2.3509876e-38
-2.1654484 -0.42504483 1.522637 2.3509876e-38
-2.1604753 -0.44212756 1.5174568 2.3509877e-38
-2.1791768 -0.49430239 1.4824247 2.3509877e-38
-2.2246196 -0.49231011 1.4575968 2.3509877e-38
-2.2316489 -0.49131936 1.4540762 2.3509879e-38
-2.2527366 -0.48834708 1.443514 2.3509879e-38
-2.278209 -0.48768669 1.4293835 2.3509879e-38
-2.3051689 -0.47771394 1.4187706 2.3509879e-38
-2.3179977 -0.46801892 1.4160378 2.350988e-38
-2.3314843 -0.4484556 1.4175533 2.350988e-38
-2.374543 -0.46443668 1.3856614 2.350988e-38
-2.381789 -0.46341527 1.3820318 2.3509881e-38
-2.3986275 -0.45933494 1.374397 2.3509881e-38
-2.4402227 -0.43375793 1.3627946 2.3509881e-38
-2.4625857 -0.44265702 1.3459504 2.3509881e-38
-2.4858129 -0.43854457 1.3347095 2.3509883e-38
-2.4925537 -0.43757451 1.3313426 2.3509883e-38
-2.5323913 -0.43248269 1.3111436 2.3509883e-38
-2.5485666 -0.42520255 1.3053833 2.3509884e-38
-2.5536213 -0.42470482 1.3027511 2.3509884e-38
-2.5586758 -0.42420712 1.3001187 2.3509884e-38
