# .PCD v0.7 - Point Cloud Data file format
VERSION 0.7
FIELDS x y z rgb
SIZE 4 4 4 4
TYPE F F F F
COUNT 1 1 1 1
WIDTH 75
HEIGHT 1
VIEWPOINT 0 0 0 1 0 0 0
POINTS 75
DATA ascii
2.1317699 1.48439 -0.035043359 2.3509528e-38
2.1591599 1.432056 -0.016081901 2.3509532e-38
2.1802762 1.3897896 -0.0022080699 2.3509537e-38
2.1826615 1.3550699 -0.01225576 2.3509542e-38
2.1810377 1.341992 -0.01965596 2.3509547e-38
2.1941185 1.3004118 -0.017033916 2.3509552e-38
2.1965842 1.2638596 -0.027677309 2.3509556e-38
2.2008519 1.2358402 -0.032427832 2.3509561e-38
2.202713 1.2021993 -0.042808592 2.3509566e-38
2.2082243 1.1613108 -0.050768539 2.350957e-38
2.2076325 1.1457549 -0.05765067 2.3509576e-38
2.2143743 1.1221614 -0.057138238 2.350958e-38
2.2191558 1.0885663 -0.063315131 2.3509584e-38
2.2201006 1.0806969 -0.065013275 2.350959e-38
2.2213278 1.0720211 -0.066619575 2.3509594e-38
2.2237902 1.066547 -0.06521304 2.35096e-38
2.2266877 1.0586383 -0.06412746 2.3509604e-38
2.2435844 1.0349467 -0.049097009 2.3509608e-38
2.2469664 1.0331635 -0.044941064 2.3509614e-38
2.2832439 1.0042449 -0.004157817 2.3509618e-38
2.3063684 0.99757248 0.026400436 2.3509624e-38
2.3245969 0.98435676 0.04740338 2.3509628e-38
2.3281178 0.98250043 0.051730029 2.3509632e-38
2.3316386 0.98064405 0.056056723 2.3509638e-38
2.3435507 0.97024721 0.069098867 2.3509642e-38
2.3519676 0.96117026 0.077642769 2.3509647e-38
2.3618953 0.95596254 0.089853436 2.3509652e-38
2.3718233 0.95075488 0.10206395 2.3509656e-38
2.3849964 0.94398707 0.11832128 2.3509661e-38
2.391098 0.9419843 0.12629026 2.3509666e-38
2.4051094 0.9473753 0.14846531 2.3509671e-38
2.4074438 0.95776069 0.15583958 2.3509675e-38
2.4051416 0.96468949 0.15522714 2.350968e-38
2.4020107 0.97572249 0.15501864 2.3509685e-38
2.3947988 0.99193829 0.15097101 2.3509689e-38
2.3886104 1.0089409 0.14869526 2.3509695e-38
2.3752079 1.05976 0.14919603 2.3509699e-38
2.3746462 1.0762752 0.15479656 2.3509703e-38
2.3745344 1.0838896 0.15758957 2.3509709e-38
2.3733292 1.1443129 0.17929912 2.3509713e-38
2.3674135 1.1936626 0.18996106 2.3509719e-38
2.3672993 1.2014358 0.19281228 2.3509723e-38
2.3666539 1.2408545 0.20717674 2.3509727e-38
2.3609948 1.2671267 0.20925532 2.3509733e-38
2.3202343 1.295642 0.16188976 2.3509737e-38
2.3137929 1.30099 0.15473151 2.3509743e-38
2.2831585 1.3334423 0.12340737 2.3509747e-38
2.2647717 1.3564405 0.10597225 2.3509751e-38
2.2477753 1.3767822 0.089499749 2.3509757e-38
2.2408416 1.3761432 0.079313315 2.3509761e-38
2.2072194 1.4131368 0.045468204 2.3509767e-38
2.2004962 1.4560032 0.05245807 2.3509771e-38
2.2193594 1.4984423 0.095957682 2.3509775e-38
2.2202573 1.5540259 0.11880413 2.3509781e-38
2.2228761 1.579602 0.13247821 2.3509785e-38
2.2220626 1.5882505 0.13466661 2.350979e-38
2.2289195 1.6201874 0.15688276 2.3509795e-38
2.2366407 1.6436926 0.17706756 2.3509799e-38
2.235815 1.6524695 0.17928833 2.3509804e-38
2.2276354 1.6738195 0.1758448 2.3509809e-38
2.223913 1.6754085 0.17112553 2.3509814e-38
2.2080169 1.6696743 0.14611594 2.3509818e-38
2.2038131 1.6688449 0.13976841 2.3509823e-38
2.2020297 1.648101 0.12916611 2.3509828e-38
2.1977627 1.6016692 0.10504012 2.3509832e-38
2.1945562 1.5854636 0.094158344 2.3509838e-38
2.1930461 1.5727254 0.087052822 2.3509842e-38
2.1899877 1.5526155 0.074868955 2.3509846e-38
2.1912858 1.5443524 0.073524512 2.3509852e-38
2.1904857 1.5199863 0.062926821 2.3509856e-38
2.1880782 1.5008466 0.052051794 2.3509862e-38
2.1870701 1.4896249 0.0462543 2.3509866e-38
2.1336441 1.4992566 -0.026590614 2.350987e-38
2.1132169 1.5105115 -0.051505115 2.3509876e-38
2.1079781 1.5132596 -0.057948627 2.350988e-38
