# .PCD v0.7 - Point Cloud Data file format
VERSION 0.7
FIELDS x y z rgb
SIZE 4 4 4 4
TYPE F F F F
COUNT 1 1 1 1
WIDTH 51
HEIGHT 1
VIEWPOINT 0 0 0 1 0 0 0
POINTS 51
DATA ascii
1.4448675 1.547742 -1.4625384 2.3509528e-38
1.4478647 1.5442903 -1.4702568 2.3509535e-38
1.4284773 1.5362267 -1.4872417 2.3509542e-38
1.4177911 1.5268283 -1.5075105 2.3509549e-38
1.4129944 1.5219601 -1.5180386 2.3509556e-38
1.3803426 1.5129701 -1.536538 2.3509563e-38
1.3572241 1.4997452 -1.5647388 2.350957e-38
1.3691592 1.4798776 -1.6089534 2.3509577e-38
1.3710701 1.4766622 -1.6161087 2.3509584e-38
1.3724051 1.4742004 -1.6215814 2.3509591e-38
1.3810432 1.4607654 -1.6515032 2.3509598e-38
1.3661386 1.4495797 -1.6755397 2.3509605e-38
1.3497084 1.4476726 -1.6790874 2.3509612e-38
1.3270665 1.4457495 -1.6824244 2.3509619e-38
1.2992738 1.4451861 -1.6825633 2.3509626e-38
1.2910001 1.4442259 -1.6843498 2.3509633e-38
1.273543 1.4456413 -1.6805419 2.350964e-38
1.2496597 1.4492869 -1.6715689 2.3509647e-38
1.2259077 1.4499505 -1.6691668 2.3509654e-38
1.2181736 1.4498597 -1.6690601 2.3509661e-38
1.1871247 1.4562649 -1.6537281 2.3509668e-38
1.1641095 1.4619534 -1.6402918 2.3509675e-38
1.1313133 1.4664639 -1.6290616 2.3509682e-38
1.1150757 1.4701686 -1.6202617 2.3509689e-38
1.0924243 1.4750561 -1.6086038 2.3509696e-38
1.0600705 1.4786311 -1.5994503 2.3509703e-38
1.0225248 1.4923326 -1.5677968 2.350971e-38
1.0168225 1.5001163 -1.5504335 2.3509717e-38
1.025153 1.5092069 -1.5307492 2.3509724e-38
1.0337925 1.5207621 -1.5056509 2.3509731e-38
1.0339543 1.5236723 -1.4992497 2.3509738e-38
1.0389317 1.5292418 -1.487185 2.3509745e-38
1.0402869 1.530929 -1.4835241 2.3509752e-38
1.0525959 1.541576 -1.4605707 2.3509759e-38
1.073131 1.5505323 -1.4416654 2.3509767e-38
1.0979928 1.5563339 -1.4298775 2.3509774e-38
1.1307732 1.5816867 -1.3753579 2.3509781e-38
1.1486322 1.5807762 -1.3780702 2.3509788e-38
1.1596617 1.5805732 -1.3789542 2.3509795e-38
1.1873965 1.5701017 -1.4031076 2.3509802e-38
1.2026639 1.559918 -1.4261338 2.3509809e-38
1.2625443 1.5452368 -1.4608297 2.3509816e-38
1.285956 1.5498945 -1.451503 2.3509823e-38
1.2934362 1.5514498 -1.4483749 2.350983e-38
1.3343323 1.5599641 -1.4312496 2.3509837e-38
1.3421807 1.5640503 -1.4225643 2.3509844e-38
1.3503939 1.5766803 -1.3950827 2.3509851e-38
1.3587439 1.5793052 -1.3896344 2.3509858e-38
1.379107 1.5855967 -1.3765894 2.3509865e-38
1.4059032 1.573115 -1.4051318 2.3509872e-38
1.43222 1.5702472 -1.4124886 2.3509879e-38
