# .PCD v0.7 - Point Cloud Data file format
VERSION 0.7
FIELDS x y z rgb
SIZE 4 4 4 4
TYPE F F F F
COUNT 1 1 1 1
WIDTH 357
HEIGHT 1
VIEWPOINT 0 0 0 1 0 0 0
POINTS 357
DATA ascii
1.6595961 0.85129148 2.3485472 2.3509528e-38
1.6602679 0.8923946 2.3654833 2.3509528e-38
1.6557994 0.88902551 2.3736379 2.350953e-38
1.628144 0.86358541 2.422055 2.3509531e-38
1.6057349 0.81246573 2.4476385 2.3509531e-38
1.597679 0.80578887 2.4620705 2.3509532e-38
1.5914612 0.79939616 2.4726553 2.3509534e-38
1.578048 0.78185755 2.4938114 2.3509535e-38
1.5734648 0.77844363 2.5021939 2.3509535e-38
1.5688818 0.7750296 2.5105762 2.3509537e-38
1.5552986 0.76920581 2.5373414 2.3509538e-38
1.5360757 0.79555714 2.5906956 2.3509538e-38
1.4932659 0.7676264 2.6707654 2.3509539e-38
1.4869981 0.7666297 2.6838727 2.3509541e-38
1.4719071 0.75030577 2.7091999 2.3509542e-38
1.4683207 0.74778742 2.7158279 2.3509542e-38
1.4575617 0.74023247 2.7357113 2.3509544e-38
1.4340134 0.68600434 2.7623682 2.3509545e-38
1.4330113 0.68534225 2.7642388 2.3509545e-38
1.4326614 0.68502432 2.7648537 2.3509547e-38
1.4278337 0.67259443 2.7697303 2.3509548e-38
1.4271932 0.66353905 2.7670643 2.3509549e-38
1.425709 0.64953393 2.764008 2.3509549e-38
1.4248654 0.64458448 2.763618 2.3509551e-38
1.3937734 0.57353902 2.7990623 2.3509552e-38
1.3839432 0.57707191 2.8218982 2.3509552e-38
1.3793601 0.57365793 2.8302808 2.3509554e-38
1.3604143 0.54328161 2.8576567 2.3509555e-38
1.3593329 0.54240984 2.8596051 2.3509556e-38
1.3584611 0.53729588 2.8592019 2.3509556e-38
1.3575896 0.53218168 2.8587987 2.3509558e-38
1.3558463 0.52195352 2.8579924 2.3509559e-38
1.3549743 0.51683962 2.8575892 2.3509559e-38
1.3551841 0.51259702 2.8552377 2.3509561e-38
1.362253 0.50140023 2.8349435 2.3509562e-38
1.3669326 0.48886999 2.8192194 2.3509563e-38
1.3711849 0.46315631 2.7985206 2.3509563e-38
1.370744 0.44989038 2.7935393 2.3509565e-38
1.3733267 0.43226174 2.7800684 2.3509566e-38
1.3636088 0.36465582 2.7708347 2.3509566e-38
1.3627653 0.35970622 2.7704444 2.3509568e-38
1.3673959 0.35236296 2.7571464 2.3509569e-38
1.3754388 0.33192664 2.7306125 2.350957e-38
1.3693963 0.28083837 2.7208219 2.350957e-38
1.3647555 0.25012806 2.7171171 2.3509572e-38
1.3590969 0.20859888 2.7107728 2.3509573e-38
1.3505952 0.16842274 2.7111814 2.3509573e-38
1.3504727 0.14780156 2.7022209 2.3509575e-38
1.3552876 0.13110338 2.6843398 2.3509576e-38
1.3560847 0.11329903 2.6746502 2.3509577e-38
1.3558897 0.10800657 2.6727045 2.3509577e-38
1.3550328 0.098188631 2.6701653 2.3509579e-38
1.3541757 0.088370785 2.6676259 2.350958e-38
1.3584219 0.043553356 2.6383941 2.350958e-38
1.3603452 0.038802575 2.6321104 2.3509582e-38
1.36545 0.025275322 2.61502 2.3509583e-38
1.3605007 -0.029820178 2.6010725 2.3509584e-38
1.374797 -0.075582303 2.5496869 2.3509584e-38
1.3583167 -0.14393364 2.5547423 2.3509586e-38
1.3453757 -0.15647294 2.5771139 2.3509587e-38
1.3410199 -0.15975749 2.5850635 2.3509587e-38
1.3199426 -0.17704703 2.6229029 2.3509589e-38
1.3164012 -0.17977928 2.6293375 2.350959e-38
1.3128603 -0.18251155 2.635772 2.3509591e-38
1.309319 -0.18524387 2.6422067 2.3509591e-38
1.3057779 -0.18797608 2.6486411 2.3509593e-38
1.302237 -0.19070841 2.6550756 2.3509594e-38
1.287288 -0.20447785 2.6812384 2.3509594e-38
1.277198 -0.20544411 2.7026234 2.3509596e-38
1.2608445 -0.22488719 2.729285 2.3509597e-38
1.2531333 -0.23299775 2.7423306 2.3509598e-38
1.2486645 -0.23636681 2.7504854 2.3509598e-38
1.2401886 -0.24289705 2.7658906 2.35096e-38
1.2285173 -0.24571635 2.7898664 2.3509601e-38
1.2115619 -0.26117268 2.8196132 2.3509601e-38
1.2049553 -0.26405525 2.8326092 2.3509603e-38
1.1870313 -0.27142602 2.8680675 2.3509604e-38
1.1848518 -0.27104181 2.872952 2.3509605e-38
1.1735154 -0.26327014 2.9009416 2.3509605e-38
1.1653047 -0.26551667 2.9176903 2.3509607e-38
1.1553102 -0.26159853 2.9410539 2.3509608e-38
1.1466099 -0.2611241 2.9600782 2.3509608e-38
1.1396253 -0.25436294 2.9782052 2.350961e-38
1.1384966 -0.25527272 2.9802389 2.3509611e-38
1.133291 -0.26867753 2.9854982 2.3509612e-38
1.1323811 -0.27401522 2.9850774 2.3509612e-38
1.1314713 -0.27935287 2.9846566 2.3509614e-38
1.1296517 -0.2900283 2.983815 2.3509615e-38
1.1267034 -0.30161345 2.985007 2.3509615e-38
1.1246645 -0.30786091 2.9866199 2.3509617e-38
1.123755 -0.3131986 2.9861991 2.3509618e-38
1.1228451 -0.31853631 2.9857783 2.3509619e-38
1.1219352 -0.32387397 2.9853578 2.3509619e-38
1.1203346 -0.33897725 2.9820619 2.3509621e-38
1.1194248 -0.34431487 2.9816411 2.3509622e-38
1.118515 -0.34965253 2.9812202 2.3509622e-38
1.1176051 -0.35499021 2.9807994 2.3509624e-38
1.1137469 -0.37191314 2.9815707 2.3509625e-38
1.1098888 -0.388836 2.9823422 2.3509626e-38
1.0951465 -0.42500213 2.9980388 2.3509626e-38
1.0805187 -0.44536215 3.0205586 2.3509628e-38
1.0759335 -0.44881928 3.0289264 2.3509629e-38
1.075062 -0.45880792 3.0263426 2.3509629e-38
1.0741899 -0.46879649 3.0237594 2.3509631e-38
1.0523617 -0.52257961 3.0468962 2.3509632e-38
1.0514896 -0.53256822 3.0443125 2.3509633e-38
1.0506177 -0.54255676 3.041729 2.3509633e-38
1.0434171 -0.57597977 3.0423462 2.3509635e-38
1.0379597 -0.58942556 3.0481308 2.3509636e-38
1.0325028 -0.60287142 3.0539148 2.3509636e-38
1.0224603 -0.61977428 3.0680666 2.3509638e-38
1.0152595 -0.65319729 3.0686839 2.3509639e-38
1.0098027 -0.66664296 3.0744681 2.350964e-38
0.99976039 -0.68354595 3.0886202 2.350964e-38
0.98600471 -0.69391727 3.1137233 2.3509642e-38
0.97770607 -0.69084287 3.1330423 2.3509643e-38
0.97683424 -0.70083153 3.1304586 2.3509643e-38
0.982517 -0.73387182 3.1033893 2.3509645e-38
0.98164535 -0.74386054 3.1008058 2.3509646e-38
0.98448652 -0.76038051 3.087271 2.3509647e-38
0.98297036 -0.78400356 3.0799813 2.3509647e-38
0.98492867 -0.81371248 3.0624554 2.3509649e-38
0.98407167 -0.82353026 3.0599158 2.350965e-38
0.98321486 -0.83334821 3.0573764 2.350965e-38
0.98235786 -0.84316611 3.0548372 2.3509652e-38
0.98150057 -0.85298395 3.0522978 2.3509653e-38
0.98064375 -0.86280191 3.0497584 2.3509654e-38
0.98637795 -0.8978973 3.0216579 2.3509654e-38
0.98552829 -0.90763158 3.0191402 2.3509656e-38
0.98467863 -0.91736585 3.0166225 2.3509657e-38
0.98415333 -0.92935324 3.0123956 2.3509657e-38
0.98523092 -0.97737539 2.9885812 2.3509659e-38
0.98341125 -0.98805076 2.9877396 2.350966e-38
0.98112965 -0.99841511 2.9880362 2.3509661e-38
0.98023993 -1.0049587 2.9870329 2.3509661e-38
0.98230422 -1.0325522 2.9702244 2.3509663e-38
0.98161942 -1.0422326 2.9673743 2.3509664e-38
0.97505552 -1.09773 2.9567385 2.3509664e-38
0.97415352 -1.1030213 2.9563215 2.3509666e-38
0.97325182 -1.1083124 2.9559042 2.3509667e-38
0.97515345 -1.1444926 2.9356058 2.3509668e-38
0.97354662 -1.181993 2.922303 2.3509668e-38
0.97265232 -1.1872394 2.9218893 2.350967e-38
0.97175819 -1.1924858 2.9214759 2.3509671e-38
0.97086388 -1.1977324 2.9210622 2.3509671e-38
0.96996957 -1.2029788 2.9206486 2.3509673e-38
0.96907544 -1.2082253 2.9202352 2.3509674e-38
0.96818113 -1.2134717 2.9198215 2.3509675e-38
0.96728706 -1.2187182 2.9194078 2.3509675e-38
0.97448397 -1.2180247 2.904156 2.3509677e-38
0.9834379 -1.2270193 2.8807714 2.3509678e-38
0.9876895 -1.2238137 2.8730123 2.3509678e-38
0.99619305 -1.2174021 2.8574939 2.350968e-38
1.0007539 -1.2138877 2.8492045 2.3509681e-38
1.0171689 -1.2014424 2.8192794 2.3509682e-38
1.0213529 -1.1982875 2.8116436 2.3509682e-38
1.0255371 -1.1951329 2.8040075 2.3509684e-38
1.0297213 -1.191978 2.7963719 2.3509685e-38
1.0339053 -1.1888233 2.7887359 2.3509685e-38
1.0462825 -1.179419 2.7661812 2.3509687e-38
1.0464579 -1.179359 2.7658284 2.3509688e-38
1.0504327 -1.1762898 2.7586069 2.3509689e-38
1.0587333 -1.1700313 2.7434585 2.3509689e-38
1.0628837 -1.1669019 2.7358847 2.3509691e-38
1.0670341 -1.1637727 2.7283103 2.3509692e-38
1.0788114 -1.1548238 2.7068484 2.3509692e-38
1.0829294 -1.1517189 2.6993332 2.3509694e-38
1.0946096 -1.142843 2.6780481 2.3509695e-38
1.1220874 -1.1220599 2.6279325 2.3509696e-38
1.1261424 -1.1190025 2.6205325 2.3509696e-38
1.1464181 -1.1037153 2.5835307 2.3509698e-38
1.1496027 -1.1012449 2.57775 2.3509699e-38
1.1504729 -1.1006578 2.5761306 2.3509699e-38
1.154528 -1.0976003 2.5687301 2.3509701e-38
1.1585832 -1.0945429 2.5613298 2.3509702e-38
1.1697166 -1.0860795 2.541043 2.3509703e-38
1.18045 -1.0779209 2.5214849 2.3509703e-38
1.1844418 -1.074911 2.5141997 2.3509705e-38
1.1947505 -1.067076 2.495415 2.3509706e-38
1.1987137 -1.064088 2.488183 2.3509706e-38
1.2026764 -1.0611001 2.4809511 2.3509708e-38
1.2066394 -1.0581123 2.4737189 2.3509709e-38
1.2106023 -1.0551243 2.4664867 2.350971e-38
1.2185279 -1.0491484 2.4520228 2.350971e-38
1.2207357 -1.0474215 2.4480217 2.3509712e-38
1.2286032 -1.0414897 2.4336641 2.3509713e-38
1.2325364 -1.0385237 2.4264855 2.3509713e-38
1.2364703 -1.0355579 2.4193068 2.3509715e-38
1.2464287 -1.0279869 2.4011612 2.3509716e-38
1.2503332 -1.025043 2.3940358 2.3509717e-38
1.2542377 -1.0220991 2.3869104 2.3509717e-38
1.2640795 -1.0146163 2.368978 2.3509719e-38
1.2679545 -1.0116944 2.3619058 2.350972e-38
1.2718297 -1.0087725 2.3548336 2.350972e-38
1.275705 -1.0058506 2.3477616 2.3509722e-38
1.2795804 -1.0029287 2.3406892 2.3509723e-38
1.2834555 -1.0000068 2.333617 2.3509724e-38
1.2873311 -0.99708498 2.3265448 2.3509724e-38
1.2893784 -0.99560404 2.3227811 2.3509726e-38
1.2912064 -0.99416316 2.3194726 2.3509727e-38
1.298957 -0.9883194 2.3053284 2.3509727e-38
1.3028322 -0.9853974 2.2982562 2.3509729e-38
1.3067077 -0.98247558 2.2911839 2.350973e-38
1.3161696 -0.97527897 2.2739444 2.3509731e-38
1.3200158 -0.97237909 2.2669253 2.3509731e-38
1.3238618 -0.9694792 2.2599063 2.3509733e-38
1.327708 -0.96657932 2.2528875 2.3509734e-38
1.3354002 -0.96077961 2.2388499 2.3509734e-38
1.3367358 -0.95971292 2.2364383 2.3509736e-38
1.339246 -0.95787966 2.2318308 2.3509737e-38
1.3430921 -0.95497978 2.2248118 2.3509738e-38
1.3520098 -0.94819695 2.2085645 2.3509738e-38
1.3558283 -0.94531792 2.201596 2.350974e-38
1.3596468 -0.94243902 2.1946278 2.3509741e-38
1.363465 -0.93955994 2.1876593 2.3509741e-38
1.3722442 -0.93288141 2.1716642 2.3509743e-38
1.3806943 -0.92645454 2.1562686 2.3509744e-38
1.3836166 -0.92430687 2.1509101 2.3509745e-38
1.3844588 -0.92361605 2.1493983 2.3509745e-38
1.3874075 -0.92144865 2.1439922 2.3509747e-38
1.3911984 -0.91859066 2.1370742 2.3509748e-38
1.394989 -0.91573238 2.1301563 2.3509748e-38
1.4032822 -0.90942371 2.115047 2.350975e-38
1.4070468 -0.90658528 2.1081767 2.3509751e-38
1.4155232 -0.90013486 2.0927343 2.3509752e-38
1.4183409 -0.8980698 2.0875659 2.3509752e-38
1.41926 -0.89731723 2.0859144 2.3509754e-38
1.4214486 -0.88138241 2.0883114 2.3509755e-38
1.4249126 -0.84013611 2.0992742 2.3509755e-38
1.4422568 -0.80550838 2.0772638 2.3509757e-38
1.4393688 -0.77883518 2.0954413 2.3509758e-38
1.4437969 -0.72479379 2.110044 2.3509759e-38
1.4440182 -0.7173351 2.1129029 2.3509759e-38
1.4441094 -0.70234275 2.1194127 2.3509761e-38
1.444332 -0.69483507 2.1222899 2.3509762e-38
1.4445547 -0.6873275 2.1251674 2.3509762e-38
1.4426432 -0.66842318 2.1377585 2.3509764e-38
1.4481354 -0.63382977 2.1413593 2.3509765e-38
1.4480481 -0.6010803 2.1561992 2.3509767e-38
1.448238 -0.59386909 2.1590154 2.3509767e-38
1.4450388 -0.57504243 2.1743553 2.3509768e-38
1.4445033 -0.56252307 2.181114 2.3509769e-38
1.444726 -0.55501544 2.1839912 2.3509769e-38
1.4449486 -0.54750782 2.1868689 2.3509771e-38
1.4451712 -0.54000014 2.1897464 2.3509772e-38
1.4448259 -0.53138059 2.1943491 2.3509774e-38
1.44505 -0.52382076 2.1972468 2.3509774e-38
1.4454983 -0.50870115 2.2030416 2.3509775e-38
1.4462575 -0.49625927 2.2069666 2.3509776e-38
1.4466255 -0.49121332 2.2084281 2.3509776e-38
1.4466444 -0.48154932 2.2127111 2.3509778e-38
1.4468377 -0.47419423 2.2155833 2.3509779e-38
1.4470311 -0.46683913 2.2184556 2.3509781e-38
1.4477867 -0.45729744 2.2210903 2.3509781e-38
1.4479954 -0.44993147 2.2239347 2.3509782e-38
1.4482043 -0.44256553 2.226779 2.3509783e-38
1.4484127 -0.43519944 2.2296231 2.3509783e-38
1.4481918 -0.42270902 2.2356892 2.3509785e-38
1.4483855 -0.41535398 2.2385614 2.3509786e-38
1.4452775 -0.38902855 2.2570591 2.3509788e-38
1.4492873 -0.36120468 2.2608366 2.3509788e-38
1.4495002 -0.35368949 2.2637384 2.3509789e-38
1.4497132 -0.3461743 2.2666402 2.350979e-38
1.4466985 -0.31897345 2.2853277 2.350979e-38
1.4464848 -0.30848151 2.290484 2.3509792e-38
1.446699 -0.30091435 2.293406 2.3509793e-38
1.4454955 -0.29348558 2.2993324 2.3509795e-38
1.4461001 -0.27049023 2.3083124 2.3509795e-38
1.4463017 -0.26282522 2.3113055 2.3509796e-38
1.4465034 -0.25516006 2.3142989 2.3509797e-38
1.4467051 -0.24749506 2.3172922 2.3509797e-38
1.4469067 -0.23982996 2.3202856 2.3509799e-38
1.4468043 -0.22792193 2.325834 2.35098e-38
1.4470074 -0.22020255 2.3288486 2.3509802e-38
1.4469662 -0.20808941 2.3343568 2.3509802e-38
1.4471706 -0.20031567 2.3373926 2.3509803e-38
1.4465282 -0.19681981 2.3403459 2.3509804e-38
1.4457273 -0.18948235 2.3453598 2.3509804e-38
1.4471823 -0.16099384 2.3549592 2.3509806e-38
1.4443536 -0.1233039 2.377938 2.3509807e-38
1.442646 -0.11093096 2.3871658 2.3509809e-38
1.4431341 -0.094473518 2.3934731 2.3509809e-38
1.4433781 -0.086244792 2.3966269 2.350981e-38
1.443622 -0.078016073 2.3997808 2.3509811e-38
1.4438659 -0.069787368 2.4029348 2.3509811e-38
1.4449893 -0.058135688 2.4057183 2.3509813e-38
1.4454294 -0.048932783 2.4088836 2.3509814e-38
1.4461091 -0.038711812 2.4119875 2.3509816e-38
1.4458506 -0.03293141 2.4151328 2.3509816e-38
1.4453299 -0.020415157 2.4218574 2.3509817e-38
1.4450113 -0.007024196 2.4285376 2.3509818e-38
1.4452573 0.0012664604 2.431715 2.3509818e-38
1.4455028 0.0095571158 2.4348927 2.350982e-38
1.4457489 0.017847713 2.4380701 2.3509821e-38
1.4467398 0.044044979 2.4476478 2.3509823e-38
1.4459978 0.048300631 2.4511557 2.3509823e-38
1.4435639 0.08149454 2.4712691 2.3509824e-38
1.4437776 0.089616716 2.4744411 2.3509825e-38
1.4434533 0.096513711 2.4782276 2.3509825e-38
1.4436686 0.1046966 2.4814229 2.3509827e-38
1.4438837 0.11287957 2.4846184 2.3509828e-38
1.4440988 0.12106246 2.4878142 2.350983e-38
1.4443144 0.12924533 2.4910097 2.350983e-38
1.4479762 0.15284568 2.4936502 2.3509831e-38
1.4479622 0.17650136 2.5042641 2.3509832e-38
1.448215 0.18504338 2.5075378 2.3509832e-38
1.4457947 0.20238164 2.5205288 2.3509834e-38
1.4460113 0.21062544 2.5237479 2.3509835e-38
1.4462284 0.21886905 2.5269673 2.3509837e-38
1.4460534 0.22671089 2.5308533 2.3509837e-38
1.4457082 0.23484501 2.5352392 2.3509838e-38
1.4459282 0.24321331 2.5385075 2.3509839e-38
1.4461483 0.25158164 2.5417752 2.3509839e-38
1.4511812 0.27994376 2.5435817 2.3509841e-38
1.4522816 0.32178533 2.5599215 2.3509842e-38
1.4525018 0.33015352 2.5631893 2.3509844e-38
1.4527216 0.33852184 2.5664573 2.3509844e-38
1.4478928 0.36200193 2.5874038 2.3509845e-38
1.4477682 0.37997469 2.5957136 2.3509846e-38
1.4482188 0.39710766 2.6024044 2.3509846e-38
1.4484444 0.40567413 2.6057496 2.3509848e-38
1.4478843 0.42134565 2.613971 2.3509849e-38
1.4493072 0.45856917 2.627548 2.3509851e-38
1.4495339 0.46720287 2.6309197 2.3509851e-38
1.4499881 0.48447007 2.6376629 2.3509852e-38
1.4493474 0.48641348 2.6399181 2.3509853e-38
1.4461585 0.50701016 2.6560285 2.3509853e-38
1.4532279 0.5472163 2.6587298 2.3509855e-38
1.4490237 0.57107925 2.6784964 2.3509856e-38
1.449268 0.57970375 2.6818266 2.3509858e-38
1.4466773 0.60157979 2.6972148 2.3509858e-38
1.4682032 0.67533046 2.6836658 2.3509859e-38
1.4727099 0.67866451 2.6754124 2.350986e-38
1.4900334 0.70670134 2.6504979 2.350986e-38
1.4949861 0.71560723 2.6437728 2.3509862e-38
1.5042427 0.72602618 2.6284194 2.3509863e-38
1.508901 0.72949618 2.6198995 2.3509865e-38
1.5135592 0.73296624 2.6113796 2.3509865e-38
1.5186043 0.73539931 2.6015592 2.3509866e-38
1.5275477 0.74201536 2.5851808 2.3509867e-38
1.5320197 0.7453233 2.5769913 2.3509867e-38
1.5364915 0.7486313 2.5688021 2.3509869e-38
1.5409635 0.75193924 2.5606129 2.350987e-38
1.5550658 0.76036131 2.5338874 2.3509872e-38
1.5596875 0.7638039 2.5254347 2.3509872e-38
1.568651 0.7662586 2.5071511 2.3509873e-38
1.5720201 0.7664026 2.4999313 2.3509874e-38
1.5761856 0.76647115 2.4909549 2.3509874e-38
1.5944211 0.79684842 2.4651148 2.3509876e-38
1.5982953 0.80021697 2.4582453 2.3509877e-38
1.6049238 0.80316097 2.44523 2.3509879e-38
1.6197671 0.80855793 2.4155493 2.3509879e-38
1.6344144 0.83166069 2.3942139 2.350988e-38
1.6378106 0.83428109 2.3880427 2.3509881e-38
1.6412067 0.83690161 2.3818717 2.3509881e-38
1.6531452 0.84050322 2.3576691 2.3509883e-38
1.6570964 0.8435244 2.3504772 2.3509884e-38
