# .PCD v0.7 - Point Cloud Data file format
VERSION 0.7
FIELDS x y z rgb
SIZE 4 4 4 4
TYPE F F F F
COUNT 1 1 1 1
WIDTH 135
HEIGHT 1
VIEWPOINT 0 0 0 1 0 0 0
POINTS 135
DATA ascii
0.45912093 0.95442474 -0.42517537 2.3509528e-38
0.46148252 0.95202684 -0.42230502 2.350953e-38
0.46329126 0.95019245 -0.42020318 2.3509532e-38
0.46591246 0.94752985 -0.41696817 2.3509535e-38
0.46852237 0.9448787 -0.41374633 2.3509538e-38
0.47085389 0.94251132 -0.41091087 2.3509541e-38
0.47264755 0.94069219 -0.40882653 2.3509544e-38
0.4752312 0.93806773 -0.40563524 2.3509547e-38
0.4778035 0.93545467 -0.40245703 2.3509549e-38
0.48010495 0.93311775 -0.39965659 2.3509552e-38
0.4818835 0.93131399 -0.39758971 2.3509554e-38
0.48442957 0.92872763 -0.39444214 2.3509556e-38
0.48696429 0.92615277 -0.39130765 2.3509559e-38
0.48923576 0.9238463 -0.38854206 2.3509562e-38
0.49099925 0.92205775 -0.38649276 2.3509565e-38
0.4927628 0.92026919 -0.38444334 2.3509568e-38
0.49452633 0.91848063 -0.38239393 2.350957e-38
0.49702343 0.91594392 -0.37930322 2.3509573e-38
0.49878135 0.91416103 -0.37726036 2.3509576e-38
0.50102079 0.91188699 -0.37453201 2.3509577e-38
0.50277489 0.91010797 -0.37249351 2.350958e-38
0.50524008 0.90760362 -0.36943987 2.3509583e-38
0.50745881 0.90535063 -0.36673555 2.3509586e-38
0.50920361 0.90358108 -0.36470798 2.3509589e-38
0.51164246 0.9011035 -0.36168498 2.3509591e-38
0.51338154 0.89933968 -0.35966396 2.3509594e-38
0.51557583 0.89711148 -0.35698804 2.3509597e-38
0.51798838 0.89466053 -0.35399556 2.35096e-38
0.51971805 0.89290625 -0.35198545 2.3509601e-38
0.52144778 0.89115202 -0.34997544 2.3509604e-38
0.52317744 0.88939774 -0.34796539 2.3509607e-38
0.52534354 0.88719809 -0.34532225 2.350961e-38
0.52815115 0.88434374 -0.34174475 2.3509612e-38
0.52986771 0.88260281 -0.33974996 2.3509615e-38
0.53222191 0.88021106 -0.33682519 2.3509618e-38
0.5356437 0.87674069 -0.33284882 2.3509621e-38
0.53735459 0.87500548 -0.33086056 2.3509624e-38
0.53906554 0.87327027 -0.32887238 2.3509625e-38
0.54118276 0.87112021 -0.32628608 2.3509628e-38
0.54288989 0.86938888 -0.3243022 2.3509631e-38
0.54459703 0.86765748 -0.32231838 2.3509633e-38
0.54669917 0.86552268 -0.31974947 2.3509636e-38
0.54840261 0.8637951 -0.31777 2.3509639e-38
0.55010593 0.86206758 -0.31579059 2.3509642e-38
0.55180937 0.86034 -0.31381106 2.3509645e-38
0.55351275 0.85861248 -0.31183162 2.3509647e-38
0.55521613 0.8568849 -0.30985215 2.3509649e-38
0.55691952 0.85515738 -0.30787268 2.3509652e-38
0.55862284 0.85342973 -0.30589318 2.3509654e-38
0.56032622 0.85170221 -0.30391374 2.3509657e-38
0.56257147 0.84942096 -0.30111575 2.350966e-38
0.56426919 0.84769911 -0.29914284 2.3509663e-38
0.5663206 0.8456158 -0.29663295 2.3509666e-38
0.5685395 0.84336126 -0.2938655 2.3509668e-38
0.5702278 0.84164894 -0.2919035 2.3509671e-38
0.57191616 0.83993667 -0.28994149 2.3509673e-38
0.57360452 0.83822435 -0.28797951 2.3509675e-38
0.57529283 0.83651209 -0.28601754 2.3509678e-38
0.57731229 0.83446115 -0.28354478 2.3509681e-38
0.57899684 0.83275265 -0.28158715 2.3509684e-38
0.58068144 0.83104414 -0.27962953 2.3509687e-38
0.5840506 0.82762718 -0.27571428 2.3509689e-38
0.58707887 0.82464576 -0.27625734 2.3509692e-38
0.59657848 0.81593257 -0.30687475 2.3509695e-38
0.60304725 0.81001437 -0.32840574 2.3509696e-38
0.6040321 0.80911583 -0.33179429 2.3509699e-38
0.60723382 0.80617547 -0.3419489 2.3509702e-38
0.60928196 0.80429679 -0.34854564 2.3509705e-38
0.65062022 0.76409566 -0.3784588 2.3509708e-38
0.65441108 0.76035792 -0.37888917 2.350971e-38
0.66125411 0.75363028 -0.38054207 2.3509713e-38
0.67834383 0.73690867 -0.38830122 2.3509716e-38
0.67981744 0.73548269 -0.38968641 2.3509719e-38
0.70184714 0.71402431 -0.40406168 2.350972e-38
0.71211988 0.70422828 -0.42027587 2.3509723e-38
0.73494399 0.68221831 -0.4452109 2.3509726e-38
0.74043238 0.67691606 -0.45077381 2.3509729e-38
0.74241722 0.67499477 -0.45261708 2.3509731e-38
0.75377214 0.66500103 -0.50825745 2.3509734e-38
0.7608397 0.65833306 -0.52265006 2.3509737e-38
0.7625702 0.65672684 -0.52736801 2.350974e-38
0.77050632 0.64922386 -0.54282492 2.3509743e-38
0.77183813 0.64838797 -0.56455749 2.3509744e-38
0.77308005 0.64746952 -0.57853651 2.3509747e-38
0.77191257 0.64920086 -0.60464704 2.350975e-38
0.77198869 0.64931238 -0.61309505 2.3509752e-38
0.7598182 0.66187537 -0.63716936 2.3509755e-38
0.74951565 0.67241931 -0.6534481 2.3509758e-38
0.73955375 0.68242544 -0.66063386 2.3509761e-38
0.72929698 0.69252878 -0.65902823 2.3509764e-38
0.72929233 0.69226861 -0.64705527 2.3509767e-38
0.72928333 0.69200325 -0.63465178 2.3509768e-38
0.73527467 0.68546349 -0.60673839 2.3509771e-38
0.73529488 0.6851694 -0.59434444 2.3509774e-38
0.73530394 0.6844418 -0.56184536 2.3509776e-38
0.724078 0.69490194 -0.53305668 2.3509779e-38
0.71669048 0.70188665 -0.51868761 2.3509782e-38
0.71494174 0.70347393 -0.51229388 2.3509785e-38
0.70961976 0.7084105 -0.49763635 2.3509788e-38
0.70086241 0.71662134 -0.4774808 2.350979e-38
0.69915009 0.7182371 -0.47400436 2.3509792e-38
0.69566554 0.72155708 -0.46837503 2.3509795e-38
0.67570692 0.74090779 -0.45126989 2.3509797e-38
0.67380625 0.74275631 -0.44990078 2.35098e-38
0.65895206 0.75719947 -0.43904081 2.3509803e-38
0.65719277 0.75889122 -0.43690363 2.3509806e-38
0.64199793 0.77360368 -0.42299768 2.3509809e-38
0.60017222 0.81528878 -0.43839973 2.3509811e-38
0.59455556 0.82108313 -0.44935712 2.3509814e-38
0.59315139 0.82253176 -0.45209649 2.3509816e-38
0.59129918 0.82445318 -0.45619196 2.3509818e-38
0.58883429 0.82702088 -0.46212524 2.3509821e-38
0.58741498 0.82848519 -0.46489421 2.3509824e-38
0.58553392 0.83043641 -0.46904597 2.3509827e-38
0.58043271 0.83558255 -0.47373426 2.350983e-38
0.5626533 0.85328364 -0.479444 2.3509832e-38
0.5581159 0.85781837 -0.48168093 2.3509835e-38
0.54661083 0.86925322 -0.48449194 2.3509838e-38
0.52214932 0.89389211 -0.50524056 2.3509839e-38
0.50131887 0.91472691 -0.51627547 2.3509842e-38
0.49220076 0.92372048 -0.51538616 2.3509845e-38
0.48604128 0.92982918 -0.5162937 2.3509848e-38
0.47384211 0.94183612 -0.51395041 2.3509851e-38
0.46829933 0.94726616 -0.51173311 2.3509853e-38
0.4563804 0.9589417 -0.50692987 2.3509856e-38
0.45073968 0.96446604 -0.5046044 2.3509859e-38
0.44700354 0.96805888 -0.50006562 2.3509862e-38
0.43828258 0.97608989 -0.47340488 2.3509863e-38
0.43364179 0.98050159 -0.4654592 2.3509866e-38
0.43879095 0.97507113 -0.4500601 2.3509869e-38
0.4415099 0.97230935 -0.44671142 2.3509872e-38
0.44335428 0.97043884 -0.44456816 2.3509874e-38
0.44605643 0.96769416 -0.44123921 2.3509877e-38
0.45114449 0.96252692 -0.43501148 2.350988e-38
0.45730853 0.95626289 -0.42728156 2.3509883e-38
