# .PCD v0.7 - Point Cloud Data file format
VERSION 0.7
FIELDS x y z rgb
SIZE 4 4 4 4
TYPE F F F F
COUNT 1 1 1 1
WIDTH 713
HEIGHT 1
VIEWPOINT 0 0 0 1 0 0 0
POINTS 713
DATA ascii
2.2677248 2.0159767 -1.5416543 2.3509528e-38
2.2944756 2.0008759 -1.5335844 2.3509528e-38
2.3220603 2.0037408 -1.5174329 2.3509528e-38
2.3311164 2.0017016 -1.5133963 2.350953e-38
2.3401723 1.9996622 -1.5093591 2.350953e-38
2.3582842 1.9955835 -1.5012853 2.350953e-38
2.3673401 1.9935443 -1.4972484 2.3509531e-38
2.3763962 1.991505 -1.4932115 2.3509531e-38
2.3958724 1.9939218 -1.4816403 2.3509531e-38
2.4127228 1.9878016 -1.4751164 2.3509532e-38
2.4261184 1.9861377 -1.4685707 2.3509532e-38
2.4314771 1.9865769 -1.4654827 2.3509532e-38
2.4368358 1.9870161 -1.4623948 2.3509534e-38
2.4475534 1.9878944 -1.4562193 2.3509534e-38
2.4791574 1.9866455 -1.439639 2.3509535e-38
2.4846046 1.9870919 -1.4365003 2.3509535e-38
2.496891 1.9812261 -1.4323393 2.3509535e-38
2.5161059 1.9728839 -1.4254791 2.3509537e-38
2.5396786 1.9676933 -1.4149212 2.3509537e-38
2.5452178 1.9681474 -1.4117292 2.3509537e-38
2.5638969 1.9625022 -1.4040138 2.3509538e-38
2.5946159 1.9549329 -1.390597 2.3509538e-38
2.619338 1.9495229 -1.3795094 2.3509538e-38
2.6386166 1.9434934 -1.3716328 2.3509539e-38
2.6613076 1.9066174 -1.3750099 2.3509539e-38
2.6813157 1.856504 -1.3854613 2.3509539e-38
2.6841707 1.8463874 -1.3882123 2.3509541e-38
2.6810918 1.8135887 -1.4038097 2.3509541e-38
2.6839216 1.8035603 -1.4065367 2.3509542e-38
2.7041554 1.7755709 -1.4074696 2.3509542e-38
2.709842 1.7346345 -1.4217774 2.3509542e-38
2.7098186 1.7139314 -1.4305834 2.3509544e-38
2.7097952 1.6932281 -1.4393892 2.3509544e-38
2.7126503 1.6831114 -1.4421401 2.3509544e-38
2.7155054 1.6729947 -1.4448911 2.3509545e-38
2.7269487 1.6532316 -1.4470897 2.3509545e-38
2.7298036 1.643115 -1.4498405 2.3509545e-38
2.7269251 1.6325284 -1.4558953 2.3509547e-38
2.726902 1.6118251 -1.4647013 2.3509547e-38
2.7268784 1.5911219 -1.4735069 2.3509547e-38
2.6978636 1.5687129 -1.4987339 2.3509548e-38
2.6968138 1.5276337 -1.5167494 2.3509548e-38
2.6996663 1.5175569 -1.519485 2.3509549e-38
2.7111971 1.4963405 -1.5222528 2.3509549e-38
2.7140498 1.4862636 -1.5249885 2.3509549e-38
2.7255805 1.4650475 -1.5277565 2.3509551e-38
2.7284331 1.4549705 -1.5304918 2.3509551e-38
2.7312858 1.4448936 -1.5332274 2.3509551e-38
2.7428164 1.4236776 -1.5359955 2.3509552e-38
2.7570794 1.3732928 -1.549673 2.3509552e-38
2.7657576 1.3621538 -1.5497056 2.3509552e-38
2.7686102 1.3520768 -1.552441 2.3509554e-38
2.777168 1.3218459 -1.5606475 2.3509554e-38
2.7858465 1.3107066 -1.5606798 2.3509554e-38
2.7945247 1.2995675 -1.5607125 2.3509555e-38
2.7973771 1.2894906 -1.563448 2.3509555e-38
2.8002295 1.2794137 -1.5661834 2.3509556e-38
2.8117604 1.2581974 -1.5689514 2.3509556e-38
2.8146129 1.2481205 -1.571687 2.3509556e-38
2.8203182 1.2279665 -1.5771579 2.3509558e-38
2.8201978 1.2088751 -1.5853317 2.3509558e-38
2.8345811 1.177582 -1.5908353 2.3509558e-38
2.846112 1.1563659 -1.5936033 2.3509559e-38
2.8489647 1.1462889 -1.5963387 2.3509559e-38
2.8518174 1.136212 -1.5990741 2.3509559e-38
2.8546698 1.1261351 -1.6018096 2.3509561e-38
2.8662009 1.104919 -1.6045778 2.3509561e-38
2.8690534 1.094842 -1.6073132 2.3509561e-38
2.880584 1.0736257 -1.6100811 2.3509562e-38
2.8862894 1.053472 -1.6155523 2.3509562e-38
2.9208817 0.98982352 -1.6238563 2.3509563e-38
2.9322922 0.94951582 -1.634798 2.3509563e-38
2.94085 0.919285 -1.6430045 2.3509563e-38
2.9523807 0.8980689 -1.6457727 2.3509565e-38
2.9552333 0.88799202 -1.6485081 2.3509565e-38
2.9580858 0.87791508 -1.6512438 2.3509565e-38
2.9609385 0.86783803 -1.6539792 2.3509566e-38
2.9579656 0.85882354 -1.6594174 2.3509566e-38
2.9722285 0.80843878 -1.673095 2.3509566e-38
2.9867322 0.79623723 -1.6704247 2.3509568e-38
2.9864914 0.75805402 -1.6867721 2.3509568e-38
2.9980223 0.73683792 -1.6895403 2.3509568e-38
2.9979019 0.71774632 -1.6977141 2.3509569e-38
3.0007546 0.70766938 -1.7004493 2.3509569e-38
3.0209637 0.67531407 -1.7032502 2.350957e-38
3.0296419 0.66417485 -1.7032828 2.350957e-38
3.0324943 0.65409791 -1.7060181 2.350957e-38
3.0540464 0.61729807 -1.7099794 2.3509572e-38
3.0613813 0.61060321 -1.7088515 2.3509572e-38
3.0843832 0.59211141 -1.7042519 2.3509572e-38
3.0947528 0.58048207 -1.7035768 2.3509573e-38
3.064234 0.60052633 -1.7115867 2.3509573e-38
3.0584083 0.60158867 -1.7142897 2.3509573e-38
3.0525827 0.602651 -1.7169927 2.3509575e-38
3.0467572 0.60371327 -1.7196956 2.3509575e-38
3.0409317 0.60477561 -1.7223985 2.3509575e-38
3.0351062 0.60583776 -1.7251012 2.3509576e-38
3.0292804 0.60690016 -1.7278043 2.3509576e-38
2.994117 0.60172564 -1.74904 2.3509577e-38
2.9846036 0.60363668 -1.7533792 2.3509577e-38
2.9750903 0.60554767 -1.7577181 2.3509577e-38
2.9655766 0.60745889 -1.7620574 2.3509579e-38
2.9560633 0.60936975 -1.766396 2.3509579e-38
2.9465499 0.61128092 -1.7707355 2.3509579e-38
2.8955061 0.62252271 -1.7935965 2.350958e-38
2.8860729 0.6244176 -1.797899 2.350958e-38
2.8577738 0.63010234 -1.8108062 2.350958e-38
2.8483407 0.63199741 -1.8151089 2.3509582e-38
2.838908 0.63389224 -1.819411 2.3509582e-38
2.8294747 0.63578707 -1.8237133 2.3509582e-38
2.8106089 0.63957685 -1.8323178 2.3509583e-38
2.7889898 0.64490783 -1.8417588 2.3509583e-38
2.7796373 0.64678657 -1.8460245 2.3509584e-38
2.7702844 0.64866525 -1.8502902 2.3509584e-38
2.760932 0.65054417 -1.854556 2.3509584e-38
2.7540104 0.65094638 -1.8581324 2.3509586e-38
2.7351446 0.65473622 -1.866737 2.3509586e-38
2.7257116 0.65663117 -1.8710396 2.3509586e-38
2.7048161 0.6618166 -1.8801501 2.3509587e-38
2.6954634 0.66369539 -1.8844159 2.3509587e-38
2.6856179 0.66864324 -1.887645 2.3509587e-38
2.6708915 0.67206913 -1.894163 2.3509589e-38
2.662199 0.67377454 -1.898145 2.3509589e-38
2.6535022 0.67548114 -1.9021288 2.3509589e-38
2.6448019 0.67718863 -1.906114 2.350959e-38
2.6360967 0.67889726 -1.9101014 2.350959e-38
2.6273875 0.6806069 -1.9140905 2.3509591e-38
2.6186745 0.68231773 -1.9180814 2.3509591e-38
2.6099572 0.68402958 -1.9220742 2.3509591e-38
2.5913591 0.68559599 -1.931478 2.3509593e-38
2.582087 0.68745852 -1.935707 2.3509593e-38
2.5698965 0.69239372 -1.9402112 2.3509593e-38
2.5512271 0.69704574 -1.9483434 2.3509594e-38
2.5426111 0.69873726 -1.9522895 2.3509594e-38
2.5171814 0.70049685 -1.9653103 2.3509594e-38
2.4948506 0.70856285 -1.9739746 2.3509596e-38
2.4708641 0.71074957 -1.9860326 2.3509596e-38
2.4182475 0.70331889 -2.0176764 2.3509596e-38
2.393317 0.71323198 -2.0269637 2.3509597e-38
2.3848684 0.7151345 -2.0307298 2.3509597e-38
2.3764193 0.7170372 -2.0344961 2.3509598e-38
2.3679707 0.71893972 -2.0382624 2.3509598e-38
2.3519025 0.72624558 -2.043859 2.3509598e-38
2.3435252 0.7279914 -2.0476532 2.35096e-38
2.3183928 0.73322886 -2.0590355 2.35096e-38
2.3100152 0.73497468 -2.0628297 2.35096e-38
2.301549 0.73819643 -2.066045 2.3509601e-38
2.2859454 0.74600959 -2.0711751 2.3509601e-38
2.277622 0.74788386 -2.0748854 2.3509601e-38
2.2545202 0.7482304 -2.0872459 2.3509603e-38
2.2462633 0.74995685 -2.0909829 2.3509603e-38
2.2214925 0.75513619 -2.1021948 2.3509604e-38
2.2087207 0.76339304 -2.1056023 2.3509604e-38
2.199563 0.76710635 -2.1089833 2.3509604e-38
2.1905191 0.76892322 -2.1131082 2.3509605e-38
2.1748502 0.77297992 -2.1198688 2.3509605e-38
2.1596143 0.77690995 -2.1264484 2.3509605e-38
2.1306665 0.77412665 -2.1433034 2.3509607e-38
2.1224098 0.77585304 -2.1470406 2.3509607e-38
2.1116929 0.77710778 -2.1523099 2.3509607e-38
2.1033738 0.77884734 -2.1560752 2.3509608e-38
2.0893822 0.78275865 -2.1619892 2.3509608e-38
2.0811255 0.78448504 -2.1657262 2.3509608e-38
2.0728686 0.78621143 -2.1694636 2.350961e-38
2.0451367 0.79102385 -2.1824341 2.350961e-38
2.0419376 0.79084146 -2.1842434 2.3509611e-38
2.0284975 0.79450285 -2.189965 2.3509611e-38
2.0201781 0.79624248 -2.1937306 2.3509611e-38
2.0118585 0.79798192 -2.1974962 2.3509612e-38
2.0035388 0.79972136 -2.2012615 2.3509612e-38
1.9916731 0.8013165 -2.2070086 2.3509612e-38
1.9785802 0.80493999 -2.2125585 2.3509614e-38
1.9702605 0.80667937 -2.2163239 2.3509614e-38
1.9619409 0.80841893 -2.2200894 2.3509614e-38
1.9536215 0.81015849 -2.223855 2.3509615e-38
1.9453018 0.81189793 -2.2276204 2.3509615e-38
1.9330809 0.81346726 -2.2335708 2.3509615e-38
1.9246985 0.81521976 -2.2373645 2.3509617e-38
1.9120178 0.81706053 -2.2434483 2.3509617e-38
1.9035778 0.81881952 -2.2472708 2.3509618e-38
1.8951378 0.8205784 -2.2510936 2.3509618e-38
1.8866976 0.82233721 -2.2549157 2.3509618e-38
1.8782576 0.8240962 -2.2587385 2.3509619e-38
1.8651206 0.82597816 -2.2650516 2.3509619e-38
1.8529373 0.82937282 -2.270206 2.3509619e-38
1.8444973 0.8311317 -2.2740285 2.3509621e-38
1.8360573 0.83289063 -2.2778513 2.3509621e-38
1.8276172 0.8346495 -2.2816739 2.3509621e-38
1.819177 0.83640832 -2.2854962 2.3509622e-38
1.8107369 0.83816731 -2.2893188 2.3509622e-38
1.802297 0.83992624 -2.2931414 2.3509622e-38
1.793857 0.84168512 -2.2969642 2.3509624e-38
1.7854167 0.84344387 -2.3007863 2.3509624e-38
1.7769768 0.84520286 -2.3046091 2.3509625e-38
1.7715909 0.84546953 -2.3074117 2.3509625e-38
1.7630882 0.84724146 -2.3112626 2.3509625e-38
1.7545855 0.84901345 -2.3151135 2.3509626e-38
1.7460827 0.85078543 -2.3189642 2.3509626e-38
1.7375799 0.8525573 -2.3228152 2.3509626e-38
1.7318183 0.85290229 -2.3257885 2.3509628e-38
1.723253 0.85468727 -2.3296678 2.3509628e-38
1.706122 0.85825729 -2.3374262 2.3509628e-38
1.697557 0.86004239 -2.3413057 2.3509629e-38
1.6889914 0.86182731 -2.345185 2.3509629e-38
1.6804262 0.86361229 -2.3490641 2.3509629e-38
1.6718608 0.86539727 -2.3529434 2.3509631e-38
1.6632953 0.86718214 -2.3568225 2.3509631e-38
1.6547301 0.86896729 -2.360702 2.3509632e-38
1.6461647 0.87075222 -2.3645813 2.3509632e-38
1.6375993 0.8725372 -2.3684607 2.3509632e-38
1.629034 0.8743223 -2.3723397 2.3509633e-38
1.6204687 0.87610728 -2.3762193 2.3509633e-38
1.6119033 0.8778922 -2.3800983 2.3509633e-38
1.603338 0.87967736 -2.3839779 2.3509635e-38
1.5947726 0.88146228 -2.387857 2.3509635e-38
1.5862073 0.88324726 -2.3917365 2.3509635e-38
1.577642 0.8850323 -2.3956156 2.3509636e-38
1.5690765 0.88681728 -2.3994951 2.3509636e-38
1.5605111 0.88860226 -2.4033742 2.3509636e-38
1.5519458 0.89038724 -2.4072533 2.3509638e-38
1.5433805 0.89217228 -2.4111328 2.3509638e-38
1.5361838 0.89277118 -2.4147749 2.3509639e-38
1.5275526 0.89456993 -2.4186838 2.3509639e-38
1.5189211 0.89636862 -2.4225931 2.3509639e-38
1.5102899 0.89816749 -2.4265022 2.350964e-38
1.5016587 0.89996618 -2.4304116 2.350964e-38
1.4930273 0.90176487 -2.4343202 2.350964e-38
1.4834231 0.90466732 -2.4382877 2.3509642e-38
1.4748576 0.90645224 -2.442167 2.3509642e-38
1.4671335 0.90716112 -2.446048 2.3509642e-38
1.4585022 0.90895981 -2.4499569 2.3509643e-38
1.4498709 0.91075867 -2.4538665 2.3509643e-38
1.4412397 0.91255742 -2.4577754 2.3509643e-38
1.4306809 0.91380006 -2.4629641 2.3509645e-38
1.423977 0.91615486 -2.4655938 2.3509645e-38
1.4159766 0.91778654 -2.4692323 2.3509646e-38
1.4153457 0.91795361 -2.4695029 2.3509646e-38
1.4089264 0.91931921 -2.4723985 2.3509646e-38
1.4067144 0.91975236 -2.473412 2.3509647e-38
1.401876 0.92085195 -2.4755647 2.3509647e-38
1.3980831 0.92155099 -2.4773211 2.3509647e-38
1.3888007 0.92381561 -2.4813852 2.3509649e-38
1.3807893 0.92524755 -2.4851146 2.3509649e-38
1.3726796 0.9269591 -2.4887784 2.3509649e-38
1.3622692 0.92890805 -2.493587 2.350965e-38
1.3549267 0.93054485 -2.4968672 2.350965e-38
1.3462954 0.93234354 -2.5007763 2.350965e-38
1.3379214 0.93431336 -2.5044732 2.3509652e-38
1.3272679 0.93595862 -2.5095427 2.3509652e-38
1.3201077 0.93685502 -2.5130384 2.3509653e-38
1.3109959 0.9393999 -2.5168908 2.3509653e-38
1.3028686 0.9411189 -2.520561 2.3509653e-38
1.2947471 0.94283706 -2.5242286 2.3509654e-38
1.2853056 0.94410771 -2.5288005 2.3509654e-38
1.2766051 0.94592088 -2.5327411 2.3509654e-38
1.2584627 0.94880092 -2.5413404 2.3509656e-38
1.2496963 0.95062786 -2.5453107 2.3509656e-38
1.2418031 0.95317358 -2.5485032 2.3509656e-38
1.2331024 0.95498663 -2.5524437 2.3509657e-38
1.2244018 0.95679986 -2.5563841 2.3509657e-38
1.2157013 0.9586131 -2.5603247 2.3509657e-38
1.207001 0.96042627 -2.564265 2.3509659e-38
1.1968263 0.96271086 -2.5688033 2.3509659e-38
1.1886864 0.96443254 -2.5724792 2.350966e-38
1.1797237 0.96576709 -2.5767651 2.350966e-38
1.1707981 0.9670701 -2.5810442 2.350966e-38
1.1604917 0.96827221 -2.5861137 2.3509661e-38
1.1532651 0.97072387 -2.5889847 2.3509661e-38
1.1444986 0.97255081 -2.5929554 2.3509661e-38
1.1357321 0.97437769 -2.5969255 2.3509663e-38
1.1267933 0.97632724 -2.6009376 2.3509663e-38
1.116313 0.97747874 -2.6061223 2.3509663e-38
1.1074773 0.97932011 -2.6101241 2.3509664e-38
1.0966171 0.98063755 -2.6154444 2.3509664e-38
1.0877122 0.98249328 -2.6194775 2.3509664e-38
1.0721346 0.98668551 -2.6261311 2.3509666e-38
1.0609971 0.98806053 -2.6315765 2.3509666e-38
1.0544631 0.99036819 -2.6341345 2.3509667e-38
1.0456275 0.99220955 -2.6381364 2.3509667e-38
1.0367918 0.9940508 -2.6421375 2.3509667e-38
1.027956 0.99589223 -2.6461396 2.3509668e-38
1.0191203 0.99773347 -2.6501412 2.3509668e-38
1.0066384 1.0007157 -2.6556325 2.3509668e-38
0.99363971 1.0029311 -2.6617293 2.350967e-38
0.98758233 1.004127 -2.664501 2.350967e-38
0.98085302 1.0047626 -2.6678748 2.350967e-38
0.97737002 1.0053535 -2.6695094 2.3509671e-38
0.97194773 1.0066183 -2.6719074 2.3509671e-38
0.96985465 1.0070006 -2.6728787 2.3509673e-38
0.95948935 1.0083388 -2.677922 2.3509673e-38
0.94433922 1.0116324 -2.6847258 2.3509673e-38
0.93836486 1.0138588 -2.6870151 2.3509674e-38
0.93007523 1.0156132 -2.690758 2.3509674e-38
0.92161185 1.0165617 -2.6949375 2.3509674e-38
0.91403943 1.0182211 -2.6983323 2.3509675e-38
0.90596902 1.0193771 -2.7022104 2.3509675e-38
0.903216 1.0196348 -2.7035918 2.3509675e-38
0.89557558 1.021256 -2.7070396 2.3509677e-38
0.88794696 1.022928 -2.7104602 2.3509677e-38
0.88031805 1.0245997 -2.7138803 2.3509677e-38
0.87268925 1.0262716 -2.7173007 2.3509678e-38
0.85859692 1.0293961 -2.7236035 2.3509678e-38
0.85025328 1.0311627 -2.7273705 2.350968e-38
0.84191418 1.0329288 -2.7311354 2.350968e-38
0.82701516 1.0343254 -2.7386088 2.350968e-38
0.81927013 1.036009 -2.7420869 2.3509681e-38
0.80745018 1.0375916 -2.7478142 2.3509681e-38
0.79184109 1.0409849 -2.7548242 2.3509681e-38
0.77956992 1.042616 -2.7607751 2.3509682e-38
0.7673893 1.0442771 -2.7666645 2.3509682e-38
0.75506413 1.0495331 -2.7711051 2.3509682e-38
0.74661142 1.0513198 -2.7749226 2.3509684e-38
0.72775525 1.0528933 -2.7844634 2.3509684e-38
0.71190166 1.0563397 -2.7915828 2.3509684e-38
0.69319898 1.0620972 -2.7992637 2.3509685e-38
0.68474352 1.063888 -2.8030808 2.3509685e-38
0.67911702 1.0655959 -2.8054018 2.3509687e-38
0.66784436 1.067468 -2.8107097 2.3509687e-38
0.65899777 1.0668044 -2.8157814 2.3509687e-38
0.6482867 1.0711147 -2.8197501 2.3509688e-38
0.63980931 1.0729096 -2.8235774 2.3509688e-38
0.63133585 1.0747043 -2.8274028 2.3509688e-38
0.6228658 1.0764985 -2.8312268 2.3509689e-38
0.60534292 1.0774326 -2.8403172 2.3509689e-38
0.59729081 1.0791831 -2.8439333 2.3509689e-38
0.58311671 1.0811785 -2.8507595 2.3509691e-38
0.57499921 1.0829434 -2.8544052 2.3509691e-38
0.56688154 1.0847081 -2.8580506 2.3509691e-38
0.54252863 1.0900022 -2.8689868 2.3509692e-38
0.52138013 1.0924284 -2.8794069 2.3509692e-38
0.49663368 1.097808 -2.8905199 2.3509694e-38
0.45590246 1.0942446 -2.9140861 2.3509694e-38
0.45012969 1.0955935 -2.9166386 2.3509694e-38
0.44435698 1.0969424 -2.9191914 2.3509695e-38
0.43858424 1.0982913 -2.9217439 2.3509695e-38
0.43281126 1.0996401 -2.9242961 2.3509695e-38
0.42703864 1.100989 -2.9268489 2.3509696e-38
0.41440362 1.1026847 -2.9329696 2.3509696e-38
0.39240378 1.1091129 -2.9421504 2.3509696e-38
0.3866365 1.1103575 -2.9447446 2.3509698e-38
0.37368387 1.112142 -2.950999 2.3509698e-38
0.36787188 1.1135745 -2.9535372 2.3509698e-38
0.35487789 1.114549 -2.9601586 2.3509699e-38
0.34899566 1.1161377 -2.9626687 2.3509699e-38
0.34307715 1.1181014 -2.965039 2.3509701e-38
0.33723137 1.1193153 -2.9676886 2.3509701e-38
0.33134902 1.1209038 -2.9701984 2.3509701e-38
0.32546678 1.1224924 -2.9727082 2.3509702e-38
0.31958473 1.1240811 -2.9752185 2.3509702e-38
0.29810321 1.1364273 -2.9816051 2.3509702e-38
0.28075522 1.1390144 -2.9898987 2.3509703e-38
0.24911603 1.1365348 -3.0080819 2.3509703e-38
0.24310176 1.138159 -3.0106483 2.3509703e-38
0.2166598 1.1429921 -3.0229118 2.3509705e-38
0.21059936 1.144629 -3.0254977 2.3509705e-38
0.18340385 1.1495503 -3.0381312 2.3509705e-38
0.17729482 1.1512003 -3.0407383 2.3509706e-38
0.16250846 1.1528854 -3.0480282 2.3509706e-38
0.15635291 1.1545478 -3.0506546 2.3509708e-38
0.15019761 1.1562103 -3.0532813 2.3509708e-38
0.13478528 1.1579492 -3.0608871 2.3509708e-38
0.11927551 1.1597145 -3.0685346 2.3509709e-38
0.11302301 1.1614032 -3.0712028 2.3509709e-38
0.1067703 1.1630919 -3.0738707 2.3509709e-38
0.10051781 1.1647807 -3.0765388 2.350971e-38
0.084312595 1.1666181 -3.0845318 2.350971e-38
0.071705647 1.1700231 -3.0899115 2.350971e-38
0.0494041 1.1736227 -3.1004572 2.3509712e-38
0.043051943 1.1753384 -3.1031675 2.3509712e-38
0.0092182942 1.1797056 -3.1196308 2.3509712e-38
0.0028047599 1.1810147 -3.1225471 2.3509713e-38
-0.01453566 1.1830434 -3.1310737 2.3509713e-38
-0.021091431 1.1852582 -3.133683 2.3509715e-38
-0.027571866 1.1868554 -3.1365128 2.3509715e-38
-0.045108199 1.1886458 -3.1452467 2.3509715e-38
-0.051719472 1.1908888 -3.1478736 2.3509716e-38
-0.069969609 1.1935774 -3.1566126 2.3509716e-38
-0.076487198 1.194351 -3.1598127 2.3509716e-38
-0.083158664 1.1966363 -3.1624546 2.3509717e-38
-0.089747116 1.1982603 -3.1653318 2.3509717e-38
-0.09634231 1.1997132 -3.1682851 2.3509717e-38
-0.12741637 1.2037601 -3.1833906 2.3509719e-38
-0.13412328 1.2053273 -3.1863561 2.3509719e-38
-0.1407463 1.2060509 -3.1896346 2.3509719e-38
-0.14753973 1.2084179 -3.1923075 2.350972e-38
-0.166963 1.2113473 -3.2015791 2.350972e-38
-0.18049543 1.2144556 -3.2075858 2.3509722e-38
-0.21379682 1.2205786 -3.2230148 2.3509722e-38
-0.23156613 1.2327077 -3.227484 2.3509722e-38
-0.2209336 1.2679446 -3.2067618 2.3509723e-38
-0.22499734 1.2878389 -3.2005122 2.3509723e-38
-0.23715456 1.3076504 -3.1986799 2.3509723e-38
-0.23671015 1.3165671 -3.1946518 2.3509724e-38
-0.23860581 1.3527753 -3.1803 2.3509724e-38
-0.25075781 1.3825531 -3.174232 2.3509724e-38
-0.25927964 1.4026492 -3.1703103 2.3509726e-38
-0.25882748 1.4117154 -3.1662152 2.3509726e-38
-0.25837556 1.4207811 -3.1621199 2.3509726e-38
-0.25792354 1.4298471 -3.1580245 2.3509727e-38
-0.26965705 1.4696206 -3.1474845 2.3509727e-38
-0.27371553 1.4804997 -3.1450615 2.3509729e-38
-0.27325585 1.4897209 -3.1408958 2.3509729e-38
-0.27279606 1.4989425 -3.1367304 2.3509729e-38
-0.28100437 1.5286041 -3.128576 2.350973e-38
-0.28054446 1.5378257 -3.1244109 2.350973e-38
-0.28263402 1.5865242 -3.1048586 2.350973e-38
-0.30449167 1.6306661 -3.0979447 2.3509731e-38
-0.30402407 1.6400459 -3.0937076 2.3509731e-38
-0.30355635 1.6494259 -3.0894704 2.3509731e-38
-0.30308875 1.6588057 -3.0852332 2.3509733e-38
-0.3026208 1.6681857 -3.0809965 2.3509733e-38
-0.31579328 1.7020237 -3.0737565 2.3509733e-38
-0.31532159 1.711486 -3.0694818 2.3509734e-38
-0.31484979 1.7209483 -3.0652077 2.3509734e-38
-0.3143779 1.7304107 -3.0609334 2.3509736e-38
-0.31390622 1.7398731 -3.056659 2.3509736e-38
-0.31343442 1.7493353 -3.0523849 2.3509736e-38
-0.31296253 1.7587976 -3.0481105 2.3509737e-38
-0.3026529 1.7662096 -3.0393803 2.3509737e-38
-0.27266714 1.7695215 -3.0217392 2.3509737e-38
-0.26235753 1.7769334 -3.0130091 2.3509738e-38
-0.25110409 1.8032705 -2.9957304 2.3509738e-38
-0.24032266 1.8201447 -2.9827261 2.3509738e-38
-0.22017488 1.8255066 -2.9695406 2.350974e-38
-0.15083736 1.8206176 -2.9340768 2.350974e-38
-0.1409993 1.8185673 -2.9296212 2.350974e-38
-0.13116148 1.8165171 -2.9251654 2.3509741e-38
-0.060880359 1.8305527 -2.8811526 2.3509741e-38
-0.051042315 1.8285025 -2.8766973 2.3509743e-38
-0.021056702 1.8318143 -2.859056 2.3509743e-38
-0.010747085 1.8392262 -2.8503261 2.3509743e-38
0.037971072 1.8195131 -2.8323221 2.3509744e-38
0.092272796 1.8124278 -2.8059316 2.3509744e-38
0.11922187 1.8543211 -2.7735476 2.3509744e-38
0.12185886 1.863343 -2.7682881 2.3509745e-38
0.1244958 1.8723649 -2.7630286 2.3509745e-38
0.12713288 1.881387 -2.7577691 2.3509745e-38
0.12976976 1.8904086 -2.7525096 2.3509747e-38
0.13805927 1.90869 -2.740257 2.3509747e-38
0.14070028 1.9176188 -2.7350347 2.3509748e-38
0.14334118 1.9265473 -2.7298129 2.3509748e-38
0.14598219 1.9354758 -2.7245905 2.3509748e-38
0.15822694 1.9498563 -2.711854 2.350975e-38
0.16301748 1.9789553 -2.6969008 2.350975e-38
0.17780995 2.0044031 -2.6780837 2.350975e-38
0.1804485 2.0134509 -2.6728122 2.3509751e-38
0.18308705 2.0224986 -2.6675408 2.3509751e-38
0.18031502 2.0515475 -2.6567039 2.3509751e-38
0.1743127 2.0852866 -2.6456239 2.3509752e-38
0.17695385 2.0942154 -2.6404018 2.3509752e-38
0.18223576 2.1120725 -2.6299577 2.3509752e-38
0.17623326 2.1458118 -2.6188774 2.3509754e-38
0.17191163 2.1582174 -2.6159482 2.3509754e-38
0.10635207 2.200748 -2.6333799 2.3509755e-38
0.087119013 2.2149813 -2.6377478 2.3509755e-38
0.058963671 2.2508347 -2.6377635 2.3509755e-38
0.049578436 2.2627857 -2.6377687 2.3509757e-38
0.030808412 2.2866879 -2.6377792 2.3509757e-38
0.0017273501 2.3032033 -2.6465096 2.3509757e-38
0.0021903366 2.3128722 -2.6421528 2.3509758e-38
0.0026531741 2.322541 -2.6377954 2.3509758e-38
0.0031162277 2.3322103 -2.6334381 2.3509758e-38
0.0035789087 2.3418791 -2.6290808 2.3509759e-38
0.033585764 2.3447015 -2.6116359 2.3509759e-38
0.043433726 2.3424191 -2.6072736 2.3509759e-38
0.053281579 2.3401372 -2.6029108 2.3509761e-38
0.092210658 2.3213394 -2.589818 2.3509761e-38
0.10912922 2.2587614 -2.6072364 2.3509762e-38
0.17839393 2.2881961 -2.557234 2.3509762e-38
0.18103476 2.2971244 -2.5520117 2.3509762e-38
0.18367586 2.3060534 -2.5467896 2.3509764e-38
0.18631677 2.3149817 -2.5415673 2.3509764e-38
0.18895793 2.3239105 -2.5363457 2.3509764e-38
0.19159874 2.3328388 -2.5311234 2.3509765e-38
0.19423974 2.3417673 -2.5259013 2.3509765e-38
0.1968807 2.3506961 -2.5206792 2.3509765e-38
0.19952177 2.3596249 -2.5154574 2.3509767e-38
0.20216282 2.3685534 -2.5102353 2.3509767e-38
0.20480382 2.3774817 -2.5050132 2.3509767e-38
0.20744479 2.3864102 -2.4997911 2.3509768e-38
0.22381535 2.3776665 -2.4946418 2.3509768e-38
0.25858417 2.3799016 -2.4748678 2.3509769e-38
0.29034078 2.373311 -2.4604735 2.3509769e-38
0.33515725 2.3600276 -2.4418509 2.3509769e-38
0.35901275 2.3570781 -2.4301877 2.3509771e-38
0.39505538 2.4075768 -2.3892257 2.3509771e-38
0.40490341 2.4052947 -2.3848631 2.3509771e-38
0.42459941 2.4007301 -2.376138 2.3509772e-38
0.46173862 2.3884566 -2.361243 2.3509772e-38
0.47150075 2.3861945 -2.3569186 2.3509772e-38
0.4812631 2.3839319 -2.3525941 2.3509774e-38
0.49102515 2.3816698 -2.3482697 2.3509774e-38
0.51054937 2.3771451 -2.3396204 2.3509774e-38
0.53053284 2.3822052 -2.3266521 2.3509775e-38
0.56247079 2.3687799 -2.3150625 2.3509775e-38
0.57508075 2.3694201 -2.3079631 2.3509776e-38
0.59886765 2.366369 -2.2963805 2.3509776e-38
0.61217344 2.3670378 -2.2888925 2.3509776e-38
0.62202144 2.3647556 -2.2845297 2.3509778e-38
0.63450605 2.3641117 -2.278044 2.3509778e-38
0.64418542 2.3618684 -2.273756 2.3509778e-38
0.67238343 2.34991 -2.2635684 2.3509779e-38
0.70391643 2.3564558 -2.2437158 2.3509779e-38
0.71286035 2.3534033 -2.24017 2.3509779e-38
0.75747788 2.3054521 -2.2363794 2.3509781e-38
0.77633584 2.2959268 -2.2302148 2.3509781e-38
0.81489152 2.2829423 -2.214855 2.3509781e-38
0.82767558 2.2766988 -2.2105851 2.3509782e-38
0.85466826 2.2702236 -2.1987212 2.3509782e-38
0.86323744 2.2672989 -2.1953237 2.3509783e-38
0.87711394 2.2609537 -2.190506 2.3509783e-38
0.90752691 2.2577729 -2.1753907 2.3509783e-38
0.91781855 2.2558372 -2.1706409 2.3509785e-38
0.94570291 2.250196 -2.1579399 2.3509785e-38
0.95429713 2.2501259 -2.1533165 2.3509785e-38
0.96354538 2.2483428 -2.1490667 2.3509786e-38
0.97126317 2.245388 -2.1461432 2.3509786e-38
1.0079602 2.2521837 -2.1233883 2.3509786e-38
1.0150141 2.2541308 -2.1187422 2.3509788e-38
1.0274845 2.247659 -2.1147394 2.3509788e-38
1.0582563 2.2307239 -2.1052718 2.3509788e-38
1.0880842 2.2301712 -2.0893571 2.3509789e-38
1.1399376 2.2247078 -2.0636034 2.3509789e-38
1.1489538 2.2235334 -2.0592206 2.350979e-38
1.1579701 2.2223589 -2.0548379 2.350979e-38
1.177346 2.216331 -2.0469079 2.350979e-38
1.1862884 2.2151661 -2.0425611 2.3509792e-38
1.2049031 2.2035913 -2.0373986 2.3509792e-38
1.2243015 2.1992183 -2.0287533 2.3509792e-38
1.2425861 2.1991308 -2.0188909 2.3509793e-38
1.2633107 2.1956475 -2.00915 2.3509793e-38
1.2729077 2.1934235 -2.0048985 2.3509793e-38
1.2825047 2.1911993 -2.0006468 2.3509795e-38
1.29313 2.1896 -1.9955736 2.3509795e-38
1.3111711 2.1880822 -1.9864506 2.3509795e-38
1.3304906 2.180079 -1.9793899 2.3509796e-38
1.3400877 2.177855 -1.9751383 2.3509796e-38
1.3681562 2.1801059 -1.9589854 2.3509797e-38
1.3764255 2.182302 -1.9535758 2.3509797e-38
1.4039263 2.1787193 -1.940208 2.3509797e-38
1.4437279 2.1604095 -1.9264354 2.3509799e-38
1.4596757 2.1620774 -1.9170923 2.3509799e-38
1.4699223 2.1641622 -1.9106594 2.3509799e-38
1.479166 2.1629581 -1.906166 2.35098e-38
1.4997801 2.154295 -1.8986847 2.35098e-38
1.5091039 2.1530802 -1.8941526 2.35098e-38
1.516896 2.1485848 -1.8918432 2.3509802e-38
1.5324816 2.1427965 -1.8858633 2.3509802e-38
1.5554293 2.140192 -1.8745453 2.3509802e-38
1.583111 2.1442807 -1.8578215 2.3509803e-38
1.6024703 2.1397943 -1.8492454 2.3509803e-38
1.61215 2.1375508 -1.8449575 2.3509804e-38
1.6163369 2.1197557 -1.8502486 2.3509804e-38
1.6158897 2.1104143 -1.8544581 2.3509804e-38
1.6149952 2.0917311 -1.8628777 2.3509806e-38
1.614548 2.0823891 -1.8670876 2.3509806e-38
1.6045862 2.0752525 -1.8755122 2.3509806e-38
1.5946245 2.0681159 -1.8839369 2.3509807e-38
1.5738062 2.0351589 -1.9092057 2.3509807e-38
1.5890422 1.9665037 -1.9301162 2.3509807e-38
1.5907228 1.9578191 -1.9328947 2.3509809e-38
1.5924035 1.9491349 -1.9356735 2.3509809e-38
1.587001 1.940511 -1.9422612 2.3509809e-38
1.5799179 1.9405715 -1.9460704 2.350981e-38
1.5613972 1.9360243 -1.9580293 2.350981e-38
1.5518 1.9382483 -1.9622805 2.3509811e-38
1.5403429 1.9390155 -1.9681575 2.3509811e-38
1.5308284 1.9412204 -1.9723725 2.3509811e-38
1.4813745 1.8872421 -2.0220737 2.3509813e-38
1.4821228 1.8777651 -2.0256941 2.3509813e-38
1.4840682 1.8691108 -2.028316 2.3509813e-38
1.5091105 1.829909 -2.0314076 2.3509814e-38
1.5110577 1.8270229 -2.0315793 2.3509814e-38
1.5213372 1.8154949 -2.0309098 2.3509814e-38
1.5641333 1.7757536 -2.0246184 2.3509816e-38
1.5745031 1.7641243 -2.0239432 2.3509816e-38
1.6186171 1.7486742 -2.0066214 2.3509817e-38
1.6422582 1.7355999 -1.9993747 2.3509817e-38
1.6460558 1.7321618 -1.9987789 2.3509817e-38
1.6698837 1.7189841 -1.9914747 2.3509818e-38
1.677249 1.7175604 -1.9880917 2.3509818e-38
1.713702 1.7135438 -1.9700619 2.3509818e-38
1.7238117 1.7172551 -1.9630114 2.350982e-38
1.7229447 1.7030481 -1.9695151 2.350982e-38
1.7041001 1.6523702 -2.0012422 2.350982e-38
1.7058316 1.6434643 -2.0040874 2.3509821e-38
1.7348536 1.6035686 -2.0053191 2.3509821e-38
1.736585 1.5946624 -2.0081642 2.3509821e-38
1.763436 1.5294722 -2.0213144 2.3509823e-38
1.7725331 1.5191425 -2.0207765 2.3509823e-38
1.7889955 1.5073887 -2.0168557 2.3509824e-38
1.8087865 1.4991797 -2.0096269 2.3509824e-38
1.8582636 1.5252322 -1.9717739 2.3509824e-38
1.8608806 1.548563 -1.960448 2.3509825e-38
1.8532666 1.584025 -1.9495085 2.3509825e-38
1.8620909 1.5917988 -1.9414295 2.3509825e-38
1.8864639 1.6516522 -1.9028121 2.3509827e-38
1.8869159 1.6607183 -1.8987169 2.3509827e-38
1.9112858 1.6801841 -1.8772552 2.3509827e-38
1.9203558 1.7128804 -1.8584579 2.3509828e-38
1.9281471 1.711374 -1.8548789 2.3509828e-38
1.9733088 1.7341892 -1.8207378 2.3509828e-38
2.0005457 1.7452095 -1.8013105 2.350983e-38
2.0226974 1.7501624 -1.7872137 2.350983e-38
2.0367231 1.7568485 -1.7767802 2.3509831e-38
2.0934215 1.74374 -1.7516505 2.3509831e-38
2.106487 1.7560762 -1.739337 2.3509831e-38
2.1162989 1.7800871 -1.7238266 2.3509832e-38
2.1181145 1.8074286 -1.711231 2.3509832e-38
2.1509769 1.8376044 -1.6806222 2.3509832e-38
2.2141063 1.8465197 -1.6426562 2.3509834e-38
2.2363524 1.8826147 -1.6152817 2.3509834e-38
2.2346087 1.8984727 -1.6094903 2.3509834e-38
2.2326691 1.9085902 -1.6062434 2.3509835e-38
2.2307291 1.9187077 -1.6029967 2.3509835e-38
2.2287891 1.9288253 -1.5997497 2.3509835e-38
2.2349856 1.9384284 -1.5923162 2.3509837e-38
2.2392423 1.958149 -1.581636 2.3509837e-38
2.2353623 1.9783844 -1.5751421 2.3509838e-38
2.2241862 2.0341647 -1.557502 2.3509838e-38
2.2500722 2.0274286 -1.5463475 2.3509838e-38
2.2521806 2.0262508 -1.5457063 2.3509839e-38
2.5479198 1.043541 -1.8029689 2.3509839e-38
2.5256345 1.0862025 -1.7969148 2.3509839e-38
2.4565995 1.1249958 -1.8178154 2.3509841e-38
2.4546716 1.1349121 -1.8146473 2.3509841e-38
2.447973 1.1640867 -1.8058833 2.3509841e-38
2.4483707 1.1726567 -1.8020276 2.3509842e-38
2.4487689 1.1812272 -1.7981726 2.3509842e-38
2.4491663 1.189797 -1.794317 2.3509842e-38
2.4601655 1.2302434 -1.7711836 2.3509844e-38
2.4605665 1.2388823 -1.7672973 2.3509844e-38
2.4609673 1.2475213 -1.7634109 2.3509845e-38
2.4613681 1.2561603 -1.7595246 2.3509845e-38
2.4617693 1.2647991 -1.7556384 2.3509845e-38
2.4621704 1.2734381 -1.7517523 2.3509846e-38
2.4719789 1.2975883 -1.7361846 2.3509846e-38
2.4723825 1.3062928 -1.7322687 2.3509846e-38
2.4727867 1.3149972 -1.728353 2.3509848e-38
2.4733915 1.3240448 -1.724183 2.3509848e-38
2.4737985 1.3328179 -1.7202364 2.3509848e-38
2.474206 1.3415911 -1.7162899 2.3509849e-38
2.4746127 1.3503642 -1.7123432 2.3509849e-38
2.4846792 1.3746921 -1.6965605 2.3509849e-38
2.4850864 1.3834652 -1.6926138 2.3509851e-38
2.4854937 1.3922383 -1.6886673 2.3509851e-38
2.4859006 1.4010115 -1.6847205 2.3509852e-38
2.4863081 1.4097847 -1.6807741 2.3509852e-38
2.4966166 1.4353493 -1.6643353 2.3509852e-38
2.5073769 1.4613003 -1.6474868 2.3509853e-38
2.5077906 1.470214 -1.643477 2.3509853e-38
2.5082045 1.479128 -1.6394671 2.3509853e-38
2.5086184 1.4880419 -1.635457 2.3509855e-38
2.509032 1.4969559 -1.6314473 2.3509855e-38
2.5094457 1.5058697 -1.6274372 2.3509855e-38
2.5131693 1.586095 -1.5913479 2.3509856e-38
2.5927565 1.5747322 -1.5530838 2.3509856e-38
2.5135827 1.5950087 -1.5873377 2.3509856e-38
2.5056448 1.6298708 -1.5768288 2.3509858e-38
2.5060549 1.6387129 -1.5728513 2.3509858e-38
2.5064657 1.6475546 -1.5688738 2.3509859e-38
2.53056 1.6860107 -1.5394952 2.3509859e-38
2.5953877 1.6521195 -1.5187911 2.3509859e-38
2.5981231 1.6424266 -1.5214268 2.350986e-38
2.6002269 1.6326458 -1.5244417 2.350986e-38
2.6301055 0.96020782 -1.7938657 2.350986e-38
2.5878534 1.0164266 -1.7928641 2.3509862e-38
2.6066563 1.5256308 -1.5664129 2.3509862e-38
2.6094363 1.5158105 -1.5690786 2.3509862e-38
2.6122162 1.5059903 -1.5717444 2.3509863e-38
2.6126986 1.4630624 -1.5897157 2.3509863e-38
2.6154547 1.4533266 -1.5923586 2.3509863e-38
2.6182106 1.4435909 -1.5950017 2.3509865e-38
2.6237228 1.4241191 -1.6002872 2.3509865e-38
2.6264789 1.4143831 -1.6029301 2.3509866e-38
2.629235 1.4046472 -1.6055729 2.3509866e-38
2.634747 1.3851755 -1.6108586 2.3509866e-38
2.6375031 1.3754396 -1.6135015 2.3509867e-38
2.640259 1.3657038 -1.6161443 2.3509867e-38
2.6430151 1.355968 -1.6187873 2.3509867e-38
2.6457713 1.3462322 -1.6214304 2.3509869e-38
2.6485271 1.3364962 -1.6240731 2.3509869e-38
2.6512835 1.3267604 -1.6267159 2.3509869e-38
2.6540394 1.3170246 -1.629359 2.350987e-38
2.6567955 1.3072886 -1.6320018 2.350987e-38
2.6595514 1.2975529 -1.6346447 2.350987e-38
2.6623075 1.2878171 -1.6372876 2.3509872e-38
2.6650636 1.2780812 -1.6399305 2.3509872e-38
2.6678197 1.2683452 -1.6425734 2.3509873e-38
2.6705759 1.2586094 -1.6452162 2.3509873e-38
2.6733317 1.2488736 -1.6478591 2.3509873e-38
2.6760879 1.2391378 -1.6505022 2.3509874e-38
2.678844 1.2294018 -1.653145 2.3509874e-38
2.6762807 1.1988819 -1.6674953 2.3509874e-38
2.679014 1.1892271 -1.6701163 2.3509876e-38
2.67629 1.1592741 -1.6843122 2.3509876e-38
2.6790001 1.1497004 -1.6869112 2.3509876e-38
2.6817105 1.1401267 -1.6895101 2.3509877e-38
2.6925511 1.1018318 -1.6999058 2.3509877e-38
2.6952612 1.0922579 -1.7025045 2.3509877e-38
2.6979713 1.082684 -1.7051034 2.3509879e-38
2.6953921 1.0538702 -1.7187382 2.3509879e-38
2.6980801 1.0443741 -1.7213157 2.350988e-38
2.7034581 1.0056925 -1.7348331 2.350988e-38
2.7061243 0.99627411 -1.7373898 2.350988e-38
2.7114565 0.97743726 -1.7425033 2.3509881e-38
0.3265751 2.0177951 -2.5918519 2.3509881e-38
0.30818287 1.9695618 -2.6222959 2.3509881e-38
0.39045072 1.943619 -2.588773 2.3509883e-38
1.5217607 1.952767 -1.9723777 2.3509883e-38
1.4493845 1.9476869 -2.0137212 2.3509883e-38
1.4378943 1.9661764 -2.0120893 2.3509884e-38
1.4760574 2.0270343 -1.9655793 2.3509884e-38
