# .PCD v0.7 - Point Cloud Data file format
VERSION 0.7
FIELDS x y z rgb
SIZE 4 4 4 4
TYPE F F F F
COUNT 1 1 1 1
WIDTH 80
HEIGHT 1
VIEWPOINT 0 0 0 1 0 0 0
POINTS 80
DATA ascii
1.2754022 0.19972922 2.5612748 2.3509528e-38
1.2807589 0.17201941 2.5402646 2.3509532e-38
1.2804468 0.16349728 2.5378129 2.3509537e-38
1.2822825 0.13690126 2.5244122 2.3509541e-38
1.2796766 0.1186815 2.5231388 2.3509545e-38
1.2764794 0.08631321 2.5179453 2.3509549e-38
1.2790269 0.062214699 2.5039935 2.3509555e-38
1.2810076 0.049116302 2.4951901 2.3509559e-38
1.2836621 0.038753107 2.4859998 2.3509563e-38
1.2863264 0.026406458 2.4760702 2.3509568e-38
1.2853863 0.01367697 2.4733784 2.3509572e-38
1.2865498 -0.0071447706 2.463448 2.3509577e-38
1.2887617 -0.041984905 2.4462876 2.3509582e-38
1.2937239 -0.05582498 2.4311137 2.3509586e-38
1.2928525 -0.099818416 2.4169447 2.350959e-38
1.2889128 -0.12307661 2.4165747 2.3509594e-38
1.2788249 -0.13003637 2.434696 2.35096e-38
1.2640667 -0.15822439 2.454679 2.3509604e-38
1.2615035 -0.16391501 2.4578607 2.3509608e-38
1.2605386 -0.16454789 2.4596059 2.3509612e-38
1.2517872 -0.16582716 2.477052 2.3509617e-38
1.2407829 -0.16769597 2.4988956 2.3509621e-38
1.2346597 -0.1708857 2.5102704 2.3509626e-38
1.2214365 -0.18781343 2.5311942 2.3509631e-38
1.2152038 -0.1911992 2.5427217 2.3509635e-38
1.1929008 -0.20883055 2.5819726 2.3509639e-38
1.1918852 -0.2094968 2.5838101 2.3509643e-38
1.1797559 -0.22121973 2.6043823 2.3509649e-38
1.1777092 -0.22256191 2.608084 2.3509653e-38
1.1766863 -0.22323312 2.6099348 2.3509657e-38
1.1756626 -0.22390419 2.6117857 2.3509661e-38
1.1512858 -0.22923775 2.6597402 2.3509666e-38
1.1502384 -0.2299246 2.6616344 2.3509671e-38
1.1460495 -0.23267218 2.6692116 2.3509675e-38
1.1351026 -0.24651697 2.6865942 2.350968e-38
1.1307102 -0.2496208 2.6944585 2.3509684e-38
1.1124482 -0.24741161 2.7326334 2.3509688e-38
1.1113676 -0.24812047 2.7345881 2.3509692e-38
1.1019773 -0.24529701 2.7548294 2.3509698e-38
1.0990264 -0.24460708 2.7611187 2.3509702e-38
1.1223803 -0.20194671 2.7287929 2.3509706e-38
1.1244564 -0.18767877 2.7297177 2.350971e-38
1.1256899 -0.17093432 2.7332644 2.3509715e-38
1.1267929 -0.1605968 2.7347553 2.350972e-38
1.1278965 -0.15025936 2.7362456 2.3509724e-38
1.1296476 -0.14372617 2.7350311 2.3509729e-38
1.1434656 -0.12477717 2.7136223 2.3509733e-38
1.1506432 -0.10393178 2.7064919 2.3509737e-38
1.1551079 -0.10077669 2.6984982 2.3509743e-38
1.1683916 -0.11063851 2.6677368 2.3509747e-38
1.1768978 -0.11074942 2.6502881 2.3509751e-38
1.1830963 -0.10960218 2.6380181 2.3509755e-38
1.1889367 -0.10744365 2.6268487 2.3509759e-38
1.189968 -0.10676736 2.6249835 2.3509764e-38
1.1909992 -0.10609107 2.6231184 2.3509769e-38
1.1920303 -0.10541479 2.6212533 2.3509774e-38
1.1930615 -0.1047385 2.6193883 2.3509778e-38
1.1940928 -0.10406225 2.6175232 2.3509782e-38
1.2020023 -0.10458007 2.6011477 2.3509786e-38
1.2069536 -0.10214469 2.5918977 2.3509792e-38
1.2096806 -0.10028303 2.5869915 2.3509796e-38
1.2122869 -0.099034265 2.5821106 2.35098e-38
1.2143185 -0.097701855 2.5784361 2.3509804e-38
1.2211792 -0.10284355 2.562531 2.3509809e-38
1.2272198 -0.10277895 2.5501921 2.3509814e-38
1.236485 -0.10777349 2.5294192 2.3509818e-38
1.2388289 -0.10826055 2.5244458 2.3509823e-38
1.2520169 -0.10808159 2.4975207 2.3509827e-38
1.2529957 -0.10743964 2.4957502 2.3509831e-38
1.2539748 -0.10679776 2.4939799 2.3509835e-38
1.255932 -0.10551382 2.4904392 2.3509841e-38
1.2785904 -0.021512721 2.4745274 2.3509845e-38
1.2689692 -0.0057744817 2.4999239 2.3509849e-38
1.2675544 -4.063244e-05 2.5048983 2.3509853e-38
1.2664652 0.0056170085 2.5091796 2.3509858e-38
1.2685848 0.018475685 2.5095038 2.3509863e-38
1.2706453 0.055508383 2.5187149 2.3509867e-38
1.2711604 0.064766571 2.5210178 2.3509872e-38
1.2683729 0.11451817 2.5447631 2.3509876e-38
1.2711126 0.15021066 2.5520976 2.350988e-38
