# .PCD v0.7 - Point Cloud Data file format
VERSION 0.7
FIELDS x y z rgb
SIZE 4 4 4 4
TYPE F F F F
COUNT 1 1 1 1
WIDTH 241
HEIGHT 1
VIEWPOINT 0 0 0 1 0 0 0
POINTS 241
DATA ascii
1.4512106 -0.89027286 2.108814 2.3509528e-38
1.4642975 -0.90668273 2.1066177 2.350953e-38
1.4832343 -0.90938747 2.1124387 2.3509531e-38
1.4880738 -0.91028523 2.113838 2.3509532e-38
1.4956315 -0.91142738 2.1161342 2.3509534e-38
1.5139478 -0.9140963 2.1217418 2.3509535e-38
1.5366518 -0.91733855 2.128721 2.3509537e-38
1.5550991 -0.91999185 2.1343834 2.3509538e-38
1.5741251 -0.92276651 2.1402073 2.3509539e-38
1.5882043 -0.92481613 2.1445184 2.3509541e-38
1.5989295 -0.92711842 2.1474857 2.3509542e-38
1.6070254 -0.92752647 2.1502943 2.3509544e-38
1.6221086 -0.92975879 2.1548972 2.3509545e-38
1.6306362 -0.93104488 2.1574893 2.3509547e-38
1.6506341 -0.93392253 2.1636274 2.3509548e-38
1.6650064 -0.93690443 2.1676478 2.3509549e-38
1.6666754 -0.93725574 2.1681125 2.3509551e-38
1.683763 -0.93975747 2.1733387 2.3509552e-38
1.6854438 -0.94011128 2.1738069 2.3509555e-38
1.7360775 -0.94741952 2.1893382 2.3509556e-38
1.7377949 -0.94778109 2.1898165 2.3509558e-38
1.7549903 -0.95030528 2.1950729 2.3509559e-38
1.7567196 -0.95066953 2.1955543 2.3509561e-38
1.7748628 -0.95332891 2.201102 2.3509562e-38
1.793031 -0.95599365 2.2066569 2.3509563e-38
1.8121377 -0.95879155 2.2125006 2.3509565e-38
1.8139057 -0.95916373 2.2129929 2.3509566e-38
1.8330526 -0.96196985 2.2188478 2.3509568e-38
1.8348336 -0.96234488 2.2193437 2.3509569e-38
1.8589023 -0.96156883 2.228544 2.350957e-38
1.8790669 -0.9666875 2.2337852 2.3509572e-38
1.8842163 -0.9674986 2.2353354 2.3509573e-38
1.8893657 -0.96830982 2.2368858 2.3509575e-38
1.8945152 -0.96912104 2.2384365 2.3509576e-38
1.9193525 -0.97267801 2.246067 2.3509577e-38
1.9254187 -0.92876136 2.2670844 2.350958e-38
1.9348341 -0.9023059 2.281868 2.3509582e-38
1.9284325 -0.88328028 2.2876461 2.3509583e-38
1.907149 -0.83488429 2.3005016 2.3509584e-38
1.9039481 -0.82537162 2.3033905 2.3509586e-38
1.9045223 -0.79656535 2.3159218 2.3509587e-38
1.9283451 -0.76178819 2.3395731 2.3509589e-38
1.9250889 -0.75211024 2.3425124 2.350959e-38
1.9239855 -0.70346016 2.3629124 2.3509591e-38
1.9283286 -0.67676497 2.3759296 2.3509593e-38
1.9375695 -0.66554523 2.3841329 2.3509594e-38
1.9122274 -0.60560787 2.400429 2.3509596e-38
1.9089144 -0.59576166 2.403419 2.3509597e-38
1.9022884 -0.57606953 2.4093997 2.3509598e-38
1.9377619 -0.51715475 2.4476669 2.35096e-38
1.9353563 -0.50770104 2.4508235 2.3509601e-38
1.9329504 -0.49824739 2.4539802 2.3509603e-38
1.9017955 -0.46649498 2.4560804 2.3509605e-38
1.9044718 -0.40246636 2.4844501 2.3509607e-38
1.9377127 -0.37936643 2.5065777 2.3509608e-38
1.9437562 -0.34686509 2.5227046 2.350961e-38
1.9150378 -0.29604146 2.5338588 2.3509611e-38
1.9125692 -0.28634053 2.5370982 2.3509612e-38
1.9076319 -0.26693887 2.5435765 2.3509614e-38
1.8920382 -0.23667674 2.5507731 2.3509615e-38
1.8971884 -0.20299943 2.5670738 2.3509617e-38
1.8935187 -0.19331238 2.5698647 2.3509618e-38
1.8898493 -0.18362515 2.5726554 2.3509619e-38
1.8804717 -0.163822 2.5776694 2.3509621e-38
1.8731325 -0.14444807 2.583251 2.3509622e-38
1.869463 -0.13476095 2.5860419 2.3509624e-38
1.8708408 -0.0905011 2.6054783 2.3509625e-38
1.8712515 -0.081596427 2.6094379 2.3509626e-38
1.8696063 -0.072258927 2.6128254 2.3509628e-38
1.8806041 -0.038325701 2.6313901 2.3509631e-38
1.8880632 -0.002807484 2.6493287 2.3509632e-38
1.8809501 0.026132498 2.6590848 2.3509633e-38
1.8771846 0.036072653 2.6619487 2.3509635e-38
1.8734192 0.046012897 2.6648123 2.3509636e-38
1.8696536 0.055953141 2.6676762 2.3509638e-38
1.8658882 0.065893389 2.6705399 2.3509639e-38
1.8621228 0.075833708 2.6734035 2.350964e-38
1.8328371 0.12773612 2.6848104 2.3509642e-38
1.8290715 0.13767631 2.687674 2.3509643e-38
1.8253062 0.14761668 2.6905377 2.3509645e-38
1.8215407 0.15755674 2.6934013 2.3509646e-38
1.7823123 0.19092606 2.6932182 2.3509647e-38
1.7893254 0.237519 2.715729 2.3509649e-38
1.7855597 0.24745913 2.7185929 2.350965e-38
1.7817943 0.25739947 2.7214563 2.3509652e-38
1.7780287 0.26733953 2.7243204 2.3509653e-38
1.7742634 0.27727985 2.7271838 2.3509654e-38
1.7704979 0.28721991 2.7300477 2.3509657e-38
1.7667323 0.29716006 2.7329113 2.3509659e-38
1.7629669 0.3071003 2.7357752 2.350966e-38
1.7592014 0.31704062 2.7386389 2.3509661e-38
1.7554359 0.3269808 2.7415025 2.3509663e-38
1.7516705 0.33692113 2.7443664 2.3509664e-38
1.747905 0.34686133 2.7472301 2.3509666e-38
1.7441396 0.35680145 2.7500937 2.3509667e-38
1.740374 0.36674172 2.7529576 2.3509668e-38
1.7366085 0.37668201 2.7558215 2.350967e-38
1.732843 0.38662222 2.7586849 2.3509671e-38
1.7290777 0.39656243 2.7615488 2.3509673e-38
1.7253121 0.40650266 2.7644126 2.3509674e-38
1.7215465 0.41644287 2.7672763 2.3509675e-38
1.7177813 0.42638305 2.7701399 2.3509677e-38
1.7140158 0.43632317 2.7730038 2.3509678e-38
1.7102503 0.44626328 2.7758675 2.350968e-38
1.7064848 0.45620358 2.7787311 2.3509682e-38
1.7027193 0.46614397 2.781595 2.3509684e-38
1.6893313 0.49640495 2.7896037 2.3509685e-38
1.6855657 0.50634515 2.7924676 2.3509687e-38
1.6838919 0.515845 2.7959137 2.3509688e-38
1.670504 0.54610598 2.8039224 2.3509689e-38
1.6667384 0.55604619 2.8067863 2.3509691e-38
1.6629729 0.56598645 2.8096499 2.3509692e-38
1.6592075 0.57592666 2.8125138 2.3509694e-38
1.6554419 0.58586669 2.8153775 2.3509695e-38
1.647911 0.6057471 2.821105 2.3509696e-38
1.6420538 0.61612785 2.8233864 2.3509698e-38
1.6366147 0.63556802 2.8296962 2.3509699e-38
1.6328491 0.64550811 2.8325601 2.3509701e-38
1.6311753 0.65500802 2.8360059 2.3509702e-38
1.6290836 0.65544838 2.8354237 2.3509703e-38
1.6048036 0.65448213 2.8260639 2.3509705e-38
1.5579591 0.65289372 2.8081238 2.3509708e-38
1.5559207 0.6533227 2.8075562 2.3509709e-38
1.5086 0.66058362 2.7932253 2.350971e-38
1.4593292 0.66452014 2.7767541 2.3509712e-38
1.4525856 0.6480915 2.7672431 2.3509713e-38
1.3885344 0.6362654 2.7385843 2.3509715e-38
1.3840111 0.636868 2.7371755 2.3509716e-38
1.3348277 0.65824407 2.728195 2.3509717e-38
1.2884024 0.66756791 2.7150762 2.3509719e-38
1.2830601 0.67129135 2.7147002 2.350972e-38
1.2627867 0.67859471 2.7103534 2.3509722e-38
1.2582632 0.67919731 2.7089443 2.3509723e-38
1.2335149 0.67839926 2.6994843 2.3509724e-38
1.2065939 0.68198574 2.6910985 2.3509726e-38
1.1338227 0.69254833 2.6688018 2.3509727e-38
1.1272191 0.69344163 2.6667509 2.3509729e-38
1.1162792 0.69404429 2.6629775 2.350973e-38
1.1007165 0.69697231 2.6584954 2.3509733e-38
1.0918822 0.6981492 2.6557434 2.3509734e-38
1.0740092 0.69713169 2.6487226 2.3509736e-38
1.0921727 0.66480917 2.6415918 2.3509737e-38
1.0927614 0.660568 2.6399946 2.3509738e-38
1.0933497 0.65632689 2.6383977 2.350974e-38
1.0939381 0.65208572 2.6368008 2.3509741e-38
1.0560199 0.59415019 2.5980513 2.3509743e-38
1.0565948 0.59000641 2.5964911 2.3509744e-38
1.0571549 0.58345628 2.5938962 2.3509745e-38
1.0577257 0.57934278 2.5923471 2.3509747e-38
1.0582964 0.57522941 2.5907981 2.3509748e-38
1.0588672 0.57111573 2.5892491 2.350975e-38
1.0600086 0.56288886 2.5861514 2.3509751e-38
1.0605793 0.55877531 2.5846026 2.3509752e-38
1.0611502 0.55466193 2.5830534 2.3509754e-38
1.0628624 0.54232138 2.5784066 2.3509755e-38
1.0645746 0.52998102 2.5737598 2.3509758e-38
1.0708508 0.51097322 2.5679433 2.3509759e-38
1.0719839 0.50280696 2.5648682 2.3509761e-38
1.0802321 0.46780315 2.552937 2.3509762e-38
1.0807943 0.4637503 2.5514112 2.3509764e-38
1.0841684 0.43943313 2.5422542 2.3509765e-38
1.0850483 0.41855222 2.5336485 2.3509767e-38
1.0884526 0.40157425 2.5276415 2.3509768e-38
1.0872576 0.38730806 2.5211 2.3509769e-38
1.093035 0.37228313 2.516803 2.3509771e-38
1.0977547 0.35562652 2.5114181 2.3509772e-38
1.0983084 0.35163426 2.5099151 2.3509774e-38
1.0988625 0.34764203 2.5084116 2.3509775e-38
1.0983199 0.29842877 2.4871645 2.3509776e-38
1.1027896 0.27964064 2.4807761 2.3509778e-38
1.1022772 0.25272173 2.4690747 2.3509779e-38
1.1212211 0.22605604 2.4646509 2.3509781e-38
1.1228942 0.21929121 2.462374 2.3509782e-38
1.1219407 0.18867163 2.4489274 2.3509785e-38
1.1281334 0.17261755 2.4443431 2.3509786e-38
1.1296693 0.16335426 2.4409475 2.3509788e-38
1.1287709 0.12540419 2.424386 2.3509789e-38
1.1351296 0.10473382 2.4178889 2.350979e-38
1.1394356 0.091158167 2.4136696 2.3509792e-38
1.1402225 0.080633871 2.4094584 2.3509793e-38
1.140757 0.076782078 2.4080081 2.3509795e-38
1.1413629 0.066361763 2.4037747 2.3509796e-38
1.1418936 0.06253688 2.4023345 2.3509797e-38
1.1424242 0.058712132 2.4008942 2.3509799e-38
1.1429549 0.054887298 2.3994539 2.35098e-38
1.1434855 0.051062506 2.3980138 2.3509802e-38
1.144547 0.043413058 2.3951333 2.3509803e-38
1.1450776 0.039588138 2.3936932 2.3509804e-38
1.1511838 0.023758294 2.389173 2.3509806e-38
1.1560255 0.009392349 2.3848131 2.3509807e-38
1.1613481 -0.0045689079 2.3808033 2.350981e-38
1.1623451 -0.009749895 2.3789549 2.3509811e-38
1.1622211 -0.02543286 2.3722019 2.3509813e-38
1.1614957 -0.033614103 2.3684359 2.3509814e-38
1.1593908 -0.041315049 2.3643668 2.3509816e-38
1.1603937 -0.071609206 2.3517802 2.3509817e-38
1.1729388 -0.092812546 2.3473344 2.3509818e-38
1.1812629 -0.097598903 2.3483546 2.350982e-38
1.2080935 -0.090956599 2.3610816 2.3509821e-38
1.2324831 -0.093980059 2.3687754 2.3509823e-38
1.2364383 -0.094507016 2.3700075 2.3509824e-38
1.2542113 -0.098835431 2.3747048 2.3509825e-38
1.2666925 -0.10425223 2.3769872 2.3509827e-38
1.270676 -0.10478296 2.3782282 2.3509828e-38
1.2944322 -0.11103964 2.3843057 2.350983e-38
1.3126062 -0.12308619 2.3858504 2.3509831e-38
1.3158994 -0.12377945 2.3867671 2.3509832e-38
1.3431876 -0.13195619 2.3933251 2.3509835e-38
1.3643532 -0.13740399 2.3987942 2.3509837e-38
1.4424157 -0.17513792 2.4114196 2.3509838e-38
1.4423414 -0.21206786 2.3955982 2.3509839e-38
1.4419657 -0.21294016 2.3950868 2.3509841e-38
1.4422542 -0.22528213 2.3899148 2.3509842e-38
1.4502155 -0.25270054 2.3811221 2.3509844e-38
1.4420966 -0.27694306 2.3677626 2.3509845e-38
1.4437348 -0.2905159 2.3625615 2.3509846e-38
1.4433528 -0.30053186 2.3581371 2.3509848e-38
1.4472511 -0.33634916 2.344255 2.3509849e-38
1.4437798 -0.34421703 2.3396111 2.3509851e-38
1.4503139 -0.37965056 2.3268647 2.3509852e-38
1.4470719 -0.39974853 2.3170745 2.3509853e-38
1.4428148 -0.40880871 2.3116314 2.3509855e-38
1.4441971 -0.41588122 2.3091159 2.3509856e-38
1.4515654 -0.4536967 2.2956581 2.3509858e-38
1.44699 -0.47288418 2.2857661 2.350986e-38
1.456498 -0.50676036 2.2747815 2.3509862e-38
1.4541417 -0.53826219 2.2604406 2.3509863e-38
1.4605638 -0.5648998 2.2514145 2.3509865e-38
1.4487092 -0.59184688 2.235522 2.3509866e-38
1.4515511 -0.63445133 2.2183483 2.3509867e-38
1.4451251 -0.6672439 2.2019558 2.3509869e-38
1.4402914 -0.6744625 2.1970875 2.350987e-38
1.4376246 -0.71298426 2.17963 2.3509872e-38
1.4454706 -0.75606889 2.1640947 2.3509873e-38
1.4290249 -0.78447312 2.1458871 2.3509874e-38
1.4288052 -0.84853554 2.1184082 2.3509876e-38
1.4438292 -0.87348151 2.1132751 2.3509877e-38
1.446215 -0.88148373 2.1107321 2.3509879e-38
1.3657659 0.44285694 2.6474786 2.350988e-38
1.3231561 0.37084347 2.6009798 2.3509881e-38
1.2944406 0.45536605 2.6265473 2.3509883e-38
