# .PCD v0.7 - Point Cloud Data file format
VERSION 0.7
FIELDS x y z rgb
SIZE 4 4 4 4
TYPE F F F F
COUNT 1 1 1 1
WIDTH 122
HEIGHT 1
VIEWPOINT 0 0 0 1 0 0 0
POINTS 122
DATA ascii
-1.6070966 1.9594599 -1.8320127 2.3509528e-38
-1.6038392 1.9634393 -1.8376566 2.3509531e-38
-1.5984361 1.9630772 -1.8561172 2.3509534e-38
-1.5950106 1.9634089 -1.867088 2.3509537e-38
-1.5786703 1.9681866 -1.915244 2.3509539e-38
-1.5746402 1.9718045 -1.9239326 2.3509542e-38
-1.5605521 1.9914404 -1.9451746 2.3509545e-38
-1.5504601 1.993513 -1.9760641 2.3509548e-38
-1.5259006 2.0113635 -2.0344999 2.3509551e-38
-1.5218371 2.0150115 -2.0432603 2.3509554e-38
-1.507633 2.0348091 -2.0646775 2.3509556e-38
-1.5035698 2.0384569 -2.0734377 2.3509559e-38
-1.5000675 2.0317664 -2.0938401 2.3509563e-38
-1.5103811 1.9921083 -2.1113286 2.3509566e-38
-1.5094758 1.9556551 -2.1619792 2.3509569e-38
-1.5114903 1.9468012 -2.1668429 2.3509572e-38
-1.5135047 1.9379472 -2.1717067 2.3509575e-38
-1.5260075 1.9036614 -2.1748872 2.3509577e-38
-1.5320356 1.8912618 -2.1710224 2.350958e-38
-1.5461237 1.871626 -2.1497805 2.3509583e-38
-1.5521518 1.8592263 -2.145916 2.3509586e-38
-1.5561818 1.8556085 -2.1372271 2.3509589e-38
-1.5880264 1.7906799 -2.1160591 2.3509591e-38
-1.6046878 1.7326286 -2.1364508 2.3509596e-38
-1.6057993 1.7243079 -2.1436238 2.3509598e-38
-1.6069109 1.7159873 -2.1507969 2.3509601e-38
-1.6058764 1.7033252 -2.1707869 2.3509604e-38
-1.6069878 1.6950043 -2.1779602 2.3509607e-38
-1.6080995 1.6866838 -2.185133 2.350961e-38
-1.6070652 1.6740217 -2.2051229 2.3509612e-38
-1.6081766 1.6657009 -2.2122962 2.3509615e-38
-1.609288 1.6573802 -2.2194693 2.3509618e-38
-1.6103996 1.6490595 -2.2266424 2.3509621e-38
-1.6093651 1.6363974 -2.2466326 2.3509624e-38
-1.6104766 1.6280768 -2.2538056 2.3509628e-38
-1.6094424 1.6154147 -2.2737956 2.3509631e-38
-1.6105537 1.607094 -2.2809687 2.3509633e-38
-1.6116652 1.5987734 -2.288142 2.3509636e-38
-1.6127768 1.5904527 -2.2953148 2.3509639e-38
-1.6149995 1.5738112 -2.3096611 2.3509642e-38
-1.6161112 1.5654905 -2.3168342 2.3509645e-38
-1.6204799 1.5531905 -2.3183634 2.3509647e-38
-1.62596 1.5325698 -2.3270659 2.350965e-38
-1.628183 1.5159283 -2.3414123 2.3509653e-38
-1.630406 1.4992869 -2.3557584 2.3509656e-38
-1.6391435 1.4746869 -2.3588171 2.350966e-38
-1.6471118 1.4538542 -2.3595126 2.3509663e-38
-1.6652324 1.4093964 -2.3572831 2.3509666e-38
-1.6691968 1.3919718 -2.3668549 2.3509668e-38
-1.6711793 1.3832597 -2.3716404 2.3509671e-38
-1.6731613 1.3745472 -2.3764265 2.3509674e-38
-1.6751436 1.365835 -2.3812122 2.3509677e-38
-1.6791079 1.3484104 -2.390784 2.350968e-38
-1.678616 1.322021 -2.4269071 2.3509682e-38
-1.6840963 1.3014003 -2.4356096 2.3509685e-38
-1.6852077 1.2930796 -2.4427829 2.3509688e-38
-1.6863191 1.2847588 -2.4499559 2.3509692e-38
-1.6874307 1.2764382 -2.457129 2.3509695e-38
-1.6885424 1.2681175 -2.4643021 2.3509698e-38
-1.6960801 1.2490847 -2.4640787 2.3509701e-38
-1.7004108 1.236892 -2.4655948 2.3509703e-38
-1.7159743 1.1919553 -2.4725029 2.3509706e-38
-1.7208567 1.169332 -2.4858129 2.3509709e-38
-1.7234814 1.1556423 -2.4949646 2.3509712e-38
-1.7240957 1.1427613 -2.5097518 2.3509715e-38
-1.7235568 1.1351941 -2.5214357 2.3509717e-38
-1.7268062 1.1108676 -2.542407 2.350972e-38
-1.7380688 1.0691315 -2.5594523 2.3509724e-38
-1.7491113 1.0334686 -2.5692928 2.3509727e-38
-1.7506765 1.0247568 -2.5754662 2.350973e-38
-1.752242 1.0160449 -2.58164 2.3509733e-38
-1.7553726 0.99862111 -2.593987 2.3509736e-38
-1.7626815 0.98638779 -2.5856395 2.3509738e-38
-1.7666764 0.98223644 -2.5777657 2.3509741e-38
-1.770671 0.97808504 -2.5698917 2.3509744e-38
-1.7823071 0.97051978 -2.5410402 2.3509747e-38
-1.7860899 0.96712345 -2.5328844 2.350975e-38
-1.7898729 0.96372724 -2.5247285 2.3509752e-38
-1.7914646 0.96575069 -2.5167856 2.3509757e-38
-1.7931263 0.97460985 -2.4996758 2.3509759e-38
-1.7983975 0.97856832 -2.4769552 2.3509762e-38
-1.8051261 0.98287559 -2.4489248 2.3509765e-38
-1.7958603 1.0205227 -2.4305758 2.3509768e-38
-1.793999 1.0287027 -2.4260821 2.3509771e-38
-1.7806549 1.0703927 -2.4160271 2.3509774e-38
-1.7726662 1.1010354 -2.4025807 2.3509776e-38
-1.7726984 1.1142304 -2.3852305 2.3509779e-38
-1.7629495 1.1537572 -2.3660321 2.3509782e-38
-1.7610774 1.1754245 -2.343951 2.3509785e-38
-1.7591723 1.1837966 -2.3393519 2.3509789e-38
-1.7572675 1.192169 -2.3347528 2.3509792e-38
-1.7471483 1.2192618 -2.3330369 2.3509795e-38
-1.7408414 1.2432473 -2.3226888 2.3509797e-38
-1.7264582 1.2883655 -2.3116138 2.35098e-38
-1.7245076 1.2969394 -2.3069041 2.3509803e-38
-1.7225568 1.305513 -2.3021944 2.3509806e-38
-1.720606 1.3140868 -2.2974846 2.3509809e-38
-1.7195091 1.318622 -2.2952099 2.3509811e-38
-1.7167377 1.3448492 -2.2701623 2.3509814e-38
-1.7092134 1.3699116 -2.2624621 2.3509817e-38
-1.7162671 1.3990833 -2.2008574 2.3509821e-38
-1.711085 1.4522605 -2.148618 2.3509824e-38
-1.7139831 1.456845 -2.1329796 2.3509827e-38
-1.7142285 1.4646187 -2.1220031 2.350983e-38
-1.7133282 1.4895176 -2.0924625 2.3509832e-38
-1.7085857 1.5193006 -2.0693319 2.3509835e-38
-1.7076527 1.5351806 -2.0516865 2.3509838e-38
-1.6931875 1.595822 -2.0205986 2.3509841e-38
-1.6931827 1.6027882 -2.0115113 2.3509844e-38
-1.6949695 1.6212348 -1.9814564 2.3509846e-38
-1.6870912 1.6569375 -1.9610288 2.3509849e-38
-1.6673908 1.7248393 -1.9378806 2.3509853e-38
-1.6723366 1.7326553 -1.911203 2.3509856e-38
-1.6634929 1.7558393 -1.9103481 2.3509859e-38
-1.651009 1.7954885 -1.9000965 2.3509862e-38
-1.6471722 1.8068548 -1.8980161 2.3509865e-38
-1.6417148 1.8268611 -1.8900405 2.3509867e-38
-1.6374862 1.8477759 -1.8767872 2.350987e-38
-1.6354717 1.8566298 -1.8719236 2.3509873e-38
-1.6294283 1.8831917 -1.8573325 2.3509876e-38
-1.6269628 1.8968798 -1.8476535 2.3509879e-38
-1.6270308 1.9247696 -1.8109804 2.3509881e-38
