# .PCD v0.7 - Point Cloud Data file format
VERSION 0.7
FIELDS x y z rgb
SIZE 4 4 4 4
TYPE F F F F
COUNT 1 1 1 1
WIDTH 113
HEIGHT 1
VIEWPOINT 0 0 0 1 0 0 0
POINTS 113
DATA ascii
-1.3784767 0.61164111 2.3950408 2.3509528e-38
-1.3691105 0.62840253 2.4021089 2.3509531e-38
-1.3509495 0.61574316 2.3999529 2.3509534e-38
-1.3287269 0.61088574 2.4010494 2.3509537e-38
-1.324317 0.61071199 2.4015443 2.3509541e-38
-1.3154975 0.6103642 2.4025345 2.3509544e-38
-1.3109138 0.60620224 2.4016509 2.3509547e-38
-1.3059825 0.59406441 2.39801 2.3509549e-38
-1.3031747 0.58890641 2.3965526 2.3509554e-38
-1.2952694 0.56779134 2.3901334 2.3509556e-38
-1.2832428 0.53277689 2.3793526 2.3509559e-38
-1.2789693 0.49257174 2.3657711 2.3509562e-38
-1.2787979 0.48863974 2.3644121 2.3509566e-38
-1.2786264 0.48470798 2.3630526 2.3509569e-38
-1.2840596 0.461463 2.3542035 2.3509572e-38
-1.2810868 0.44584259 2.3490925 2.3509575e-38
-1.2759519 0.42627838 2.342869 2.3509579e-38
-1.2757828 0.42239937 2.3415277 2.3509582e-38
-1.2756137 0.41852048 2.3401866 2.3509584e-38
-1.2754445 0.41464135 2.3388457 2.3509587e-38
-1.2678599 0.39146346 2.3316622 2.3509591e-38
-1.267692 0.38761088 2.3303299 2.3509594e-38
-1.267524 0.3837584 2.3289981 2.3509597e-38
-1.267356 0.37990576 2.327666 2.35096e-38
-1.2671881 0.37605309 2.3263345 2.3509604e-38
-1.2355201 0.33249876 2.3150315 2.3509607e-38
-1.2505651 0.29634508 2.3004367 2.350961e-38
-1.2503994 0.29254529 2.299123 2.3509612e-38
-1.2497367 0.27734637 2.2938683 2.3509617e-38
-1.249571 0.27354661 2.2925549 2.3509619e-38
-1.2494054 0.26974684 2.2912412 2.3509622e-38
-1.2492397 0.2659471 2.2899277 2.3509625e-38
-1.2490741 0.2621474 2.2886138 2.3509629e-38
-1.2489084 0.25834748 2.2873003 2.3509632e-38
-1.2487427 0.25454789 2.2859867 2.3509635e-38
-1.248577 0.2507481 2.284673 2.3509638e-38
-1.2484114 0.24694836 2.2833595 2.3509642e-38
-1.2409843 0.21795769 2.2741144 2.3509645e-38
-1.2408198 0.21418279 2.272809 2.3509647e-38
-1.2380443 0.19692837 2.2670994 2.3509652e-38
-1.2199852 0.16252248 2.257293 2.3509654e-38
-1.2155113 0.15485854 2.2551656 2.3509657e-38
-1.2193313 0.14752166 2.2521069 2.350966e-38
-1.2245449 0.12361382 2.243053 2.3509664e-38
-1.2336973 0.10010873 2.2336433 2.3509667e-38
-1.2213563 0.053985804 2.2190011 2.350967e-38
-1.2190343 0.041935794 2.2150617 2.3509673e-38
-1.2222772 0.023831218 2.2082942 2.3509677e-38
-1.2221179 0.020178428 2.2070312 2.350968e-38
-1.2197293 0.0083564548 2.2031806 2.3509682e-38
-1.1712598 -0.036524389 2.1935306 2.3509685e-38
-1.1672207 -0.036683645 2.193984 2.3509689e-38
-1.1989832 -0.058102086 2.1824558 2.3509692e-38
-1.202971 -0.057944871 2.1820083 2.3509695e-38
-1.2484112 -0.020149773 2.1895518 2.3509698e-38
-1.2525564 -0.01638595 2.1903508 2.3509702e-38
-1.2567017 -0.012622206 2.19115 2.3509705e-38
-1.2611613 -0.0016453087 2.1944425 2.3509708e-38
-1.2613186 0.0019611202 2.1956897 2.350971e-38
-1.2604977 0.024457563 2.2036941 2.3509715e-38
-1.259107 0.036222808 2.2080016 2.3509717e-38
-1.2592663 0.039875675 2.2092643 2.350972e-38
-1.2506102 0.073487259 2.2221608 2.3509723e-38
-1.276601 0.11120787 2.2321308 2.3509727e-38
-1.2893143 0.15771623 2.2468619 2.350973e-38
-1.2894757 0.16141693 2.2481413 2.3509733e-38
-1.289637 0.16511767 2.2494204 2.3509736e-38
-1.2897984 0.16881832 2.2507 2.350974e-38
-1.2899597 0.17251891 2.2519794 2.3509743e-38
-1.2976619 0.19715838 2.2596617 2.3509745e-38
-1.2978243 0.200884 2.2609494 2.3509748e-38
-1.2979867 0.20460929 2.2622375 2.3509752e-38
-1.2983116 0.21206014 2.2648134 2.3509755e-38
-1.2987988 0.22323656 2.268677 2.3509758e-38
-1.2989613 0.22696202 2.2699649 2.3509761e-38
-1.2991236 0.2306875 2.2712529 2.3509765e-38
-1.2992861 0.23441285 2.2725408 2.3509768e-38
-1.2994485 0.23813833 2.2738287 2.3509771e-38
-1.299611 0.2418637 2.2751167 2.3509775e-38
-1.2997733 0.24558918 2.2764046 2.3509778e-38
-1.3030264 0.26313457 2.2821565 2.3509781e-38
-1.3147442 0.28493044 2.2883337 2.3509783e-38
-1.3149087 0.28870523 2.289639 2.3509788e-38
-1.3150734 0.29248032 2.2909439 2.350979e-38
-1.3154025 0.30003035 2.2935538 2.3509793e-38
-1.3157318 0.3075802 2.296164 2.3509796e-38
-1.3158963 0.31135526 2.2974689 2.35098e-38
-1.3234836 0.33335924 2.3042405 2.3509803e-38
-1.3236493 0.33715892 2.3055539 2.3509806e-38
-1.3276446 0.3635138 2.314306 2.3509809e-38
-1.3325427 0.37898514 2.3191223 2.3509813e-38
-1.3327094 0.38281134 2.3204451 2.3509816e-38
-1.3328763 0.38663763 2.3217676 2.3509818e-38
-1.3333768 0.3981162 2.3257358 2.3509821e-38
-1.3335435 0.40194222 2.3270588 2.3509825e-38
-1.3337103 0.40576851 2.3283815 2.3509828e-38
-1.3338772 0.40959463 2.3297043 2.3509831e-38
-1.334044 0.41342083 2.331027 2.3509834e-38
-1.3342108 0.41724691 2.3323498 2.3509838e-38
-1.3343776 0.42107323 2.3336725 2.3509841e-38
-1.3345444 0.42489931 2.3349953 2.3509844e-38
-1.3347112 0.42872554 2.336318 2.3509846e-38
-1.3428005 0.45210797 2.3435099 2.3509851e-38
-1.3429683 0.4559606 2.3448417 2.3509853e-38
-1.351068 0.4795807 2.3521161 2.3509856e-38
-1.3512372 0.48345971 2.353457 2.3509859e-38
-1.3595172 0.51122302 2.3621635 2.3509863e-38
-1.369558 0.55386078 2.3758724 2.3509866e-38
-1.3688376 0.56284177 2.3791175 2.3509869e-38
-1.3693519 0.57463729 2.3831952 2.3509872e-38
-1.3695233 0.57856929 2.3845544 2.3509876e-38
-1.3781315 0.60372138 2.3923025 2.3509879e-38
-1.3783041 0.60768127 2.3936718 2.3509881e-38
