# .PCD v0.7 - Point Cloud Data file format
VERSION 0.7
FIELDS x y z rgb
SIZE 4 4 4 4
TYPE F F F F
COUNT 1 1 1 1
WIDTH 58
HEIGHT 1
VIEWPOINT 0 0 0 1 0 0 0
POINTS 58
DATA ascii
-1.1478962 1.244421 -0.90014511 2.3509528e-38
-1.1482555 1.2565897 -0.89325356 2.3509534e-38
-1.1523057 1.2691827 -0.88237983 2.3509539e-38
-1.1567649 1.2741065 -0.87520343 2.3509547e-38
-1.1611884 1.2785169 -0.86833847 2.3509552e-38
-1.1670685 1.2908767 -0.85572833 2.3509558e-38
-1.169832 1.3163688 -0.83924592 2.3509565e-38
-1.1733898 1.3192878 -0.83406132 2.350957e-38
-1.1820474 1.3333659 -0.81770456 2.3509577e-38
-1.1867882 1.3324459 -0.81337541 2.3509583e-38
-1.2034895 1.3274581 -0.79906142 2.3509589e-38
-1.216289 1.3209486 -0.7895323 2.3509596e-38
-1.2377123 1.3119996 -0.77253926 2.3509601e-38
-1.2537544 1.304406 -0.76029307 2.3509608e-38
-1.2740071 1.2974174 -0.74343944 2.3509614e-38
-1.3032315 1.2779114 -0.72417235 2.3509619e-38
-1.3083397 1.2751667 -0.7204482 2.3509626e-38
-1.3189729 1.2671366 -0.7139383 2.3509632e-38
-1.3258077 1.2608693 -0.71034676 2.3509639e-38
-1.3899525 1.2511036 -0.650334 2.3509645e-38
-1.4064416 1.2328682 -0.64334053 2.350965e-38
-1.4117974 1.225934 -0.64161116 2.3509657e-38
-1.417142 1.2098615 -0.64479387 2.3509663e-38
-1.374409 1.2000198 -0.69354129 2.350967e-38
-1.3755765 1.1483479 -0.72006506 2.3509675e-38
-1.3941056 1.0997132 -0.72729939 2.3509681e-38
-1.3930014 1.0914909 -0.73283195 2.3509688e-38
-1.3740433 1.0749261 -0.76100057 2.3509694e-38
-1.3624861 1.0664117 -0.77732313 2.3509701e-38
-1.3555363 1.0480072 -0.79426283 2.3509706e-38
-1.3467827 1.0341307 -0.81060922 2.3509712e-38
-1.3370508 1.0219902 -0.82701969 2.3509719e-38
-1.3306073 1.016618 -0.83645529 2.3509724e-38
-1.3195554 1.0109584 -0.85073274 2.3509731e-38
-1.3086168 1.0178273 -0.85817611 2.3509737e-38
-1.3047125 1.0202144 -0.86086744 2.3509743e-38
-1.2890875 1.0295179 -0.87177241 2.350975e-38
-1.2842914 1.0310426 -0.87583333 2.3509755e-38
-1.2783765 1.034098 -0.88021153 2.3509762e-38
-1.2755684 1.0365903 -0.88173133 2.3509768e-38
-1.2649127 1.0502892 -0.88522422 2.3509774e-38
-1.259038 1.0556654 -0.88831681 2.3509781e-38
-1.2493657 1.0635116 -0.89394772 2.3509786e-38
-1.2107062 1.0696864 -0.92996204 2.3509793e-38
-1.1974041 1.0658926 -0.94552779 2.3509799e-38
-1.1925235 1.0651144 -0.95091003 2.3509804e-38
-1.1848081 1.0660386 -0.95826268 2.3509811e-38
-1.1762222 1.0724604 -0.96355236 2.3509817e-38
-1.1723408 1.0759062 -0.96565288 2.3509824e-38
-1.161188 1.0989321 -0.96464914 2.350983e-38
-1.1551909 1.1125572 -0.96344233 2.3509835e-38
-1.1500769 1.1207753 -0.96423721 2.3509842e-38
-1.144913 1.1288353 -0.96516764 2.3509848e-38
-1.1446267 1.1340086 -0.96268415 2.3509855e-38
-1.1469507 1.1522837 -0.9505195 2.350986e-38
-1.1479247 1.1672945 -0.94147837 2.3509866e-38
-1.1514555 1.1842388 -0.92879963 2.3509873e-38
-1.150901 1.2040578 -0.91873503 2.3509879e-38
