# .PCD v0.7 - Point Cloud Data file format
VERSION 0.7
FIELDS x y z rgb
SIZE 4 4 4 4
TYPE F F F F
COUNT 1 1 1 1
WIDTH 70
HEIGHT 1
VIEWPOINT 0 0 0 1 0 0 0
POINTS 70
DATA ascii
0.5615055 0.6090588 -0.54281718 2.3509528e-38
0.58123386 0.59826618 -0.54283333 2.3509532e-38
0.60029495 0.59357357 -0.53874916 2.3509538e-38
0.63230091 0.59067863 -0.52832848 2.3509542e-38
0.64507836 0.58663791 -0.52623063 2.3509548e-38
0.64928478 0.58540612 -0.5254696 2.3509554e-38
0.66230685 0.58387309 -0.52148372 2.3509558e-38
0.68135941 0.58523452 -0.51307529 2.3509563e-38
0.6934101 0.58626199 -0.5076381 2.3509569e-38
0.69691855 0.58663797 -0.50600016 2.3509573e-38
0.72171992 0.58610129 -0.49670526 2.3509579e-38
0.72599572 0.59508258 -0.48861641 2.3509584e-38
0.72905129 0.60373026 -0.48124242 2.3509589e-38
0.72966892 0.6122272 -0.47492743 2.3509594e-38
0.72867435 0.61510831 -0.47325602 2.35096e-38
0.72567058 0.62872678 -0.46469313 2.3509604e-38
0.72468346 0.63158643 -0.46303412 2.350961e-38
0.72369635 0.63444614 -0.46137524 2.3509614e-38
0.72327441 0.67108446 -0.43534935 2.3509619e-38
0.74382973 0.69470835 -0.4104405 2.3509625e-38
0.74548322 0.70148236 -0.40495303 2.3509629e-38
0.74033415 0.70953643 -0.40120503 2.3509635e-38
0.73705173 0.71492797 -0.39863184 2.350964e-38
0.73467004 0.71851361 -0.39699814 2.3509645e-38
0.72900593 0.72749066 -0.3927913 2.350965e-38
0.71988416 0.7422381 -0.38580918 2.3509656e-38
0.71782529 0.74820256 -0.38234895 2.350966e-38
0.71679586 0.75118482 -0.38061887 2.3509666e-38
0.71576643 0.75416696 -0.37888873 2.3509671e-38
0.71473694 0.7571494 -0.37715864 2.3509675e-38
0.70160383 0.82180536 -0.33606517 2.3509681e-38
0.70458418 0.82408255 -0.3332743 2.3509685e-38
0.72327566 0.84070051 -0.31410089 2.3509691e-38
0.72773379 0.8425312 -0.3110525 2.3509696e-38
0.73822302 0.84779328 -0.30319759 2.3509701e-38
0.74464732 0.85036403 -0.29885286 2.3509706e-38
0.75204444 0.85470372 -0.29286397 2.3509712e-38
0.7603398 0.85921836 -0.28639951 2.3509716e-38
0.74453932 0.85577607 -0.29502624 2.3509722e-38
0.72969776 0.85630357 -0.30044103 2.3509727e-38
0.71987534 0.85311317 -0.30655479 2.3509731e-38
0.70884335 0.84715492 -0.31511912 2.3509737e-38
0.7051723 0.84591317 -0.31743941 2.3509743e-38
0.68319434 0.84489071 -0.32674712 2.3509747e-38
0.66518199 0.84247786 -0.33550113 2.3509752e-38
0.65522105 0.84251004 -0.33936533 2.3509757e-38
0.65171415 0.84172088 -0.34129801 2.3509762e-38
0.64574242 0.84047842 -0.34451661 2.3509768e-38
0.64162141 0.83707529 -0.3485575 2.3509772e-38
0.61852503 0.82211465 -0.36826521 2.3509778e-38
0.5704273 0.81985569 -0.38864988 2.3509783e-38
0.53833246 0.83710414 -0.38884488 2.3509788e-38
0.54137295 0.78858811 -0.42233944 2.3509793e-38
0.54231489 0.78627628 -0.42362446 2.3509799e-38
0.54656583 0.77662927 -0.42886162 2.3509803e-38
0.54846203 0.76809061 -0.43422538 2.3509809e-38
0.53709054 0.72679502 -0.46818271 2.3509814e-38
0.52940762 0.7216863 -0.47483277 2.3509818e-38
0.52328515 0.71472913 -0.48219544 2.3509824e-38
0.52096927 0.70861375 -0.48747066 2.3509828e-38
0.51886332 0.70276129 -0.49247599 2.3509834e-38
0.51799649 0.69138712 -0.50094497 2.3509839e-38
0.51592624 0.68220884 -0.50831383 2.3509844e-38
0.51594561 0.67884165 -0.51071328 2.3509849e-38
0.52454019 0.65084404 -0.52737314 2.3509855e-38
0.52514917 0.64810187 -0.52909571 2.3509859e-38
0.52617621 0.64569241 -0.53041726 2.3509865e-38
0.53382045 0.63710749 -0.53357089 2.350987e-38
0.53861427 0.63189232 -0.53542811 2.3509874e-38
0.55504602 0.61216432 -0.543118 2.350988e-38
