# .PCD v0.7 - Point Cloud Data file format
VERSION 0.7
FIELDS x y z rgb
SIZE 4 4 4 4
TYPE F F F F
COUNT 1 1 1 1
WIDTH 90
HEIGHT 1
VIEWPOINT 0 0 0 1 0 0 0
POINTS 90
DATA ascii
1.798317 0.99906749 1.3476208 2.3509528e-38
1.796303 1.0003408 1.3451151 2.3509531e-38
1.8005066 1.0037974 1.3379266 2.3509535e-38
1.8229023 1.0208955 1.3023055 2.3509539e-38
1.8248852 1.0285975 1.2865831 2.3509544e-38
1.8271416 1.036285 1.2708791 2.3509548e-38
1.8261733 1.045867 1.2514561 2.3509552e-38
1.8221211 1.0536879 1.2357329 2.3509555e-38
1.8372931 1.0630673 1.2160773 2.3509559e-38
1.8400509 1.0741795 1.1933974 2.3509563e-38
1.8415291 1.0773832 1.1868318 2.3509568e-38
1.8618604 1.0869381 1.1666137 2.3509572e-38
1.8745049 1.0885134 1.1629097 2.3509576e-38
1.9019929 1.0983174 1.1419004 2.3509579e-38
1.904815 1.0982718 1.1418803 2.3509583e-38
1.9076369 1.0982262 1.1418602 2.3509587e-38
1.910459 1.0981807 1.1418402 2.3509591e-38
1.913281 1.0981351 1.1418202 2.3509596e-38
1.9400374 1.091724 1.1537739 2.35096e-38
1.9535232 1.0912604 1.1541777 2.3509603e-38
1.9635766 1.0909042 1.1544999 2.3509607e-38
1.9736297 1.090548 1.1548223 2.3509611e-38
2.0044515 1.0871993 1.160394 2.3509615e-38
2.0078068 1.0867386 1.161196 2.3509619e-38
2.0243435 1.0824015 1.1693451 2.3509624e-38
2.0557103 1.080999 1.1709421 2.3509626e-38
2.0795105 1.0724318 1.1873933 2.3509631e-38
2.0971286 1.067848 1.1960005 2.3509635e-38
2.1276608 1.0583163 1.2141417 2.3509639e-38
2.1904602 1.0677874 1.1923995 2.3509643e-38
2.1984804 1.0714134 1.184715 2.3509647e-38
2.201827 1.0732411 1.1808691 2.350965e-38
2.2131546 1.0787987 1.1691296 2.3509654e-38
2.2163479 1.078747 1.169107 2.3509659e-38
2.2852364 1.084934 1.1537924 2.3509663e-38
2.2943254 1.088694 1.1457928 2.3509667e-38
2.3097169 1.1051146 1.1118274 2.3509671e-38
2.311537 1.1096091 1.1026258 2.3509674e-38
2.3150043 1.1125789 1.0964556 2.3509678e-38
2.3290339 1.1231874 1.0743493 2.3509682e-38
2.325757 1.1426778 1.0348935 2.3509687e-38
2.3605435 1.1478989 1.0229012 2.3509691e-38
2.3640003 1.1470555 1.0244762 2.3509695e-38
2.3678074 1.13565 1.0474896 2.3509698e-38
2.3629153 1.1320368 1.0550238 2.3509702e-38
2.3580229 1.1284235 1.0625578 2.3509706e-38
2.3482382 1.1211969 1.077626 2.350971e-38
2.3433461 1.1175835 1.0851601 2.3509715e-38
2.3150742 1.1034126 1.1150703 2.3509719e-38
2.3051267 1.0861193 1.1505913 2.3509722e-38
2.2817307 1.070595 1.1830556 2.3509726e-38
2.2784927 1.0666677 1.1911615 2.350973e-38
2.2752454 1.0627419 1.1992646 2.3509734e-38
2.2584684 1.0514294 1.2229106 2.3509738e-38
2.2514451 1.0413429 1.2436771 2.3509743e-38
2.2203679 1.0253786 1.2773421 2.3509745e-38
2.2237377 1.0046591 1.3192904 2.350975e-38
2.2000012 0.99229944 1.3453408 2.3509754e-38
2.1965315 0.98269552 1.3649855 2.3509758e-38
2.1936505 0.97432405 1.3821036 2.3509762e-38
2.1697462 0.95667505 1.4189038 2.3509767e-38
2.146842 0.94599658 1.4415064 2.3509769e-38
2.127346 0.94313735 1.4480916 2.3509774e-38
2.0778508 0.95215464 1.4317516 2.3509778e-38
2.0637503 0.95187247 1.4328871 2.3509782e-38
2.019249 0.95254982 1.433287 2.3509786e-38
1.994902 0.95193642 1.4355043 2.350979e-38
1.9776908 0.9555943 1.4287615 2.3509793e-38
1.9650321 0.95997918 1.4203606 2.3509797e-38
1.9553887 0.9645797 1.4114013 2.3509802e-38
1.9254577 0.97038329 1.400808 2.3509806e-38
1.8979645 0.97292435 1.3967439 2.350981e-38
1.8950067 0.97395968 1.3947589 2.3509814e-38
1.8920487 0.97499508 1.392774 2.3509817e-38
1.8890909 0.97603047 1.3907892 2.3509821e-38
1.8676984 0.98184675 1.3798293 2.3509825e-38
1.8580959 0.98353612 1.3767812 2.350983e-38
1.8496513 0.98561645 1.3728927 2.3509834e-38
1.8356795 0.98944879 1.3656665 2.3509838e-38
1.8225282 0.9930957 1.3587841 2.3509841e-38
2.0091367 1.0038868 1.3294213 2.3509845e-38
1.9328979 0.98655421 1.3676667 2.3509849e-38
1.9170588 0.99338591 1.354423 2.3509853e-38
1.9068211 1.006915 1.3273528 2.3509858e-38
1.9138514 1.0398464 1.2601861 2.3509862e-38
1.9183007 1.0431328 1.2533339 2.3509865e-38
1.9697645 1.0548295 1.2275237 2.3509869e-38
2.0360403 1.0214124 1.2927521 2.3509873e-38
2.0195849 1.0120213 1.3124824 2.3509877e-38
2.0107167 1.0073109 1.3224036 2.3509881e-38
