# .PCD v0.7 - Point Cloud Data file format
VERSION 0.7
FIELDS x y z rgb
SIZE 4 4 4 4
TYPE F F F F
COUNT 1 1 1 1
WIDTH 84
HEIGHT 1
VIEWPOINT 0 0 0 1 0 0 0
POINTS 84
DATA ascii
1.0134189 1.5263706 -1.5757382 2.3509528e-38
1.0195472 1.5286309 -1.5948937 2.3509532e-38
1.0467815 1.5302432 -1.6255929 2.3509537e-38
1.0587173 1.5286555 -1.6242393 2.3509541e-38
1.0665698 1.5277643 -1.6243377 2.3509545e-38
1.1155428 1.5242673 -1.638257 2.3509549e-38
1.1515849 1.5217988 -1.6491787 2.3509554e-38
1.1616778 1.520945 -1.6511879 2.3509558e-38
1.2056022 1.5207092 -1.6823951 2.3509562e-38
1.2575903 1.514586 -1.6816087 2.3509566e-38
1.2702278 1.5136429 -1.6849382 2.350957e-38
1.2844065 1.5131022 -1.6920125 2.3509575e-38
1.2856945 1.5130581 -1.692688 2.3509579e-38
1.3220991 1.5074948 -1.6839038 2.3509583e-38
1.3332288 1.5038174 -1.6684606 2.3509587e-38
1.3569962 1.4991971 -1.6563468 2.3509591e-38
1.3736916 1.4911615 -1.6169186 2.3509596e-38
1.3750031 1.4888029 -1.6026717 2.35096e-38
1.3721949 1.4884473 -1.5982838 2.3509604e-38
1.3791567 1.4768336 -1.5285075 2.3509608e-38
1.4176611 1.4669013 -1.4930881 2.3509612e-38
1.4479537 1.4604752 -1.4741808 2.3509617e-38
1.480618 1.4549588 -1.4629126 2.3509621e-38
1.5003865 1.4520727 -1.4590138 2.3509625e-38
1.5216057 1.445213 -1.4305459 2.3509629e-38
1.604943 1.4320818 -1.4078845 2.3509633e-38
1.6131828 1.4280758 -1.3881668 2.3509638e-38
1.6173025 1.4260728 -1.3783078 2.3509642e-38
1.6214224 1.4240699 -1.3684489 2.3509647e-38
1.652401 1.4145236 -1.3299127 2.3509652e-38
1.6653311 1.4080472 -1.2977434 2.3509656e-38
1.6630001 1.4007726 -1.2490509 2.350966e-38
1.6683942 1.3974094 -1.2313613 2.3509664e-38
1.660216 1.3917594 -1.1887981 2.3509668e-38
1.6586103 1.3912728 -1.184461 2.3509673e-38
1.6511418 1.392527 -1.1869916 2.3509677e-38
1.612752 1.4019988 -1.2195244 2.3509681e-38
1.5919514 1.4062481 -1.2314535 2.3509685e-38
1.5562135 1.4130058 -1.2484442 2.3509689e-38
1.5063828 1.4286842 -1.3125148 2.3509694e-38
1.4836193 1.4343345 -1.3320243 2.3509698e-38
1.475908 1.4356295 -1.3346373 2.3509702e-38
1.4434056 1.4403069 -1.3406107 2.3509706e-38
1.4171948 1.4450895 -1.35195 2.350971e-38
1.4094317 1.4463931 -1.3545805 2.3509715e-38
1.3728791 1.4580865 -1.4028224 2.3509719e-38
1.3688558 1.4595588 -1.4093281 2.3509723e-38
1.3436615 1.4698308 -1.456858 2.3509727e-38
1.3375778 1.4719005 -1.465685 2.3509731e-38
1.3193454 1.4766233 -1.4825839 2.3509736e-38
1.312107 1.4779884 -1.4860009 2.350974e-38
1.2653012 1.4845599 -1.4935426 2.3509744e-38
1.2578262 1.4854082 -1.4934489 2.3509748e-38
1.1801004 1.4892215 -1.4601469 2.3509752e-38
1.187278 1.4825383 -1.4223574 2.3509757e-38
1.1872699 1.4799461 -1.4056193 2.3509761e-38
1.1925724 1.4732308 -1.366225 2.3509767e-38
1.1972082 1.4703405 -1.3510222 2.3509771e-38
1.2061685 1.4663345 -1.3318409 2.3509775e-38
1.2104005 1.4641204 -1.3207036 2.3509779e-38
1.22326 1.4598449 -1.3026882 2.3509783e-38
1.2384199 1.4558467 -1.2881763 2.3509788e-38
1.2295648 1.4550884 -1.2766832 2.3509792e-38
1.2212334 1.4543847 -1.2659332 2.3509796e-38
1.2055711 1.4524318 -1.2416579 2.35098e-38
1.1970454 1.4541291 -1.2462603 2.3509804e-38
1.1420691 1.4624523 -1.259021 2.3509809e-38
1.1353526 1.4632146 -1.258937 2.3509813e-38
1.1222382 1.4682102 -1.28141 2.3509817e-38
1.1203642 1.469579 -1.2888489 2.3509821e-38
1.1233792 1.4751202 -1.3268626 2.3509825e-38
1.1239235 1.4756621 -1.3307666 2.350983e-38
1.125315 1.4792551 -1.3549947 2.3509834e-38
1.0862452 1.4905617 -1.3988645 2.3509838e-38
1.0724025 1.4961725 -1.4247669 2.3509842e-38
1.0613143 1.5009255 -1.4471842 2.3509846e-38
1.0487152 1.5050957 -1.4647136 2.3509851e-38
1.0381895 1.5112437 -1.4965539 2.3509855e-38
1.0318536 1.5132793 -1.5049727 2.3509859e-38
1.032447 1.5138702 -1.5092292 2.3509863e-38
1.0330403 1.5144612 -1.5134857 2.3509867e-38
1.0312364 1.5178168 -1.533801 2.3509872e-38
1.0292077 1.520291 -1.5482596 2.3509876e-38
1.0199494 1.5242724 -1.5670611 2.350988e-38
