# .PCD v0.7 - Point Cloud Data file format
VERSION 0.7
FIELDS x y z rgb
SIZE 4 4 4 4
TYPE F F F F
COUNT 1 1 1 1
WIDTH 307
HEIGHT 1
VIEWPOINT 0 0 0 1 0 0 0
POINTS 307
DATA ascii
-1.5881066 -0.32469952 2.5960929 2.3509528e-38
-1.5984424 -0.33247241 2.5874083 2.3509528e-38
-1.5992113 -0.34194851 2.5833051 2.350953e-38
-1.6007488 -0.36090037 2.5750983 2.3509531e-38
-1.6221898 -0.38592252 2.5536253 2.3509532e-38
-1.6229585 -0.39539844 2.5495222 2.3509534e-38
-1.6237272 -0.40487418 2.5454187 2.3509534e-38
-1.6244961 -0.41435018 2.5413156 2.3509535e-38
-1.6041917 -0.43157965 2.5457478 2.3509537e-38
-1.5869964 -0.43063769 2.5555375 2.3509538e-38
-1.5774293 -0.43234038 2.5601184 2.3509539e-38
-1.5457648 -0.42292079 2.581131 2.3509541e-38
-1.4934261 -0.46974251 2.5916202 2.3509541e-38
-1.4922785 -0.48165074 2.5876222 2.3509542e-38
-1.4914907 -0.48588049 2.5864103 2.3509544e-38
-1.485411 -0.50791085 2.5811813 2.3509545e-38
-1.4847662 -0.51219791 2.579869 2.3509547e-38
-1.4841213 -0.51648492 2.5785568 2.3509548e-38
-1.4834765 -0.52077204 2.5772443 2.3509548e-38
-1.4828259 -0.53240764 2.5730793 2.3509549e-38
-1.482803 -0.53763169 2.5710621 2.3509551e-38
-1.4821076 -0.54187942 2.5697932 2.3509552e-38
-1.4788876 -0.55355644 2.5670199 2.3509554e-38
-1.4897473 -0.59079802 2.546598 2.3509555e-38
-1.4818197 -0.62279236 2.5385103 2.3509555e-38
-1.4932914 -0.64861292 2.5221903 2.3509556e-38
-1.5032774 -0.6561228 2.5137999 2.3509558e-38
-1.5040202 -0.66527802 2.5098352 2.3509559e-38
-1.459679 -0.67363608 2.5308871 2.3509561e-38
-1.436092 -0.68612874 2.5389593 2.3509562e-38
-1.419759 -0.69317174 2.5451734 2.3509562e-38
-1.4133408 -0.69464272 2.5481191 2.3509563e-38
-1.4058214 -0.69603384 2.5516992 2.3509565e-38
-1.3914133 -0.6984722 2.5586474 2.3509566e-38
-1.382738 -0.69783783 2.563648 2.3509568e-38
-1.3485129 -0.70791352 2.5784893 2.3509569e-38
-1.3343079 -0.70453531 2.5875866 2.3509569e-38
-1.3035842 -0.70690984 2.6035008 2.350957e-38
-1.2854031 -0.71914631 2.6087093 2.3509572e-38
-1.2763877 -0.72075099 2.6130269 2.3509573e-38
-1.2723029 -0.72110528 2.6151276 2.3509575e-38
-1.2601196 -0.7213859 2.6216953 2.3509576e-38
-1.2562745 -0.72209716 2.6235259 2.3509576e-38
-1.2438428 -0.72232503 2.6302502 2.3509577e-38
-1.2146711 -0.73357248 2.6418664 2.3509579e-38
-1.2057292 -0.73516405 2.6461484 2.350958e-38
-1.1967872 -0.73675567 2.6504304 2.3509582e-38
-1.1878453 -0.73834711 2.6547122 2.3509583e-38
-1.1784532 -0.7344445 2.6613755 2.3509583e-38
-1.1597556 -0.73403198 2.6717825 2.3509584e-38
-1.1555003 -0.73462361 2.6738844 2.3509586e-38
-1.1514894 -0.73553658 2.6757278 2.3509587e-38
-1.1354483 -0.74051625 2.6825836 2.3509589e-38
-1.1287133 -0.74362576 2.6850662 2.350959e-38
-1.1199157 -0.74519163 2.6892791 2.350959e-38
-1.1101023 -0.74587291 2.6943924 2.3509591e-38
-1.0949745 -0.7499575 2.7010953 2.3509593e-38
-1.0771842 -0.75185823 2.7101061 2.3509594e-38
-1.0414438 -0.76799828 2.7234211 2.3509596e-38
-1.0326462 -0.76956433 2.727634 2.3509597e-38
-1.0238484 -0.77113008 2.7318466 2.3509597e-38
-1.0150508 -0.77269602 2.7360594 2.3509598e-38
-1.0062532 -0.77426183 2.7402723 2.35096e-38
-0.98865777 -0.77739352 2.7486978 2.3509601e-38
-0.97122526 -0.77793932 2.758039 2.3509603e-38
-0.93929845 -0.78785586 2.7716823 2.3509603e-38
-0.91621315 -0.78502065 2.7854354 2.3509604e-38
-0.89811736 -0.79183871 2.7927027 2.3509605e-38
-0.89398748 -0.79260272 2.7946689 2.3509607e-38
-0.88303852 -0.79234934 2.8007677 2.3509608e-38
-0.84442955 -0.8017714 2.818265 2.350961e-38
-0.84029984 -0.80253547 2.8202314 2.350961e-38
-0.8361699 -0.80329949 2.8221977 2.3509611e-38
-0.82867432 -0.80016196 2.8275244 2.3509612e-38
-0.78236753 -0.81058806 2.84885 2.3509614e-38
-0.76945931 -0.81355709 2.8547702 2.3509615e-38
-0.76529586 -0.81432742 2.8567526 2.3509617e-38
-0.73851925 -0.82170618 2.8685596 2.3509617e-38
-0.7343204 -0.822483 2.8705587 2.3509618e-38
-0.73012155 -0.82325983 2.8725576 2.3509619e-38
-0.72592276 -0.82403666 2.874557 2.3509621e-38
-0.70447582 -0.82122958 2.8874011 2.3509622e-38
-0.70024168 -0.8220129 2.8894172 2.3509624e-38
-0.68330532 -0.82514626 2.897481 2.3509624e-38
-0.67907113 -0.82592958 2.8994968 2.3509625e-38
-0.6595937 -0.83194625 2.9078331 2.3509626e-38
-0.64599115 -0.83914155 2.9124918 2.3509628e-38
-0.63317877 -0.84151208 2.9185922 2.3509629e-38
-0.6183446 -0.84207112 2.9265039 2.3509631e-38
-0.61403698 -0.84286803 2.9285548 2.3509631e-38
-0.59170252 -0.85171926 2.9373555 2.3509632e-38
-0.58739501 -0.85251617 2.9394064 2.3509633e-38
-0.56346172 -0.85479891 2.9516349 2.3509635e-38
-0.55911756 -0.85560268 2.9537034 2.3509636e-38
-0.5097518 -0.90571439 2.9612851 2.3509638e-38
-0.4834666 -0.94702035 2.9596393 2.3509638e-38
-0.48129779 -0.95595163 2.9573576 2.3509639e-38
-0.47912893 -0.96488303 2.9550755 2.350964e-38
-0.47696033 -0.97381449 2.9527938 2.3509642e-38
-0.47546804 -0.98054028 2.9509976 2.3509643e-38
-0.47466451 -0.98544818 2.9495313 2.3509645e-38
-0.47386074 -0.99035603 2.9480646 2.3509645e-38
-0.47305697 -0.99526393 2.9465981 2.3509646e-38
-0.4722532 -1.0001718 2.9451313 2.3509647e-38
-0.47144955 -1.0050797 2.9436648 2.3509649e-38
-0.4706459 -1.0099877 2.9421983 2.350965e-38
-0.50255412 -1.0575079 2.9062471 2.3509652e-38
-0.50176388 -1.0623325 2.9048052 2.3509652e-38
-0.50018358 -1.0719825 2.9019215 2.3509653e-38
-0.5012939 -1.0904921 2.8941207 2.3509654e-38
-0.50551319 -1.1085202 2.8848033 2.3509656e-38
-0.50472993 -1.1133035 2.883374 2.3509657e-38
-0.50394666 -1.1180872 2.8819447 2.3509659e-38
-0.50237989 -1.127654 2.8790858 2.3509659e-38
-0.50159663 -1.1324375 2.8776565 2.350966e-38
-0.50081325 -1.137221 2.8762269 2.3509661e-38
-0.50002998 -1.1420045 2.8747976 2.3509663e-38
-0.50034732 -1.1651384 2.8656344 2.3509664e-38
-0.49956405 -1.1699219 2.8642051 2.3509666e-38
-0.49878067 -1.1747053 2.8627756 2.3509666e-38
-0.49799728 -1.1794887 2.8613462 2.3509667e-38
-0.49721384 -1.1842722 2.8599164 2.3509668e-38
-0.48601863 -1.1950153 2.8618777 2.350967e-38
-0.48181981 -1.1957922 2.8638768 2.3509671e-38
-0.45754027 -1.2008891 2.8752017 2.3509671e-38
-0.45330632 -1.2016726 2.877218 2.3509673e-38
-0.44060388 -1.2040226 2.8832657 2.3509674e-38
-0.43636993 -1.204806 2.8852818 2.3509675e-38
-0.43213579 -1.2055893 2.8872976 2.3509677e-38
-0.42790157 -1.2063726 2.8893135 2.3509678e-38
-0.42366749 -1.2071559 2.8913295 2.3509678e-38
-0.41943344 -1.2079394 2.8933456 2.350968e-38
-0.41519937 -1.2087227 2.8953617 2.3509681e-38
-0.41096509 -1.2095059 2.8973773 2.3509682e-38
-0.40673101 -1.2102892 2.8993933 2.3509684e-38
-0.38750109 -1.2149611 2.9081168 2.3509685e-38
-0.36862433 -1.2221481 2.9156687 2.3509685e-38
-0.34971404 -1.2234815 2.9255137 2.3509687e-38
-0.33856761 -1.224161 2.9313579 2.3509688e-38
-0.31947008 -1.2285095 2.940134 2.3509689e-38
-0.31150046 -1.2300367 2.943908 2.3509691e-38
-0.29231906 -1.2350663 2.9524658 2.3509692e-38
-0.28591681 -1.2355176 2.9557986 2.3509692e-38
-0.27951473 -1.2359691 2.959132 2.3509694e-38
-0.25971088 -1.2412262 2.9679422 2.3509695e-38
-0.25325814 -1.2416811 2.9713013 2.3509696e-38
-0.24680519 -1.242136 2.9746606 2.3509698e-38
-0.23389985 -1.243046 2.9813795 2.3509699e-38
-0.22744733 -1.2435014 2.9847391 2.3509699e-38
-0.22099447 -1.2439563 2.9880984 2.3509701e-38
-0.21454166 -1.2444111 2.9914577 2.3509702e-38
-0.19418174 -1.2497075 3.0005577 2.3509703e-38
-0.17325974 -1.255227 3.0098782 2.3509705e-38
-0.15249045 -1.2605522 3.0191913 2.3509706e-38
-0.13744211 -1.2658415 3.0253823 2.3509706e-38
-0.13077994 -1.2663114 3.0288508 2.3509708e-38
-0.12411776 -1.2667811 3.0323193 2.3509709e-38
-0.11745548 -1.267251 3.0357876 2.350971e-38
-0.11079348 -1.2677208 3.0392563 2.3509712e-38
-0.087073639 -1.2776656 3.0483906 2.3509713e-38
-0.080303147 -1.278143 3.0519154 2.3509713e-38
-0.073532589 -1.2786205 3.0554402 2.3509715e-38
-0.066761985 -1.2790979 3.0589652 2.3509716e-38
-0.051051714 -1.2844338 3.0655012 2.3509717e-38
-0.04422573 -1.2849152 3.0690551 2.3509719e-38
-0.027955789 -1.2904747 3.0758111 2.350972e-38
-0.021072028 -1.29096 3.0793951 2.350972e-38
-0.014188315 -1.2914455 3.0829787 2.3509722e-38
-0.007304538 -1.2919309 3.0865624 2.3509723e-38
-0.00042098016 -1.2924163 3.0901463 2.3509724e-38
0.0064628273 -1.2929019 3.0937297 2.3509726e-38
0.023137268 -1.2984895 3.1006968 2.3509727e-38
0.03007878 -1.298979 3.1043105 2.3509727e-38
0.047339432 -1.3047919 3.111511 2.3509729e-38
0.054341152 -1.3052857 3.1151562 2.350973e-38
0.061342798 -1.3057795 3.1188011 2.3509731e-38
0.068344533 -1.306273 3.1224463 2.3509733e-38
0.085905969 -1.3121074 3.1298034 2.3509734e-38
0.096351221 -1.3082482 3.1370273 2.3509734e-38
0.093923658 -1.2982512 3.1395814 2.3509736e-38
0.087787621 -1.2626882 3.1500375 2.3509737e-38
0.08877214 -1.2569362 3.1528122 2.3509738e-38
0.094566151 -1.233435 3.1651187 2.350974e-38
0.089385808 -1.1835179 3.1816764 2.3509741e-38
0.093999237 -1.173933 3.1879292 2.3509741e-38
0.093839817 -1.1506364 3.1968939 2.3509743e-38
0.099403754 -1.1277529 3.2088346 2.3509744e-38
0.096934266 -1.117584 3.2114329 2.3509745e-38
0.094465166 -1.1074151 3.214031 2.3509747e-38
0.091995746 -1.0972461 3.2166293 2.3509747e-38
0.090772189 -1.0798411 3.2227216 2.3509748e-38
0.082118623 -1.0565703 3.2270217 2.350975e-38
-0.0011628643 -1.0307077 3.1914318 2.3509751e-38
-0.02746978 -1.0167118 3.1824532 2.3509752e-38
-0.072071671 -1.0114204 3.1600668 2.3509754e-38
-0.10940871 -0.97741717 3.152818 2.3509754e-38
-0.12116359 -0.9571054 3.1542685 2.3509755e-38
-0.14254525 -0.89714915 3.1658485 2.3509757e-38
-0.13891938 -0.84949231 3.1863537 2.3509758e-38
-0.13434511 -0.83998883 3.1925528 2.3509759e-38
-0.13293347 -0.81106734 3.2045646 2.3509761e-38
-0.13538177 -0.80098426 3.2071407 2.3509761e-38
-0.13948137 -0.79049724 3.2089691 2.3509762e-38
-0.14190887 -0.78050011 3.2115233 2.3509764e-38
-0.14517552 -0.76065212 3.2174454 2.3509765e-38
-0.15994914 -0.76928329 3.2059953 2.3509767e-38
-0.22539595 -0.78387493 3.1644597 2.3509768e-38
-0.26095638 -0.78082639 3.1461563 2.3509768e-38
-0.28569132 -0.78858376 3.1295874 2.3509769e-38
-0.30621535 -0.78679419 3.119035 2.3509771e-38
-0.33515528 -0.77873188 3.106308 2.3509772e-38
-0.3629747 -0.76999497 3.0944574 2.3509774e-38
-0.36224091 -0.7750622 3.0928907 2.3509775e-38
-0.39744356 -0.83380973 3.0507712 2.3509775e-38
-0.44592053 -0.80843437 3.0340655 2.3509776e-38
-0.45190257 -0.79768831 3.0349627 2.3509778e-38
-0.46109992 -0.77661645 3.0381103 2.3509779e-38
-0.46340513 -0.77146477 3.0388489 2.3509781e-38
-0.48179987 -0.72456723 3.0469911 2.3509782e-38
-0.48317015 -0.70403254 3.0542192 2.3509782e-38
-0.48390412 -0.69896543 3.0557859 2.3509783e-38
-0.48667309 -0.63034213 3.0809336 2.3509785e-38
-0.47149709 -0.60129148 3.1005385 2.3509786e-38
-0.48724163 -0.58425516 3.0985303 2.3509788e-38
-0.49604857 -0.52344888 3.117331 2.3509789e-38
-0.52155226 -0.45779961 3.128864 2.3509789e-38
-0.51923841 -0.41877571 3.1452956 2.350979e-38
-0.52152902 -0.40934247 3.1477053 2.3509792e-38
-0.54270953 -0.41533005 3.1337717 2.3509793e-38
-0.58064246 -0.39772928 3.1198227 2.3509795e-38
-0.58515686 -0.39711773 3.1175866 2.3509796e-38
-0.62982965 -0.39919451 3.0922983 2.3509796e-38
-0.67836809 -0.405247 3.0633464 2.3509797e-38
-0.70490599 -0.39139071 3.0541875 2.3509799e-38
-0.70968765 -0.38679999 3.0533507 2.35098e-38
-0.7374593 -0.39091575 3.0365322 2.3509802e-38
-0.75108349 -0.39230451 3.0285263 2.3509803e-38
-0.7783516 -0.38745111 3.0154688 2.3509803e-38
-0.81514561 -0.36430907 3.0042975 2.3509804e-38
-0.8684535 -0.35576683 2.9784031 2.3509806e-38
-0.87568879 -0.35790902 2.9736056 2.3509807e-38
-0.92449731 -0.34120539 2.9533479 2.3509809e-38
-0.9757185 -0.31303275 2.9362252 2.350981e-38
-0.98789382 -0.27003795 2.9462595 2.350981e-38
-0.98862499 -0.26517811 2.9477472 2.3509811e-38
-0.99291474 -0.25409403 2.949703 2.3509813e-38
-1.0129707 -0.24294075 2.9430459 2.3509814e-38
-1.0315704 -0.23098291 2.9374995 2.3509816e-38
-1.0470061 -0.22559327 2.9311345 2.3509816e-38
-1.0864801 -0.21352769 2.9141908 2.3509817e-38
-1.0907284 -0.2129728 2.9120781 2.3509818e-38
-1.1179465 -0.20857428 2.8988712 2.350982e-38
-1.1446681 -0.19571221 2.889225 2.3509821e-38
-1.156738 -0.19793968 2.8817449 2.3509823e-38
-1.2018225 -0.18443163 2.8622868 2.3509823e-38
-1.2319901 -0.20702875 2.8369741 2.3509824e-38
-1.2505406 -0.20677006 2.8269083 2.3509825e-38
-1.2512529 -0.21260524 2.8242507 2.3509827e-38
-1.2630351 -0.24245737 2.8061943 2.3509828e-38
-1.2730044 -0.24992491 2.7978292 2.350983e-38
-1.3120406 -0.2703889 2.7684853 2.350983e-38
-1.3220099 -0.27785641 2.7601202 2.3509831e-38
-1.3974979 -0.2584244 2.7263024 2.3509832e-38
-1.4033517 -0.25028753 2.7262559 2.3509834e-38
-1.4073362 -0.24976709 2.7242746 2.3509835e-38
-1.4113208 -0.24924663 2.7222929 2.3509837e-38
-1.4344085 -0.24811295 2.7100813 2.3509837e-38
-1.4727979 -0.23858985 2.6927435 2.3509838e-38
-1.4920328 -0.23293856 2.6843984 2.3509839e-38
-1.5031251 -0.2502518 2.6715925 2.3509841e-38
-1.5019799 -0.26301426 2.6672611 2.3509842e-38
-1.4859763 -0.29566821 2.6633425 2.3509844e-38
-1.4885451 -0.32437733 2.6507795 2.3509844e-38
-1.4890987 -0.32815602 2.6490083 2.3509845e-38
-1.5024951 -0.36391926 2.6277699 2.3509846e-38
-1.5800771 -0.34535414 2.5924675 2.3509848e-38
-0.69484115 -0.47569698 3.0269444 2.3509849e-38
-0.62894213 -0.43092734 3.0804541 2.3509851e-38
-0.58317095 -0.47782335 3.0873151 2.3509851e-38
-0.58095127 -0.4869644 3.0849798 2.3509852e-38
-0.57873166 -0.49610549 3.0826442 2.3509853e-38
-0.57651192 -0.50524646 3.0803087 2.3509855e-38
-0.574292 -0.51438755 3.0779731 2.3509856e-38
-0.56763303 -0.54181087 3.070967 2.3509858e-38
-0.56319386 -0.56009299 3.0662959 2.3509858e-38
-0.56097394 -0.56923401 3.0639601 2.3509859e-38
-0.55875432 -0.5783751 3.0616248 2.350986e-38
-0.55653477 -0.58751631 3.0592892 2.3509862e-38
-0.55431479 -0.59665716 3.0569534 2.3509863e-38
-0.55209529 -0.60579836 3.0546181 2.3509865e-38
-0.54987538 -0.61493939 3.0522826 2.3509865e-38
-0.5476557 -0.6240803 3.049947 2.3509866e-38
-0.54543614 -0.63322151 3.0476115 2.3509867e-38
-0.54559994 -0.65175998 3.0403185 2.3509869e-38
-0.54824769 -0.6610291 3.0352657 2.350987e-38
-0.6111629 -0.6757068 2.9950838 2.3509872e-38
-0.63631827 -0.65184861 2.9905686 2.3509872e-38
-0.64151162 -0.64608687 2.9899619 2.3509873e-38
-0.66666692 -0.62222874 2.9854467 2.3509874e-38
-0.6718601 -0.61646682 2.9848394 2.3509876e-38
-0.68662912 -0.60413247 2.981539 2.3509877e-38
-0.69182217 -0.59837061 2.9809318 2.3509879e-38
-0.70740306 -0.56711912 2.9845364 2.3509879e-38
-0.70737576 -0.51838893 3.0034862 2.350988e-38
-0.69699693 -0.50226712 3.0154388 2.3509881e-38
-0.69627815 -0.49341035 3.0192738 2.3509883e-38
-0.69555962 -0.48455366 3.023109 2.3509884e-38
