# .PCD v0.7 - Point Cloud Data file format
VERSION 0.7
FIELDS x y z rgb
SIZE 4 4 4 4
TYPE F F F F
COUNT 1 1 1 1
WIDTH 105
HEIGHT 1
VIEWPOINT 0 0 0 1 0 0 0
POINTS 105
DATA ascii
1.8668368 0.96862131 1.3658248 2.3509528e-38
1.8599215 0.97834957 1.3790363 2.3509531e-38
1.8586838 0.98673385 1.3815114 2.3509534e-38
1.857446 0.99511808 1.3839865 2.3509538e-38
1.8562083 1.0035025 1.3864616 2.3509541e-38
1.8537365 1.0213872 1.3914239 2.3509545e-38
1.8525075 1.0297129 1.3938817 2.3509548e-38
1.854169 1.0660738 1.3913518 2.3509552e-38
1.8541504 1.0706824 1.391464 2.3509555e-38
1.8530021 1.0844905 1.3938601 2.3509558e-38
1.8527571 1.0926341 1.394459 2.3509562e-38
1.8507969 1.1148897 1.3985277 2.3509565e-38
1.8504176 1.1262814 1.3994334 2.3509569e-38
1.8483436 1.1397693 1.403572 2.3509572e-38
1.8476704 1.1485482 1.4049882 2.3509576e-38
1.8455923 1.1668402 1.4092143 2.3509579e-38
1.8380826 1.1949759 1.4238535 2.3509582e-38
1.8399968 1.2242006 1.420728 2.3509586e-38
1.840686 1.2886281 1.4204998 2.3509589e-38
1.8445886 1.2923256 1.4131972 2.3509593e-38
1.8514589 1.3035678 1.40042 2.3509596e-38
1.8645055 1.3060999 1.3758423 2.35096e-38
1.8685756 1.3099202 1.3682251 2.3509603e-38
1.8870957 1.3318971 1.3336424 2.3509605e-38
1.9078355 1.320586 1.2943171 2.350961e-38
1.9113555 1.3226421 1.2877089 2.3509612e-38
1.9183956 1.3267541 1.2744925 2.3509617e-38
1.9347781 1.3023102 1.243171 2.3509619e-38
1.9669956 1.3347232 1.1829141 2.3509624e-38
1.9712138 1.3405719 1.1750517 2.3509626e-38
1.975369 1.3420599 1.1672349 2.3509629e-38
1.9925718 1.3636039 1.1351317 2.3509633e-38
1.9996645 1.3729819 1.1219027 2.3509636e-38
2.0036695 1.3821564 1.1144981 2.350964e-38
2.0049443 1.3837183 1.1121186 2.3509643e-38
2.0074689 1.385264 1.1073803 2.3509647e-38
2.0125966 1.3899788 1.0977825 2.350965e-38
2.0169599 1.396534 1.0896578 2.3509653e-38
2.0183191 1.398322 1.087123 2.3509657e-38
2.0221183 1.401425 1.0800049 2.350966e-38
2.0309188 1.4081923 1.0635104 2.3509664e-38
2.0347018 1.4112902 1.0564238 2.3509667e-38
2.0400767 1.4154456 1.0463504 2.3509671e-38
2.0425117 1.4172189 1.0417843 2.3509674e-38
2.0597088 1.427916 1.0095105 2.3509677e-38
2.070555 1.4601834 0.98958057 2.3509681e-38
2.0922225 1.4693867 0.9488458 2.3509684e-38
2.0961897 1.4729092 0.94141835 2.3509688e-38
2.1069884 1.47077 0.92100465 2.3509691e-38
2.1127174 1.4663544 0.91012061 2.3509695e-38
2.1164544 1.4624541 0.90300339 2.3509698e-38
2.1285899 1.4551306 0.87998146 2.3509701e-38
2.124495 1.4438758 0.88752097 2.3509705e-38
2.1237612 1.4432905 0.88889635 2.3509708e-38
2.1196187 1.4393705 0.89664865 2.3509712e-38
2.1143663 1.4348738 0.90648532 2.3509715e-38
2.1126621 1.4338663 0.90968412 2.3509719e-38
2.1077418 1.4295591 0.91889685 2.3509722e-38
2.094105 1.4325671 0.94468087 2.3509724e-38
2.0810323 1.4197662 0.96913648 2.3509729e-38
2.0762331 1.4167267 0.9781419 2.3509731e-38
2.0711048 1.4113034 0.98772961 2.3509736e-38
2.0632341 1.4048293 1.0024737 2.3509738e-38
2.0547709 1.4004349 1.0183713 2.3509743e-38
2.050657 1.396836 1.0260744 2.3509745e-38
2.0469894 1.3922795 1.0329198 2.3509748e-38
2.0362172 1.3611637 1.0527295 2.3509752e-38
2.0231478 1.3568419 1.0773202 2.3509755e-38
2.0203986 1.3539045 1.0824587 2.3509759e-38
2.0182683 1.3516639 1.0864416 2.3509762e-38
2.0174785 1.3507138 1.0879165 2.3509767e-38
2.0163989 1.3496433 1.0899355 2.3509769e-38
2.0145581 1.3475232 1.0933741 2.3509772e-38
2.0008168 1.3419213 1.1192122 2.3509776e-38
1.9978962 1.3387307 1.1246697 2.3509779e-38
1.9903665 1.3236399 1.1386274 2.3509783e-38
1.9729671 1.3117964 1.1712642 2.3509786e-38
1.9697939 1.3083107 1.1771942 2.350979e-38
1.9669689 1.3052242 1.182474 2.3509793e-38
1.9576184 1.2860355 1.1997995 2.3509796e-38
1.9479215 1.232199 1.2172009 2.35098e-38
1.9486053 1.2232362 1.2157613 2.3509803e-38
1.9511867 1.2086787 1.2106475 2.3509807e-38
1.9550732 1.1951733 1.2030895 2.350981e-38
1.9594483 1.1728852 1.1944622 2.3509814e-38
1.9601115 1.1650131 1.1930797 2.3509817e-38
1.9655643 1.136405 1.1823139 2.350982e-38
1.9700038 1.1176046 1.173623 2.3509824e-38
1.988156 1.0893911 1.1388998 2.3509827e-38
1.9888232 1.0814689 1.1375085 2.3509831e-38
1.9888123 1.0473357 1.1369606 2.3509834e-38
1.9876157 1.0443377 1.1391689 2.3509838e-38
1.983439 1.0382462 1.1469491 2.3509841e-38
1.9766158 1.0326149 1.1597311 2.3509844e-38
1.9739467 1.0296988 1.1647192 2.3509848e-38
1.9698819 1.0269747 1.1723448 2.3509851e-38
1.9671206 1.0276107 1.1775661 2.3509855e-38
1.9452608 1.0236598 1.2187502 2.3509858e-38
1.9377443 1.0186402 1.2328509 2.3509862e-38
1.9351858 1.0158449 1.2376326 2.3509865e-38
1.922788 1.0056705 1.2608582 2.3509867e-38
1.9160006 0.99140918 1.273429 2.3509872e-38
1.9134866 0.9886623 1.2781277 2.3509874e-38
1.8909965 0.98311549 1.3204753 2.3509879e-38
1.8703799 0.97069085 1.3591733 2.3509881e-38
