# .PCD v0.7 - Point Cloud Data file format
VERSION 0.7
FIELDS x y z rgb
SIZE 4 4 4 4
TYPE F F F F
COUNT 1 1 1 1
WIDTH 63
HEIGHT 1
VIEWPOINT 0 0 0 1 0 0 0
POINTS 63
DATA ascii
-1.3768545 1.1109519 -1.6778997 2.3509528e-38
-1.3883947 1.1012665 -1.6572756 2.3509534e-38
-1.4022733 1.0943305 -1.6337658 2.3509539e-38
-1.4146703 1.0782517 -1.6100531 2.3509545e-38
-1.429451 1.0693256 -1.5845929 2.3509551e-38
-1.4427619 1.0543934 -1.5597719 2.3509556e-38
-1.4485441 1.0613948 -1.5526917 2.3509562e-38
-1.4587085 1.0761802 -1.5409266 2.3509568e-38
-1.4711024 1.1006875 -1.5283594 2.3509573e-38
-1.4749845 1.1348282 -1.531687 2.3509579e-38
-1.4906311 1.1711212 -1.5172912 2.3509584e-38
-1.5345088 1.1530622 -1.4440262 2.350959e-38
-1.5383161 1.149366 -1.4370843 2.3509596e-38
-1.5524325 1.1771147 -1.4227256 2.3509601e-38
-1.5551242 1.182266 -1.4199488 2.3509607e-38
-1.5614339 1.1965696 -1.4140524 2.3509612e-38
-1.5641434 1.2017547 -1.4112575 2.3509618e-38
-1.5671887 1.2155967 -1.4103166 2.3509624e-38
-1.5702939 1.2301697 -1.4094828 2.3509629e-38
-1.5806569 1.2565267 -1.4005842 2.3509635e-38
-1.5834006 1.2617772 -1.3977542 2.350964e-38
-1.5859183 1.2871114 -1.400789 2.3509647e-38
-1.5887074 1.2964468 -1.3990093 2.3509653e-38
-1.5949538 1.3128971 -1.3938007 2.3509659e-38
-1.6077714 1.3431069 -1.382139 2.3509664e-38
-1.6090516 1.3481104 -1.3815197 2.350967e-38
-1.6182616 1.3749827 -1.374558 2.3509675e-38
-1.6233306 1.3914672 -1.3711914 2.3509681e-38
-1.6275854 1.402073 -1.367479 2.3509687e-38
-1.6414044 1.4400934 -1.3564024 2.3509692e-38
-1.6407559 1.4457717 -1.3589705 2.3509698e-38
-1.6394423 1.5175201 -1.3807096 2.3509703e-38
-1.6338602 1.5391734 -1.3953434 2.3509709e-38
-1.6075932 1.5364987 -1.4355011 2.3509715e-38
-1.5947428 1.5290886 -1.4534719 2.350972e-38
-1.5853744 1.5000576 -1.4600881 2.3509726e-38
-1.5785974 1.4734126 -1.4633241 2.3509731e-38
-1.5745487 1.4652036 -1.4673737 2.3509737e-38
-1.5728487 1.4606605 -1.4687735 2.3509743e-38
-1.5711682 1.4563707 -1.470212 2.3509748e-38
-1.5675203 1.4482317 -1.4736568 2.3509754e-38
-1.5649965 1.4391807 -1.4751012 2.3509759e-38
-1.5519581 1.4113313 -1.4877548 2.3509767e-38
-1.5169959 1.3882475 -1.5358468 2.3509772e-38
-1.5005509 1.3984312 -1.5642431 2.3509778e-38
-1.4974537 1.4051886 -1.5709195 2.3509783e-38
-1.4873096 1.4090788 -1.5877796 2.3509789e-38
-1.4809488 1.4109784 -1.5982033 2.3509795e-38
-1.4693236 1.4232935 -1.6196814 2.35098e-38
-1.45962 1.4589266 -1.644569 2.3509806e-38
-1.4469838 1.437964 -1.6584865 2.3509811e-38
-1.444136 1.4318521 -1.6612425 2.3509817e-38
-1.4374099 1.4101335 -1.6657515 2.3509823e-38
-1.4335864 1.3906262 -1.6663495 2.3509828e-38
-1.3997453 1.3475373 -1.7072049 2.3509834e-38
-1.3971522 1.3414317 -1.7095659 2.3509839e-38
-1.3911409 1.3084905 -1.7098819 2.3509845e-38
-1.3833277 1.2864631 -1.7159988 2.3509851e-38
-1.380964 1.2772037 -1.7171365 2.3509856e-38
-1.3675073 1.2443489 -1.7290676 2.3509862e-38
-1.3607134 1.1924084 -1.7253871 2.3509867e-38
-1.3543818 1.1532435 -1.7244931 2.3509873e-38
-1.3685997 1.1291132 -1.6957355 2.3509879e-38
