# .PCD v0.7 - Point Cloud Data file format
VERSION 0.7
FIELDS x y z rgb
SIZE 4 4 4 4
TYPE F F F F
COUNT 1 1 1 1
WIDTH 158
HEIGHT 1
VIEWPOINT 0 0 0 1 0 0 0
POINTS 158
DATA ascii
-3.0226004 -0.095378079 1.1217585 2.3509528e-38
-3.0279748 -0.1146167 1.1256226 2.350953e-38
-3.0295763 -0.10687181 1.1317343 2.3509532e-38
-3.0301175 -0.098377146 1.1359617 2.3509534e-38
-3.0309691 -0.078542151 1.1449945 2.3509537e-38
-3.0315363 -0.052089032 1.155884 2.3509539e-38
-3.0320818 -0.043523379 1.1601472 2.3509541e-38
-3.0329485 -0.014217127 1.1726956 2.3509544e-38
-3.0302646 -0.0032975643 1.1712483 2.3509545e-38
-3.0286584 0.0068600066 1.1717161 2.3509548e-38
-3.0292304 0.03352344 1.1826921 2.3509551e-38
-3.0352187 0.051060755 1.2013391 2.3509552e-38
-3.0427868 0.058608044 1.2195264 2.3509555e-38
-3.0368156 0.1086848 1.2257954 2.3509556e-38
-3.0373745 0.11746106 1.2301633 2.3509559e-38
-3.0414352 0.15601715 1.2526196 2.3509562e-38
-3.0442894 0.19604711 1.2731615 2.3509563e-38
-3.0437436 0.20575966 1.275624 2.3509566e-38
-3.0457494 0.24731433 1.2950001 2.3509569e-38
-3.0451989 0.25711098 1.2974839 2.350957e-38
-3.0487545 0.2888101 1.3163886 2.3509573e-38
-3.0487776 0.30777052 1.3234125 2.3509575e-38
-3.0505245 0.35096431 1.342864 2.3509577e-38
-3.0499642 0.36092934 1.3453907 2.350958e-38
-3.0494041 0.37089443 1.3479173 2.3509582e-38
-3.053108 0.40413901 1.3676918 2.3509584e-38
-3.0531313 0.42342916 1.374838 2.3509586e-38
-3.0514126 0.43429703 1.3753384 2.3509589e-38
-3.0410559 0.46092364 1.3640475 2.3509591e-38
-3.0347478 0.49434215 1.3634999 2.3509593e-38
-3.031311 0.51607782 1.3645003 2.3509596e-38
-3.0192831 0.5921526 1.3680021 2.3509598e-38
-3.0175648 0.60302049 1.3685024 2.35096e-38
-3.0089731 0.65735948 1.3710036 2.3509603e-38
-2.9959941 0.6765824 1.3516489 2.3509604e-38
-2.985774 0.74122113 1.3546243 2.3509607e-38
-2.9895067 0.78695816 1.3790553 2.350961e-38
-2.9877884 0.79782593 1.3795555 2.3509611e-38
-2.9860702 0.80869395 1.3800558 2.3509614e-38
-2.9843519 0.81956184 1.3805561 2.3509615e-38
-2.9791968 0.85216522 1.3820568 2.3509618e-38
-2.9774787 0.86303318 1.3825569 2.3509621e-38
-2.9757602 0.87390083 1.3830574 2.3509622e-38
-2.9740419 0.88476872 1.3835576 2.3509625e-38
-2.9723237 0.8956365 1.3840578 2.3509628e-38
-2.9551141 0.93513745 1.3635504 2.3509629e-38
-2.9534106 0.94591051 1.3640463 2.3509632e-38
-2.9517074 0.95668358 1.3645421 2.3509633e-38
-2.9557054 0.99426222 1.3865116 2.3509636e-38
-2.9539871 1.0051301 1.3870118 2.3509639e-38
-2.9488323 1.0377334 1.3885125 2.350964e-38
-2.9459605 1.0494163 1.3869643 2.3509643e-38
-2.9413705 1.0719671 1.3859162 2.3509645e-38
-2.9390874 1.0928876 1.3889654 2.3509647e-38
-2.9373691 1.1037554 1.3894656 2.350965e-38
-2.9339325 1.1254909 1.3904661 2.3509652e-38
-2.9333673 1.1355438 1.3930149 2.3509654e-38
-2.9316492 1.1464117 1.393515 2.3509656e-38
-2.9299307 1.1572795 1.3940154 2.3509659e-38
-2.9282124 1.1681473 1.3945156 2.3509661e-38
-2.9264941 1.1790152 1.395016 2.3509663e-38
-2.9247758 1.1898829 1.3955162 2.3509666e-38
-2.9236224 1.1906981 1.3934677 2.3509668e-38
-2.9224691 1.1915132 1.3914192 2.350967e-38
-2.9130907 1.1945007 1.3734213 2.3509673e-38
-2.9119473 1.1953087 1.3713905 2.3509674e-38
-2.910804 1.1961168 1.3693597 2.3509677e-38
-2.9096608 1.1969249 1.3673291 2.350968e-38
-2.8978369 1.2114751 1.3486078 2.3509681e-38
-2.8967032 1.2122763 1.3465941 2.3509684e-38
-2.8955698 1.2130775 1.3445805 2.3509685e-38
-2.8944364 1.2138788 1.342567 2.3509688e-38
-2.8933027 1.21468 1.3405534 2.3509691e-38
-2.8826993 1.2280444 1.3238804 2.3509692e-38
-2.8815751 1.2288387 1.321884 2.3509695e-38
-2.8737943 1.2305579 1.3066728 2.3509698e-38
-2.8630228 1.23476 1.2862856 2.3509699e-38
-2.8619175 1.235541 1.2843229 2.3509702e-38
-2.8512015 1.2395484 1.2639767 2.3509703e-38
-2.8501058 1.2403229 1.2620306 2.3509706e-38
-2.84901 1.2410973 1.2600842 2.3509709e-38
-2.8479142 1.2418718 1.2581382 2.350971e-38
-2.8495467 1.2315466 1.2576628 2.3509713e-38
-2.8511791 1.2212217 1.2571875 2.3509715e-38
-2.8624365 1.2074275 1.275034 2.3509717e-38
-2.8787293 1.1617836 1.2914143 2.350972e-38
-2.8803895 1.1512836 1.290931 2.3509722e-38
-2.8820498 1.1407837 1.2904476 2.3509724e-38
-2.8837099 1.1302836 1.2899643 2.3509727e-38
-2.8903503 1.0882835 1.288031 2.3509729e-38
-2.8920107 1.0777837 1.2875476 2.3509731e-38
-2.8887777 1.0408262 1.2673653 2.3509733e-38
-2.890424 1.0304137 1.266886 2.3509736e-38
-2.8920705 1.0200012 1.2664065 2.3509738e-38
-2.8937171 1.0095886 1.2659273 2.350974e-38
-2.8953631 0.99917597 1.2654481 2.3509743e-38
-2.8970096 0.98876345 1.2649688 2.3509744e-38
-2.8947203 0.95199305 1.2467766 2.3509747e-38
-2.8985221 0.92179191 1.2434045 2.350975e-38
-2.9050522 0.88049144 1.2415032 2.3509751e-38
-2.9066846 0.87016624 1.241028 2.3509754e-38
-2.9083171 0.85984105 1.2405528 2.3509757e-38
-2.9099495 0.8495158 1.2400777 2.3509758e-38
-2.9115822 0.83919078 1.2396022 2.3509761e-38
-2.9132147 0.82886547 1.239127 2.3509762e-38
-2.9148474 0.81854039 1.2386516 2.3509765e-38
-2.9164796 0.80821526 1.2381765 2.3509768e-38
-2.918112 0.79789001 1.2377012 2.3509769e-38
-2.9197447 0.78756469 1.2372259 2.3509772e-38
-2.9180329 0.74337959 1.2174807 2.3509774e-38
-2.9196522 0.73313826 1.2170092 2.3509776e-38
-2.9212716 0.72289675 1.2165377 2.3509779e-38
-2.9228907 0.71265537 1.2160664 2.3509781e-38
-2.9261291 0.69217265 1.2151235 2.3509783e-38
-2.9226389 0.65923387 1.1958963 2.3509785e-38
-2.9258511 0.63891864 1.194961 2.3509788e-38
-2.9322751 0.59828812 1.1930909 2.350979e-38
-2.9338813 0.58813047 1.1926233 2.3509792e-38
-2.9354873 0.57797289 1.1921555 2.3509795e-38
-2.9370933 0.56781518 1.1916882 2.3509797e-38
-2.9379072 0.54146504 1.1836485 2.3509799e-38
-2.9353678 0.52610815 1.1728271 2.3509802e-38
-2.9369612 0.51603061 1.1723632 2.3509803e-38
-2.9385545 0.50595301 1.1718994 2.3509806e-38
-2.9401479 0.49587554 1.1714356 2.3509809e-38
-2.9417415 0.48579809 1.1709715 2.350981e-38
-2.9433348 0.47572061 1.1705077 2.3509813e-38
-2.9449279 0.46564314 1.1700439 2.3509814e-38
-2.9465213 0.45556563 1.16958 2.3509817e-38
-2.9481149 0.44548818 1.169116 2.350982e-38
-2.949708 0.43541056 1.1686523 2.3509821e-38
-2.9484501 0.39431447 1.1509674 2.3509824e-38
-2.9552898 0.34509528 1.1467836 2.3509827e-38
-2.9568698 0.33510152 1.1463236 2.3509828e-38
-2.955133 0.29585809 1.1283458 2.3509831e-38
-2.9695108 0.25515163 1.1426433 2.3509832e-38
-2.9710908 0.24515794 1.1421835 2.3509835e-38
-2.972671 0.23516423 1.1417234 2.3509838e-38
-2.9742513 0.22517055 1.1412632 2.3509839e-38
-2.975831 0.21517663 1.1408033 2.3509842e-38
-2.9774115 0.205183 1.1403432 2.3509844e-38
-2.9789913 0.19518916 1.1398834 2.3509846e-38
-2.9943218 0.15324052 1.1556637 2.3509849e-38
-2.9959154 0.14316308 1.1551996 2.3509851e-38
-2.9975088 0.1330854 1.154736 2.3509853e-38
-2.9991019 0.12300789 1.1542722 2.3509856e-38
-3.0006955 0.11293039 1.1538081 2.3509858e-38
-3.0022891 0.10285295 1.1533443 2.350986e-38
-3.0038822 0.092775524 1.1528804 2.3509862e-38
-3.0054755 0.082698025 1.1524165 2.3509865e-38
-3.0070686 0.072620481 1.1519527 2.3509867e-38
-3.0086622 0.062542915 1.1514888 2.3509869e-38
-3.0102553 0.052465376 1.1510249 2.3509872e-38
-3.0118489 0.042387906 1.150561 2.3509873e-38
-3.0090137 0.0053081876 1.1311427 2.3509876e-38
-3.0105937 -0.0046855761 1.1306829 2.3509879e-38
-3.0261891 -0.04830962 1.1463861 2.350988e-38
-3.0232346 -0.084635466 1.1270026 2.3509883e-38
