# .PCD v0.7 - Point Cloud Data file format
VERSION 0.7
FIELDS x y z rgb
SIZE 4 4 4 4
TYPE F F F F
COUNT 1 1 1 1
WIDTH 666
HEIGHT 1
VIEWPOINT 0 0 0 1 0 0 0
POINTS 666
DATA ascii
1.1886322 0.53291774 2.6740928 1.0761972e-42
1.1972284 0.52333218 2.6753807 2.7551209e-40
1.1965508 0.51628739 2.6767228 2.8025969e-45
1.1950281 0.52256972 2.6756463 0
1.1949289 0.53209281 2.6738896 0
1.1966331 0.54482406 2.6714377 9.185091e-41
1.2427236 0.53999853 2.6697283 2.8025969e-45
1.3088477 0.58194941 2.6582327 8.4077908e-45
1.3117329 0.58165097 2.6581249 2.7586662e-40
1.3407954 0.54592758 2.6630933 9.2087309e-40
1.3426352 0.55354375 2.6615803 4.5917748e-40
1.3427129 0.55867988 2.6606257 5.5101298e-40
1.3426145 0.56813139 2.6588826 1.102026e-39
1.3475357 0.56335652 2.6594882 0
1.3474865 0.56808215 2.6586163 1.3775324e-39
1.3508031 0.55808121 2.6602795 4.5917748e-40
1.3496727 0.56408906 2.6592319 1.1938615e-39
1.1801285 0.54267883 2.6727667 4.5918589e-40
1.2253172 0.49894908 2.6783063 1.4012985e-45
1.2223592 0.51971042 2.6746318 2.8025969e-45
1.22088 0.53009111 2.6727946 1.821688e-44
1.2249177 0.44988075 2.6874075 6.4286249e-40
1.2341979 0.51117074 2.6755435 1.9618179e-44
1.2430788 0.52339238 2.6727808 2.6708048e-39
1.1900299 0.51082766 2.6781008 0
1.2197154 0.47275981 2.6834681 4.5917748e-40
1.281572 0.4468317 2.6847725 2.1150919e-39
1.2435567 0.5831902 2.6616898 0
1.419619 0.51976418 2.6634834 1.217307e-38
1.4250447 0.52428585 2.6623404 1.3000678e-38
1.3366333 0.54054403 2.6643245 1.1049407e-39
1.3369755 0.56012464 2.6606822 2.3030873e-39
1.3470049 0.54439658 2.6630261 1.0119911e-39
1.3475848 0.5586307 2.6603599 4.5917748e-40
1.3523583 0.56803298 2.6583507 2.8469004e-39
1.3525785 0.53160125 2.6650789 1.3804163e-39
1.2903303 0.42641741 2.6880553 1.2867773e-39
1.3293271 0.44068322 2.6832135 6.5115257e-40
1.3293762 0.43595743 2.6840851 1.9354076e-39
1.3675692 0.42026445 2.6848323 8.1992972e-39
1.3533539 0.40194321 2.6890247 8.573137e-39
1.3582628 0.40189362 2.6887567 9.1263108e-39
1.296628 0.66437602 2.643672 9.1867726e-41
1.3503269 0.65077555 2.6431561 5.7856363e-39
1.3552747 0.6507256 2.6428859 5.5101298e-39
1.2220862 0.61368155 2.6572607 4.5992157e-40
1.2243611 0.61765963 2.6563962 2.7589044e-40
1.2884903 0.62724304 2.6510017 2.2119861e-39
1.286898 0.62111187 2.6522262 2.9477518e-39
1.2939621 0.62757564 2.6506312 2.3949452e-39
1.3068922 0.62142247 2.6510398 9.1845305e-41
1.3424735 0.62633687 2.6481211 5.0509523e-39
1.3461143 0.62578738 2.6480172 1.6530389e-39
1.3460647 0.63054895 2.6471391 3.3060779e-39
1.2901735 0.59108531 2.6575968 3.0367105e-39
1.345679 0.62203032 2.648737 2.8469004e-39
1.3550239 0.62644595 2.6473925 2.5713939e-39
1.156496 0.60733527 2.6621382 0
1.1552017 0.61274773 2.6612098 0
1.1616132 0.60237038 2.6627679 0
1.161562 0.60728407 2.6618617 0
1.1531733 0.61454684 2.6609917 0
1.1537031 0.6211412 2.6597416 0
1.1666791 0.60231924 2.6624916 0
1.1666279 0.60723293 2.6615851 0
1.1588316 0.61133802 2.6612659 0
1.1587808 0.6162141 2.6603665 0
1.15873 0.62109041 2.6594672 0
1.1679465 0.61733854 2.659641 0
1.1945242 0.66461945 2.6493921 5.8105303e-39
1.2170386 0.62332982 2.6557603 3.7814824e-39
1.2084159 0.65098375 2.6511307 3.515118e-39
1.2219862 0.62327981 2.6554902 8.2906282e-40
1.2218363 0.63767761 2.6528349 4.2360426e-39
1.2217363 0.64727592 2.6510646 1.3274491e-38
1.2331028 0.63273883 2.6531124 1.8403729e-39
1.270192 0.62862903 2.6517785 4.5178815e-39
1.3355337 0.64612639 2.6448517 5.1427878e-39
1.3385599 0.63621253 2.6465151 6.0611427e-39
1.3405316 0.64127719 2.6454668 5.3264588e-39
1.3368384 0.64644295 2.6447191 5.6019653e-39
1.3412188 0.64034748 2.6455998 4.9591168e-39
1.2282826 0.61589611 2.6565008 2.3956767e-39
1.3454291 0.64602643 2.6443114 5.9693073e-39
1.3504769 0.63637811 2.6458116 4.4081038e-39
1.3504269 0.64117718 2.6449263 5.3264588e-39
1.3503768 0.64597648 2.6440413 5.6938008e-39
1.3553747 0.64112717 2.6446562 5.3264588e-39
1.3523666 0.64527941 2.644058 4.9591168e-39
1.3603724 0.63627815 2.6452713 4.9591168e-39
1.3603225 0.64107722 2.6443861 5.5101298e-39
1.3602724 0.64587647 2.6435008 5.0509523e-39
1.3653201 0.6362282 2.6450012 5.0509523e-39
1.1637063 0.62591577 2.6582935 0
1.1659116 0.67602611 2.6488972 1.8439126e-40
1.1709772 0.67597497 2.6486206 0
1.1811091 0.67587262 2.6480675 0
1.1912408 0.67577028 2.6475143 2.5713939e-39
1.3305361 0.65097553 2.6442368 5.2346233e-39
1.3404316 0.65087551 2.6436963 6.7039912e-39
1.3453791 0.65082556 2.6434262 6.6121557e-39
1.2160987 0.66184175 2.6486878 1.2902429e-38
1.3368465 0.64667553 2.6446757 6.7969029e-39
1.2113177 0.68595153 2.6444972 4.7934343e-39
1.2218883 0.67898136 2.6451898 2.2159223e-39
1.2270308 0.68326694 2.6441066 4.3324561e-39
1.2062135 0.68169785 2.6455724 3.9633135e-39
1.216422 0.69020528 2.6434216 5.2540523e-39
1.2321732 0.68755251 2.6430233 4.7008799e-39
1.2738084 0.63070923 2.6511893 7.0064923e-45
1.3540982 0.65533441 2.6420996 5.3264588e-39
1.2858568 0.66582298 2.6440125 2.7705604e-39
1.1615108 0.61219788 2.6609554 0
1.1586285 0.63084269 2.6576684 5.6051939e-45
1.1636555 0.63079202 2.6573942 5.6051939e-45
1.2148511 0.6349777 2.6537287 8.4077908e-45
1.1411963 0.61731631 2.6611555 0
1.16461 0.62634599 2.6581628 3.643376e-43
1.2401218 0.64344168 2.6507359 3.5063206e-39
1.1535507 0.63576961 2.6570435 0
1.1535 0.64064592 2.6561444 0
1.183712 0.63368016 2.6557271 0
1.135455 0.62393695 2.6602547 0
1.2887398 0.73469365 2.6311069 7.5538885e-39
1.2938823 0.73897922 2.630024 7.3705763e-39
1.153246 0.66502684 2.6516476 6.4284847e-40
1.2038541 0.61770231 2.657546 4.1480999e-39
1.255837 0.57073849 2.6633 9.1867726e-41
1.2699864 0.55658257 2.6651204 4.2038954e-45
1.2836033 0.56183159 2.6633804 0
1.2798883 0.57110965 2.6618736 2.5223372e-44
1.2938374 0.5519017 2.6646395 0
1.293972 0.54699469 2.66554 0
1.2989031 0.5518505 2.6643629 8.4077908e-45
1.298852 0.55676436 2.6634569 1.7448898e-39
1.289993 0.56613189 2.6622238 3.413053e-39
1.2950202 0.56608111 2.6619494 4.4272035e-39
1.2727777 0.59796172 2.6573067 3.4090873e-39
1.2776866 0.59791213 2.6570387 3.4090873e-39
1.2879518 0.60426998 2.6552827 2.5804197e-39
1.2859387 0.60902524 2.6545165 2.3038272e-39
1.3120005 0.58700949 2.6571183 3.407651e-39
1.3366433 0.5925554 2.6547008 1.102026e-39
1.3365442 0.60207862 2.6529443 1.3775324e-39
1.3415524 0.59250581 2.6544328 1.102026e-39
1.1750029 0.55386925 2.6709857 2.3822074e-44
1.2046037 0.56977284 2.6663716 4.5918589e-40
1.2031245 0.58015364 2.6645346 3.6734198e-40
1.2016454 0.59053427 2.6626976 3.6734899e-40
1.2268023 0.56307399 2.6663575 1.8368781e-40
1.3188179 0.57715642 2.6585565 2.7651654e-39
1.3058951 0.5974853 2.6555247 3.3179861e-39
1.3089327 0.56157583 2.6619976 2.5721366e-39
1.346511 0.58769459 2.6550429 1.102026e-39
1.2038045 0.62246382 2.6566679 3.2283086e-39
1.2954757 0.60762972 2.6542363 2.3953053e-39
1.3001051 0.61296523 2.6529877 2.1197918e-39
1.341354 0.61155218 2.6509199 1.0101905e-39
1.3413044 0.61631387 2.6500418 6.4285128e-40
1.3462135 0.61626428 2.6497736 3.6734198e-40
1.3462631 0.61150259 2.6506519 1.0101905e-39
1.3044131 0.3881543 2.6943395 1.1027728e-39
1.3585107 0.37808558 2.6931477 8.5738461e-39
1.2070181 0.54077226 2.6716013 3.6878532e-40
1.2168357 0.53570205 2.6719849 4.6170542e-40
1.2810714 0.54146588 2.6672914 0
1.2791742 0.45506454 2.6833847 0
1.288973 0.57339865 2.6609371 1.1056385e-39
1.2889237 0.57812434 2.6600654 1.2903885e-39
1.2938451 0.57334936 2.6606708 1.2903885e-39
1.2923051 0.57758301 2.6599743 1.1060028e-39
1.2966924 0.56845355 2.6614158 8.2976627e-40
1.298717 0.57330012 2.6604049 1.3825841e-39
1.2874242 0.59058505 2.6578443 1.8417616e-39
1.3124456 0.5594722 2.6621881 1.1981929e-39
1.3036872 0.56379944 2.6618822 1.1981929e-39
1.2990398 0.57286948 2.6604664 1.0137988e-39
1.3035396 0.5779767 2.6592674 1.3825841e-39
1.2942989 0.58678406 2.6581597 1.8410441e-39
1.3086579 0.5542987 2.6633594 1.8410441e-39
1.3086087 0.55902439 2.6624877 1.2903885e-39
1.303401 0.56376559 2.6619043 8.3012641e-40
1.3085103 0.56847584 2.6607444 1.1974866e-39
1.3084611 0.57320178 2.659873 1.1056385e-39
1.2992301 0.57735884 2.6596248 1.1056385e-39
1.2991812 0.58204705 2.6587601 7.3722733e-40
1.2966421 0.58604699 2.6581638 1.2893025e-39
1.3173801 0.5458777 2.6644249 1.1045623e-39
1.3103579 0.55476934 2.6631765 9.219619e-40
1.3134806 0.55897522 2.6622219 1.1056385e-39
1.3134314 0.56370097 2.66135 1.1981929e-39
1.313333 0.57315248 2.6596069 1.472263e-39
1.3009771 0.57699728 2.6595933 6.4536941e-40
1.3040144 0.58199823 2.6584964 4.6026909e-40
1.3243185 0.54319131 2.66453 1.9346831e-39
1.3184019 0.55420023 2.6628273 1.2903885e-39
1.3152639 0.5593335 2.6620548 1.0130771e-39
1.3183036 0.5636518 2.6610842 9.2160738e-40
1.3053081 0.56794995 2.6610227 1.0116492e-39
1.3089453 0.57257313 2.6599619 1.1031204e-39
1.3088965 0.57726121 2.6590972 4.6097815e-40
1.3087988 0.58663756 2.6573679 4.5917748e-40
1.3222504 0.55348372 2.6627424 8.3047813e-40
1.3232248 0.55887675 2.6616898 1.4726133e-39
1.3231757 0.56360263 2.6608181 1.3804163e-39
1.3138274 0.56783611 2.6605628 1.1038294e-39
1.3128455 0.57262117 2.6597328 4.5917888e-40
1.323028 0.57777983 2.6582036 3.6734198e-40
1.313632 0.58658874 2.657104 7.3468397e-40
1.3325762 0.54454094 2.6638141 1.2885864e-39
1.3281951 0.54937595 2.663167 1.6566445e-39
1.3281459 0.55410182 2.6622953 1.1063476e-39
1.3234129 0.5638634 2.6607566 1.0116324e-39
1.3279983 0.56827903 2.6596806 1.1038294e-39
1.3278998 0.57773066 2.6579375 3.6734198e-40
1.318514 0.58185172 2.6577048 7.3468397e-40
1.3184651 0.58653992 2.6568403 6.4284847e-40
1.3330673 0.54932672 2.6629009 1.4726133e-39
1.3304702 0.55486256 2.6620235 1.0123513e-39
1.3329688 0.55877829 2.6611576 1.1038294e-39
1.3329197 0.56350416 2.6602862 7.3504691e-40
1.3328705 0.56822979 2.6594145 9.1835496e-40
1.3328212 0.57295567 2.6585429 8.2651947e-40
1.3299037 0.57765841 2.6578376 1.0101905e-39
1.33789 0.55400342 2.6617634 1.011631e-39
1.3378408 0.55872905 2.6608918 8.2724394e-40
1.3377917 0.56345499 2.6600204 3.6734198e-40
1.337146 0.56867981 2.65909 5.5101298e-40
1.3376932 0.57290649 2.6582773 6.4284847e-40
1.3428113 0.54922825 2.6623688 1.0112751e-39
1.3414829 0.56265843 2.6599591 2.7550649e-40
1.3425653 0.5728572 2.658011 2.2958874e-39
1.338189 0.54883921 2.6627018 8.2724394e-40
1.3381401 0.55352753 2.6618373 9.1835496e-41
1.3525552 0.5491299 2.6618369 1.3775338e-39
1.3429732 0.55347866 2.6615734 6.4284847e-40
1.2327188 0.52155137 2.6737063 1.4740763e-39
1.2312397 0.53193212 2.6718693 8.2835377e-40
1.2297606 0.54231274 2.6700318 0
1.2282814 0.55269337 2.6681948 0
1.231266 0.59495783 2.6602063 6.4285968e-40
1.2354678 0.51296222 2.6751401 2.1162255e-39
1.2415997 0.53377306 2.6709437 6.4431283e-40
1.2438304 0.46370366 2.6837821 7.3504691e-40
1.2549179 0.51485258 2.6736922 0
1.2237289 0.52480453 2.6736119 4.6026909e-40
1.3420482 0.54489005 2.6632147 1.4729693e-39
1.3428606 0.54450262 2.6632404 1.1038294e-39
1.3512622 0.57356101 2.6573896 2.1122164e-39
1.2263715 0.439677 2.6892133 6.4285968e-40
1.236555 0.4414866 2.6883035 6.4285128e-40
1.3083965 0.40166742 2.6916144 1.1038294e-39
1.2966776 0.65961432 2.6445503 2.7589044e-40
1.3015866 0.65956467 2.6442819 9.18397e-41
1.298564 0.66341835 2.6437397 9.1841101e-41
1.3167773 0.65999389 2.6433451 1.2856969e-39
1.2859567 0.65622455 2.6457827 9.2414232e-40
1.257654 0.63620317 2.6510851 3.6734198e-40
1.2778455 0.62718093 2.6516144 1.1967439e-39
1.2724305 0.6312927 2.6511593 1.1056385e-39
1.2829705 0.6308971 2.6506374 2.2108958e-39
1.282298 0.62643206 2.6515014 1.3818779e-39
1.2776153 0.63080525 2.6509569 8.2941455e-40
1.2922703 0.63253248 2.6498096 2.119073e-39
1.2973087 0.61757827 2.6522923 2.3034614e-39
1.2961899 0.62274927 2.6513984 2.4882086e-39
1.2894187 0.62648886 2.651089 8.2940754e-40
1.3060474 0.62722951 2.650013 1.1056385e-39
1.3074443 0.61841601 2.6515646 1.7459604e-39
1.3019832 0.621472 2.6513076 2.7623797e-40
1.3109952 0.6271795 2.6497426 8.2689361e-40
1.306662 0.63087761 2.6493032 1.7448744e-39
1.3138939 0.61756349 2.6513581 1.105993e-39
1.3125545 0.62736678 2.6496201 1.1978271e-39
1.3035293 0.63129354 2.6494033 2.7550649e-40
1.3067434 0.63570726 2.6484051 9.18397e-41
1.3117514 0.62613451 2.6498933 1.102026e-39
1.3117018 0.63089603 2.6490152 2.2958874e-39
1.3116522 0.63565767 2.6481371 2.2040519e-39
1.3166605 0.62608492 2.6496253 1.2856969e-39
1.3166109 0.63084644 2.6487472 2.4795584e-39
1.3145056 0.63617301 2.6478806 1.7448744e-39
1.3215694 0.62603539 2.6493576 3.1224069e-39
1.3215199 0.63079685 2.6484792 3.5815844e-39
1.3214703 0.63555849 2.6476009 3.7652553e-39
1.3264784 0.62598574 2.6490893 3.2142424e-39
1.3264288 0.63074726 2.6482112 3.7652553e-39
1.3210195 0.63444132 2.6478331 3.4897489e-39
1.3313378 0.63069767 2.6479433 3.7652553e-39
1.3362466 0.63064808 2.647675 3.7652553e-39
1.336197 0.63540971 2.6467969 4.2244328e-39
1.3364213 0.63011241 2.6477644 3.2142424e-39
1.2297744 0.60542697 2.6583536 4.591971e-40
1.2632099 0.58313769 2.6605897 7.3504691e-40
1.2515104 0.59253305 2.659512 4.5917748e-40
1.3040097 0.64910698 2.64608 6.4284847e-40
1.2343609 0.62294918 2.6548526 6.4467296e-40
1.2326804 0.62854016 2.6539133 9.2204038e-41
1.2793043 0.6141299 2.6539466 8.2798943e-40
1.2576044 0.64096463 2.6502068 2.7658689e-40
1.2826831 0.62771422 2.6512425 2.0250627e-39
1.2772472 0.64624298 2.6481214 9.2089271e-40
1.2731115 0.63596129 2.6502569 4.6097815e-40
1.2723314 0.64081585 2.6494029 1.1031204e-39
1.2797127 0.64671159 2.6478953 1.7510149e-39
1.2722322 0.65033913 2.6476467 1.0163394e-39
1.2830678 0.63671589 2.6495552 1.7513652e-39
1.2772403 0.64076626 2.6491349 1.6562941e-39
1.2771907 0.64552802 2.6482568 1.1056385e-39
1.2795854 0.65005648 2.6472836 7.3938392e-40
1.2821988 0.63595515 2.649745 1.1981929e-39
1.2790096 0.64022893 2.6491346 9.2160317e-40
1.2820996 0.64547837 2.6479886 1.2903885e-39
1.28205 0.65023988 2.6471105 8.3264734e-40
1.2819971 0.6543175 2.646359 8.3048934e-40
1.290707 0.63707757 2.6490571 1.2914675e-39
1.2909548 0.64229256 2.648078 2.0275892e-39
1.2870083 0.64542884 2.6477208 1.1981929e-39
1.2924263 0.65001911 2.6465652 1.5676914e-39
1.3010498 0.63207859 2.6493981 1.4726133e-39
1.3009998 0.63687789 2.6485128 1.1063476e-39
1.3009498 0.64167696 2.6476276 1.3804163e-39
1.2897631 0.64508331 2.647629 6.4465615e-40
1.2918679 0.65014076 2.6465745 1.1056385e-39
1.2918183 0.65490252 2.6456964 7.3650846e-40
1.2903012 0.65886927 2.6450479 7.3722032e-40
1.3059975 0.63202864 2.649128 1.3804163e-39
1.3059474 0.63682789 2.6482425 8.2976067e-40
1.3058975 0.64162701 2.6473577 1.1038294e-39
1.2947147 0.64967483 2.6464999 3.6771053e-40
1.315407 0.63946497 2.6472206 1.3775366e-39
1.308614 0.63968593 2.6475632 1.6569962e-39
1.3107953 0.64637631 2.6462023 9.1835496e-40
1.3016857 0.65004152 2.6460383 7.3468397e-40
1.2996687 0.65426385 2.645371 4.5917748e-40
1.3066939 0.64046884 2.647527 8.2651947e-40
1.3066442 0.64523047 2.6466486 6.4284847e-40
1.3116027 0.64041919 2.6472588 2.3877229e-39
1.3073599 0.64504194 2.6466432 1.6530389e-39
1.3165118 0.64036959 2.6469908 2.8469004e-39
1.3256384 0.64622635 2.6453919 2.9387359e-39
1.3214207 0.64032 2.6467226 4.4999393e-39
1.3288984 0.64145315 2.646091 3.7652553e-39
1.3294833 0.65214241 2.6440804 4.5917748e-39
1.2577989 0.6033566 2.6571543 0
1.2550932 0.61346602 2.6554368 9.5082305e-41
1.350619 0.63570869 2.6459274 4.3162683e-39
1.3144308 0.66300225 2.6429207 0
1.3112246 0.67146003 2.641537 0
1.2761114 0.65152526 2.647208 1.8428532e-39
1.3094387 0.64759332 2.6460536 1.1981929e-39
1.2727952 0.65220523 2.6472695 1.2903927e-39
1.2331854 0.64783007 2.6503155 1.0785535e-38
1.2940305 0.65515244 2.645525 1.7510149e-39
1.2916665 0.65999317 2.644763 1.2904053e-39
1.3033702 0.65682077 2.6446888 9.2197031e-40
1.2465487 0.62928563 2.6529922 2.3016636e-39
1.2471803 0.64372838 2.6502841 2.2130875e-39
1.2832433 0.65743691 2.6457114 2.2123658e-39
1.2859068 0.66102368 2.6448975 1.2010865e-39
1.2896283 0.6614213 2.6446137 1.2000033e-39
1.294628 0.66605818 2.6434734 1.199653e-39
1.2724446 0.67802501 2.6425118 3.8725668e-39
1.2809591 0.66107368 2.6451678 2.2148783e-39
1.3156432 0.65592468 2.6441619 7.3468397e-40
1.3155432 0.66552311 2.6423917 0
1.3205906 0.65587461 2.6438916 2.2958874e-39
1.3156912 0.66600323 2.6422944 2.7550649e-40
1.2908045 0.66577297 2.6437421 2.1219821e-39
1.3253036 0.67715609 2.6396878 9.1835496e-41
1.3156931 0.65112537 2.6450467 8.2651947e-40
1.3206406 0.65107548 2.6447771 2.6632294e-39
1.3255885 0.65102547 2.6445067 3.0305714e-39
1.2751081 0.62075287 2.6529582 0
1.2683212 0.62177312 2.6531525 9.219563e-41
1.2698848 0.56633508 2.6633217 0
1.2750133 0.55653179 2.6648459 0
1.2749118 0.56628424 2.6630473 0
1.2748102 0.57603663 2.6612484 0
1.2800406 0.556481 2.6645713 0
1.2799898 0.56135714 2.663672 0
1.2799391 0.56623352 2.6627729 0
1.2798375 0.57598579 2.6609738 0
1.2850677 0.55643022 2.6642969 0
1.2850169 0.56130636 2.6633976 0
1.2849661 0.56618273 2.6624985 0
1.2900438 0.56125557 2.6631231 5.1568218e-39
1.2746311 0.61271375 2.6544726 1.93396e-39
1.2824858 0.59785324 2.6567786 8.3157115e-40
1.2824467 0.61214721 2.6541359 1.2010893e-39
1.2873554 0.61209762 2.653868 1.108535e-39
1.2830324 0.61577022 2.6534326 2.0240103e-39
1.2837565 0.60652828 2.6551018 1.2893319e-39
1.2922646 0.61204803 2.6536 1.4744322e-39
1.3020824 0.61194891 2.6530643 1.1031204e-39
1.3070048 0.60054719 2.6548955 2.0279535e-39
1.3092321 0.60699636 2.6535766 2.2098183e-39
1.3069913 0.61189926 2.6527958 7.3469798e-40
1.3171157 0.60138458 2.6541698 7.3468817e-40
1.3081166 0.60628223 2.6537719 7.3468397e-40
1.3130378 0.60150719 2.6543775 1.4693679e-39
1.3267262 0.6021778 2.6534803 1.3775324e-39
1.3316848 0.59736669 2.6540906 1.2856969e-39
1.3303218 0.59633911 2.6543577 6.4284847e-40
1.3309058 0.60694176 2.6523631 2.3877229e-39
1.2164427 0.56123316 2.6672833 3.6734899e-40
1.2238015 0.57216281 2.6648455 3.6734899e-40
1.2223097 0.58263206 2.6629927 3.6734198e-40
1.2208179 0.5931012 2.66114 3.6734899e-40
1.2342496 0.57401955 2.6639123 3.673602e-40
1.2327578 0.58448875 2.6620593 3.6734899e-40
1.2461896 0.56540704 2.6648314 2.116929e-39
1.2446978 0.57587612 2.6629784 1.0102269e-39
1.2840949 0.62199104 2.6522214 0
1.297196 0.62712413 2.650532 0
1.2784351 0.57171041 2.6618443 0
1.2761518 0.62061709 2.6529243 1.3811422e-39
1.2823972 0.61690891 2.6532578 2.2080484e-39
1.2844872 0.6218999 2.6522164 1.5648216e-39
1.2971239 0.61676013 2.6524539 1.2903885e-39
1.2970743 0.62152159 2.6515756 1.1056385e-39
1.3119001 0.61184973 2.652528 7.3468397e-40
1.3118505 0.61661136 2.65165 7.3468397e-40
1.311801 0.62137282 2.6507716 6.4284847e-40
1.3168092 0.61180013 2.6522601 7.3468397e-40
1.3167596 0.61656177 2.6513817 8.2651947e-40
1.31671 0.62132323 2.6505036 1.0101905e-39
1.3217181 0.61175054 2.6519921 3.2142424e-39
1.3216685 0.6165123 2.651114 3.1224069e-39
1.3216189 0.62127364 2.6502357 3.1224069e-39
1.3266767 0.60693932 2.652602 2.8469004e-39
1.3266271 0.61170095 2.6517241 3.6734198e-39
1.3265775 0.61646265 2.6508458 3.2142424e-39
1.326528 0.62122411 2.6499677 3.1224069e-39
1.3315858 0.60688978 2.6523342 3.0305714e-39
1.3315362 0.6116513 2.6514559 4.0411206e-39
1.3314866 0.61641306 2.6505778 3.2142424e-39
1.32649 0.61927652 2.6503303 3.1224069e-39
1.3253963 0.62526137 2.6492846 3.1224069e-39
1.336445 0.61160177 2.6511879 3.2142424e-39
1.3363954 0.61636341 2.6503096 2.8469004e-39
1.3375401 0.624089 2.6488156 1.5612034e-39
1.2856983 0.63947034 2.6488972 0
1.3392675 0.6029833 2.6526232 2.6639469e-39
1.2958629 0.37959269 2.6964061 8.2689361e-40
1.2792231 0.35241896 2.7023735 8.279544e-40
1.3090438 0.35982051 2.6993203 0
1.2958137 0.38431853 2.6955347 6.4501908e-40
1.2858727 0.40332001 2.6925802 1.0112751e-39
1.2907939 0.39854497 2.693186 1.1038294e-39
1.2719581 0.41453984 2.6912901 8.2724394e-40
1.2118267 0.46847847 2.6847057 6.4285968e-40
1.2220098 0.47028804 2.6837959 4.5918589e-40
1.2347685 0.51852757 2.67415 2.8573681e-39
1.2090528 0.47660962 2.683358 3.6734899e-40
1.2035824 0.49836218 2.6796422 1.8367099e-40
1.2164365 0.48672727 2.6810691 7.3469798e-40
1.2282757 0.47818747 2.6819804 3.6734899e-40
1.2267965 0.48856825 2.6801434 3.6734899e-40
1.2295957 0.48026007 2.6815224 3.673602e-40
1.2315738 0.49549139 2.6785924 0
1.2289588 0.50526255 2.6769326 0
1.3213156 0.53099287 2.6669567 3.9608388e-39
1.305411 0.47650787 2.6779356 2.3949158e-39
1.3123531 0.49722469 2.6737108 9.6499017e-41
1.396219 0.51938963 2.6648741 8.2994046e-39
1.237686 0.67620564 2.6448114 3.8729171e-39
1.2428666 0.68052286 2.6437199 4.0576671e-39
1.2480471 0.68484032 2.6426287 4.7934343e-39
1.1663209 0.63671571 2.6561477 2.8025969e-45
1.3055977 0.67042226 2.6420467 4.5921532e-40
1.1534492 0.64552218 2.6552451 0
1.3029301 0.67389786 2.6415544 2.3024006e-39
1.1936151 0.64999205 2.6521499 7.0064923e-45
1.2036185 0.65476662 2.6507015 1.460153e-42
1.32459 0.67160612 2.6407552 1.4012985e-45
1.3295763 0.67155576 2.6404829 0
1.334563 0.67150539 2.6402106 0
1.1661674 0.65145713 2.6534288 0
1.1762991 0.65135479 2.6528757 0
1.1813649 0.65130365 2.6525991 0
1.2148873 0.67271429 2.6467447 1.1710332e-38
1.2590181 0.64445561 2.6494811 2.7912604e-40
1.2726015 0.64546859 2.6485269 4.635187e-40
1.3104954 0.67517138 2.6408916 3.6880214e-40
1.3202354 0.67657566 2.6400816 4.6026349e-40
1.3252461 0.68124092 2.6389356 7.3469098e-40
1.2198739 0.67266393 2.6464722 1.1340846e-38
1.2248604 0.67261362 2.6462002 1.0510725e-38
1.311864 0.56824231 2.6605983 2.1194401e-39
1.2903485 0.53199846 2.668519 0
1.3135922 0.59117121 2.6562583 6.4320861e-40
1.3356031 0.5723353 2.6585009 1.658071e-39
1.3436599 0.58278584 2.656112 1.9285454e-39
1.2995223 0.5315665 2.668081 0
1.3515191 0.57812184 2.6565313 3.1224069e-39
1.3543911 0.60042602 2.6522424 9.1835496e-41
1.2923875 0.57354712 2.6607165 3.6842939e-40
1.2840025 0.58289939 2.6594598 1.4747798e-39
1.2976198 0.56914413 2.6612358 2.7589044e-40
1.2879487 0.5834859 2.6591284 1.2903843e-39
1.3025287 0.56909454 2.6609678 1.2903885e-39
1.2937466 0.58280092 2.6589277 1.7506576e-39
1.2946749 0.58197594 2.6590278 1.3815093e-39
1.2893682 0.59620935 2.6566942 2.0250809e-39
1.3034904 0.58270258 2.658396 1.10637e-39
1.2985145 0.59239423 2.6568837 2.1158332e-39
1.3219739 0.5690822 2.6598721 2.1176338e-39
1.3039656 0.58668643 2.6576319 7.3504691e-40
1.2179217 0.55085242 2.6691203 1.8762826e-40
1.249173 0.5444687 2.6685371 1.9343482e-39
1.2609243 0.56101447 2.6648118 0
1.2728769 0.58843845 2.6590633 1.8404094e-40
1.2777858 0.58838874 2.6587949 9.2160738e-40
1.2777362 0.59315044 2.6579168 1.7506576e-39
1.2827443 0.58357775 2.6594052 2.7623797e-40
1.2826947 0.58833927 2.6585271 1.1981929e-39
1.2879844 0.57947767 2.659868 1.8404654e-40
1.287653 0.58352816 2.6591372 9.2160738e-40
1.2810593 0.58822465 2.6586404 9.2160317e-40
1.2790319 0.59240013 2.6579826 1.0173987e-39
1.2789828 0.59712595 2.6571109 1.0166897e-39
1.2790699 0.60178745 2.6562436 1.2903941e-39
1.2926117 0.57871693 2.6597476 1.1981929e-39
1.2839533 0.58762509 2.6585879 1.5669768e-39
1.283553 0.59261584 2.6576874 1.1063602e-39
1.283855 0.59707677 2.6568449 1.7506576e-39
1.2838057 0.60180247 2.6559734 1.5666265e-39
1.2888253 0.58757591 2.6583223 1.9357579e-39
1.288776 0.59230173 2.6574504 1.7506576e-39
1.2887269 0.59702754 2.6565788 1.7506576e-39
1.2886777 0.60175323 2.6557074 1.5666265e-39
1.2849048 0.60605532 2.6551244 9.2089972e-40
1.2936974 0.58752668 2.6580563 2.3938592e-39
1.2936481 0.59225249 2.6571846 2.1176324e-39
1.2892755 0.59694666 2.656563 1.3818653e-39
1.2935498 0.60170394 2.6554413 1.5669768e-39
1.2898282 0.60739684 2.6545982 8.3012501e-40
1.3085407 0.57820636 2.6589422 2.4860604e-39
1.3033428 0.5968799 2.655781 1.6570004e-39
1.2974324 0.60146254 2.6552668 6.4464774e-40
1.2990347 0.6060434 2.6543288 6.4284847e-40
1.3082641 0.59210479 2.6563864 2.1129605e-39
1.3033893 0.59694523 2.6557662 8.2759987e-40
1.3131361 0.59205568 2.6561208 9.1835496e-40
1.313087 0.59678143 2.6552489 1.0101905e-39
1.3108915 0.60487056 2.6538765 1.9285454e-39
1.3228803 0.59195721 2.6555886 1.2856969e-39
1.3327228 0.58240724 2.6567998 2.2958874e-39
1.3316275 0.5869453 2.6560218 7.3468397e-40
1.2476813 0.55493784 2.6666842 1.2882627e-39
1.2789525 0.61770558 2.6533051 4.6097815e-40
1.3251373 0.61149049 2.6518471 0
1.3466102 0.57817143 2.6567993 1.2856969e-39
1.3003545 0.61879241 2.6518953 7.3468397e-40
1.3368747 0.60379797 2.6526077 0
1.3496957 0.66149247 2.6412089 4.6836103e-39
1.2532278 0.68915766 2.6415374 5.5284812e-39
1.2687696 0.70210987 2.6382635 6.5408282e-39
1.2998532 0.72801399 2.6317153 7.6468044e-39
1.3050338 0.7323314 2.6306241 7.7382812e-39
1.3102143 0.73664868 2.6295326 7.5538885e-39
1.2640442 0.68206912 2.6422381 4.7005296e-39
1.344687 0.65689427 2.6423423 5.0509523e-39
1.3496735 0.65684396 2.6420703 6.0611427e-39
1.3546598 0.65679353 2.6417978 6.3366492e-39
1.2031016 0.68990672 2.6442289 5.3466024e-39
1.2082058 0.69416052 2.6431539 5.8075792e-39
1.1533984 0.65039831 2.6543455 0
1.245044 0.6398468 2.651123 5.8965995e-39
1.2133101 0.69841421 2.6420786 6.4504319e-39
1.2184143 0.70266801 2.6410036 6.3593152e-39
1.2235185 0.70692176 2.6399281 6.9110345e-39
1.2448888 0.6931721 2.6412656 5.5313524e-39
1.2286229 0.71117556 2.6388531 6.8188388e-39
1.2466191 0.65361917 2.6484861 5.6236013e-39
1.2847989 0.66233546 2.6447172 3.5056073e-39
1.2907544 0.67057216 2.6428571 3.3205042e-39
1.2957022 0.67052221 2.6425869 2.6751348e-39
1.30065 0.6704722 2.6423168 1.565923e-39
1.3496231 0.66168064 2.6411781 5.7856363e-39
1.3402362 0.65716839 2.6425428 5.6034002e-39
1.3346133 0.66666865 2.6411028 3.6734198e-40
1.3395997 0.66661829 2.6408305 2.5713939e-39
1.3445861 0.66656798 2.6405585 3.0305714e-39
1.1533476 0.65527445 2.6534462 0
1.1662697 0.64162958 2.6552415 0
1.1662185 0.64654326 2.6543353 0
1.1713355 0.64157844 2.6549649 0
1.1712842 0.646492 2.6540585 0
1.1738243 0.64079207 2.6549697 0
1.1763502 0.64644086 2.6537819 0
1.181416 0.64638966 2.6535053 0
1.1915478 0.64628732 2.6529522 0
1.3087981 0.66796851 2.6423197 1.3826164e-39
1.229038 0.69582266 2.6416702 6.2649616e-39
1.3396502 0.66178143 2.6417229 3.8570908e-39
1.3446366 0.66173106 2.6414504 4.1325973e-39
1.3452874 0.66763854 2.6403208 2.4795584e-39
1.2912325 0.67157263 2.6426449 3.2311785e-39
1.2996129 0.67619073 2.6413174 3.3215678e-39
1.2841409 0.6631707 2.6445999 3.1357388e-39
1.2153025 0.71087694 2.6396601 6.6341043e-39
1.2341805 0.70010823 2.6405869 7.0035888e-39
1.2500694 0.69748938 2.6401739 6.3582348e-39
1.2604306 0.70612425 2.6379914 6.6341043e-39
1.2547501 0.71725041 2.6362536 6.6341043e-39
1.2598926 0.72153604 2.6351702 6.8188388e-39
1.2759724 0.71907628 2.6347175 7.092214e-39
1.2650349 0.72582155 2.6340871 7.0036042e-39
1.2701774 0.73010707 2.6330037 7.3694973e-39
1.2572721 0.71445584 2.6366282 6.8181354e-39
1.2824695 0.75123417 2.6284006 7.4609895e-39
1.2357194 0.72789198 2.6353593 7.0043077e-39
1.2516149 0.72552085 2.6349006 7.4616929e-39
1.2408237 0.73214573 2.634284 7.0043077e-39
1.2567573 0.72980636 2.633817 7.4616929e-39
1.2459279 0.73639947 2.6332088 7.4616929e-39
1.2811528 0.72339374 2.6336262 7.1851074e-39
1.2863334 0.72771108 2.6325347 7.4609895e-39
1.291514 0.73202837 2.6314433 7.5538885e-39
1.2804623 0.73867828 2.6308372 7.3694973e-39
1.2856047 0.74296379 2.6297538 7.0035888e-39
1.2958895 0.751535 2.6275873 8.1988922e-39
1.2927544 0.75980538 2.6262341 7.7393504e-39
1.2306151 0.72363824 2.6364346 7.4609895e-39
1.1877873 0.64566749 2.6532791 0
1.2700523 0.67053723 2.6440325 2.9534873e-39
1.1974491 0.65016341 2.651902 6.4537221e-40
1.2645377 0.64999115 2.6481454 1.2925465e-39
1.2963469 0.69245046 2.6384933 5.3466024e-39
1.3105454 0.67037225 2.6417766 3.6734899e-40
1.3221534 0.66227365 2.6426196 5.5138292e-40
1.2777187 0.6405037 2.6491563 2.0268395e-39
1.2588253 0.67771983 2.6433375 3.9654813e-39
1.2744817 0.69076753 2.6400394 5.4362855e-39
1.2797003 0.69511658 2.6389399 5.5284756e-39
1.3346637 0.66183174 2.6419947 2.3877229e-39
1.3347141 0.656995 2.6428869 2.4795584e-39
1.3834898 0.70246774 2.6317194 8.1963853e-39
1.2712998 0.69916058 2.6386662 6.9110345e-39
1.3226416 0.71436375 2.6329539 7.9208732e-39
1.3110129 0.72121179 2.6323438 7.5538885e-39
1.3279005 0.71874648 2.6318464 7.5538885e-39
1.3162317 0.7255609 2.6312444 7.4616929e-39
1.3214505 0.72991002 2.6301448 7.7357785e-39
1.372723 0.69349474 2.6339874 7.0929118e-39
1.3781065 0.69798124 2.6328533 8.0116241e-39
1.3624947 0.71370512 2.6308258 7.8290307e-39
1.367836 0.7181564 2.6297007 7.6453653e-39
1.3731773 0.72260767 2.6285753 7.8294006e-39
1.3612486 0.72954977 2.6279643 7.4627719e-39
1.3509889 0.74911743 2.6249232 7.8294006e-39
1.3562479 0.75350022 2.6238155 8.0141422e-39
1.2869562 0.71220809 2.6353681 6.5419086e-39
1.3089175 0.71405625 2.6337862 7.3694973e-39
1.3141764 0.71843886 2.632678 7.5538885e-39
1.3026125 0.72525561 2.6320701 7.6460842e-39
1.3453453 0.71629632 2.6313145 7.7364819e-39
1.3331596 0.72312915 2.6307385 7.4609895e-39
1.3506464 0.72071421 2.630198 7.3698476e-39
1.3384184 0.72751176 2.6296308 7.6453653e-39
1.3559475 0.72513199 2.6290812 7.6453653e-39
1.333925 0.7513507 2.6254737 7.3705763e-39
1.3541952 0.74065971 2.626307 8.0137919e-39
1.3594543 0.74504244 2.6251993 8.1970944e-39
