# .PCD v0.7 - Point Cloud Data file format
VERSION 0.7
FIELDS x y z rgb
SIZE 4 4 4 4
TYPE F F F F
COUNT 1 1 1 1
WIDTH 1073
HEIGHT 1
VIEWPOINT 0 0 0 1 0 0 0
POINTS 1073
DATA ascii
1.4460853 1.5275314 -2.1941543 1.0793763e-38
1.4474386 1.5355492 -2.1900249 1.0700493e-38
1.448792 1.5435673 -2.1858952 1.0793763e-38
1.4501454 1.5515852 -2.181766 1.0334587e-38
1.4514987 1.5596031 -2.1776364 1.0425701e-38
1.4544976 1.567992 -2.1724591 1.0150189e-38
1.4558612 1.5760702 -2.1682985 1.0150192e-38
1.4555589 1.5836568 -2.1652482 1.0149839e-38
1.4569124 1.5916748 -2.161119 1.005764e-38
1.4582657 1.5996927 -2.1569893 1.0149473e-38
1.4596189 1.6077106 -2.1528602 1.0333154e-38
1.4626788 1.6164621 -2.1474957 1.005764e-38
1.4640423 1.6245402 -2.1433353 1.0424981e-38
1.4654059 1.6326185 -2.1391747 1.0332432e-38
1.4685067 1.6416116 -2.1336863 1.0149123e-38
1.4712542 1.657889 -2.125303 1.0149836e-38
1.4740018 1.6741666 -2.1169198 9.9654447e-39
1.4753757 1.6823052 -2.1127281 1.0150189e-38
1.4767493 1.690444 -2.1085365 1.0149473e-38
1.4799315 1.6999201 -2.1027989 1.0149836e-38
1.4813154 1.7081194 -2.0985763 1.005764e-38
1.4826994 1.7163185 -2.0943537 1.0057277e-38
1.4234642 1.4501001 -2.2392049 1.0977433e-38
1.4261507 1.4660151 -2.2310083 1.0793761e-38
1.4274938 1.4739727 -2.2269101 1.0978508e-38
1.4288368 1.4819301 -2.2228117 1.0700843e-38
1.4301802 1.4898878 -2.2187135 1.0334587e-38
1.4330194 1.4976895 -2.2138712 1.0517897e-38
1.4343725 1.5057074 -2.2097418 1.0608649e-38
1.4357257 1.513725 -2.2056122 1.0610448e-38
1.4370793 1.5217432 -2.201483 1.0610451e-38
1.4384327 1.5297611 -2.1973536 1.0149842e-38
1.439786 1.5377789 -2.1932242 1.0242039e-38
1.4411393 1.545797 -2.1890945 1.0517178e-38
1.4424928 1.5538149 -2.1849654 1.0334585e-38
1.4438463 1.5618328 -2.180836 1.0794117e-38
1.4467874 1.5702385 -2.1756825 1.0334585e-38
1.4465529 1.5778686 -2.1725769 1.0518253e-38
1.4479063 1.5858865 -2.1684477 1.0242392e-38
1.4492596 1.5939044 -2.1643183 1.0334587e-38
1.4522414 1.6025517 -2.1590402 1.0424628e-38
1.4536051 1.61063 -2.1548798 1.0149476e-38
1.4549687 1.6187084 -2.1507192 1.0333504e-38
1.4563322 1.6267868 -2.146559 1.0517534e-38
1.4593652 1.6357361 -2.1411257 1.0149473e-38
1.4607389 1.6438748 -2.1369338 1.0333507e-38
1.4621128 1.6520135 -2.1327422 1.0242392e-38
1.4665703 1.6694038 -2.1229618 1.005729e-38
1.4679542 1.6776029 -2.1187389 1.0057646e-38
1.4693382 1.685802 -2.1145163 1.0334587e-38
1.4721061 1.7022003 -2.106071 1.0517549e-38
1.4145262 1.4443556 -2.2464786 1.0700843e-38
1.4158695 1.4523131 -2.2423804 1.0794117e-38
1.4172126 1.4602705 -2.238282 1.0885237e-38
1.4185557 1.4682279 -2.2341838 1.0518619e-38
1.419899 1.4761856 -2.2300854 1.0610448e-38
1.4212421 1.4841431 -2.225987 1.0517178e-38
1.4253666 1.4999191 -2.2170703 1.0702644e-38
1.42672 1.507937 -2.2129412 1.0242389e-38
1.4280734 1.515955 -2.2088118 1.0885956e-38
1.4294269 1.5239729 -2.2046821 1.0793763e-38
1.4307802 1.5319908 -2.2005529 1.0793763e-38
1.4321336 1.5400087 -2.1964235 1.079484e-38
1.4334871 1.5480267 -2.1922941 1.0794845e-38
1.43635 1.5563284 -2.1872272 1.0610448e-38
1.4361936 1.5640625 -2.1840353 1.0518253e-38
1.437547 1.5720805 -2.1799059 1.0334941e-38
1.4404405 1.5805632 -2.1747456 1.0517897e-38
1.4402537 1.588116 -2.1716473 1.0701565e-38
1.4431677 1.59672 -2.1664245 1.0518253e-38
1.4429604 1.6041521 -2.1633883 1.0333507e-38
1.4443138 1.61217 -2.1592588 1.0057646e-38
1.4472584 1.620955 -2.1539431 1.0149123e-38
1.448622 1.6290333 -2.1497827 1.0333151e-38
1.4515972 1.6379994 -2.1443729 1.0333504e-38
1.4529712 1.6461382 -2.1401818 1.0242386e-38
1.4559768 1.6552856 -2.1346788 1.0333504e-38
1.4573606 1.6634847 -2.130456 1.05179e-38
1.4069314 1.4465684 -2.2496538 1.0885593e-38
1.4082744 1.4545258 -2.2455554 1.0794117e-38
1.4096177 1.4624834 -2.2414572 1.0700849e-38
1.4109608 1.4704409 -2.237359 1.0517178e-38
1.4123039 1.4783984 -2.2332606 1.0703366e-38
1.4136473 1.486356 -2.2291622 1.0425704e-38
1.4163609 1.4941308 -2.2243996 1.0793763e-38
1.4177141 1.5021487 -2.2202699 1.0794842e-38
1.4218218 1.5181831 -2.2112532 1.107035e-38
1.424549 1.5343397 -2.2029321 1.0242039e-38
1.4259125 1.5424182 -2.1987715 1.0702294e-38
1.4272761 1.5504966 -2.1946108 1.0793763e-38
1.4286397 1.5585749 -2.1904504 1.0793761e-38
1.4300033 1.5666533 -2.18629 1.0426057e-38
1.4313668 1.5747313 -2.1821294 1.0610451e-38
1.4327304 1.5828097 -2.177969 1.0702647e-38
1.434094 1.590888 -2.1738086 1.0701565e-38
1.4354576 1.5989664 -2.1696479 1.0517897e-38
1.435308 1.6063818 -2.1665876 1.0701568e-38
1.4366612 1.6143997 -2.1624584 1.0425701e-38
1.4395483 1.6232016 -2.1571662 1.0517178e-38
1.4409118 1.6312798 -2.1530058 1.0517178e-38
1.4438292 1.6402628 -2.1476207 1.0242039e-38
1.4467672 1.6493666 -2.1421733 1.0150189e-38
1.448151 1.6575655 -2.1379507 1.0149473e-38
1.449535 1.6657648 -2.1337278 1.0517184e-38
1.450919 1.6739639 -2.1295052 1.0333154e-38
1.4650613 1.749446 -2.0898714 9.8725274e-39
1.3993365 1.4487815 -2.2528293 1.088524e-38
1.4006795 1.4567388 -2.2487309 1.079341e-38
1.4020226 1.4646963 -2.2446325 1.0885606e-38
1.4046479 1.4723066 -2.2399867 1.079341e-38
1.4060017 1.4803247 -2.2358575 1.1162903e-38
1.4073548 1.4883426 -2.2317281 1.0701568e-38
1.4087081 1.4963604 -2.2275987 1.0885606e-38
1.4127481 1.5123513 -2.218637 1.0977436e-38
1.4141117 1.5204297 -2.2144763 1.0793761e-38
1.4154752 1.5285081 -2.2103162 1.0517897e-38
1.4168386 1.5365862 -2.2061555 1.0610451e-38
1.4182023 1.5446646 -2.2019951 1.0977802e-38
1.4195658 1.5527431 -2.1978347 1.0977083e-38
1.4209294 1.5608213 -2.1936741 1.0793763e-38
1.4222931 1.5688998 -2.1895134 1.0242392e-38
1.4236567 1.5769781 -2.1853533 1.0518619e-38
1.4250202 1.5850564 -2.1811926 1.0610817e-38
1.4263837 1.5931348 -2.177032 1.0701565e-38
1.4277474 1.601213 -2.1728716 1.0793761e-38
1.4291109 1.6092914 -2.1687109 1.0425704e-38
1.4304745 1.6173698 -2.1645505 1.0149839e-38
1.431838 1.625448 -2.1603899 1.0517897e-38
1.4332016 1.6335263 -2.1562295 1.0517184e-38
1.4360614 1.6425259 -2.1508684 1.0701568e-38
1.4389417 1.6516466 -2.1454451 1.0793761e-38
1.4403256 1.6598456 -2.1412222 1.0149836e-38
1.4417096 1.6680448 -2.1369996 1.0424631e-38
1.4430935 1.6762439 -2.1327767 1.0242039e-38
1.3903983 1.4430367 -2.260103 1.0978508e-38
1.3917414 1.4509943 -2.2560046 1.1254016e-38
1.3930845 1.4589517 -2.2519062 1.0793761e-38
1.3969955 1.4745365 -2.2431862 1.0977436e-38
1.3983489 1.4825544 -2.2390568 1.0885606e-38
1.3997022 1.4905723 -2.2349274 1.079341e-38
1.4010556 1.4985902 -2.230798 1.1071071e-38
1.4036742 1.5065196 -2.2260213 1.0885959e-38
1.4050378 1.5145977 -2.2218606 1.0792689e-38
1.4064013 1.5226761 -2.2177002 1.0702647e-38
1.4077649 1.5307544 -2.2135396 1.0610451e-38
1.4091285 1.5388329 -2.2093792 1.0884887e-38
1.4104921 1.5469111 -2.2052188 1.0977436e-38
1.4118557 1.5549896 -2.2010579 1.0977436e-38
1.4132192 1.5630679 -2.1968975 1.079341e-38
1.4145828 1.5711461 -2.1927371 1.0702294e-38
1.4159464 1.5792245 -2.1885765 1.0702647e-38
1.4200509 1.5959569 -2.1792657 1.0793763e-38
1.4214247 1.6040957 -2.1750741 1.0793045e-38
1.4214005 1.6115377 -2.1719344 1.0792691e-38
1.4227643 1.6196163 -2.1677737 1.0518265e-38
1.4241277 1.6276945 -2.1636133 1.0793763e-38
1.4269199 1.6366506 -2.1583076 1.0700496e-38
1.4282935 1.6447893 -2.1541159 1.0334237e-38
1.4311163 1.6539267 -2.1487167 1.088524e-38
1.4325001 1.6621259 -2.1444941 1.0609742e-38
1.4338843 1.670325 -2.1402712 1.0701565e-38
1.435268 1.6785241 -2.1360486 1.0885956e-38
1.4381416 1.6879636 -2.1304936 1.0518616e-38
1.4395359 1.6962233 -2.12624 1.0242392e-38
1.4409299 1.7044826 -2.1219862 1.0425348e-38
1.4423242 1.7127422 -2.1177323 1.0149842e-38
1.4437182 1.7210016 -2.1134784 1.0149486e-38
1.4451123 1.7292612 -2.1092246 1.0149839e-38
1.4479008 1.7457803 -2.1007168 1.0056921e-38
1.4492949 1.75404 -2.0964632 1.0057275e-38
1.3825761 1.4366765 -2.2670329 1.0885237e-38
1.3839295 1.4446945 -2.2629035 1.0978155e-38
1.3852828 1.4527123 -2.258774 1.1436612e-38
1.386636 1.4607301 -2.2546446 1.0978155e-38
1.3879895 1.4687482 -2.2505152 1.0885606e-38
1.3893429 1.4767662 -2.2463861 1.0977436e-38
1.3906962 1.4847841 -2.2422564 1.097852e-38
1.3920497 1.492802 -2.238127 1.079484e-38
1.3946003 1.5006876 -2.2334051 1.0794842e-38
1.3959639 1.5087661 -2.2292449 1.079484e-38
1.3973274 1.5168443 -2.2250843 1.0885959e-38
1.3986911 1.5249227 -2.2209237 1.0978152e-38
1.4000547 1.5330009 -2.2167633 1.0702294e-38
1.4014182 1.5410794 -2.2126026 1.0701215e-38
1.4027817 1.5491576 -2.2084422 1.1070706e-38
1.4041454 1.5572362 -2.2042818 1.0793761e-38
1.4055089 1.5653145 -2.2001212 1.0885606e-38
1.4068725 1.5733927 -2.1959608 1.0517902e-38
1.4082359 1.581471 -2.1917999 1.0978523e-38
1.4109093 1.5900815 -2.1867049 1.079341e-38
1.4122829 1.5982201 -2.182513 1.0701568e-38
1.4136569 1.606359 -2.1783216 1.0792691e-38
1.4136903 1.6137843 -2.175158 1.0610098e-38
1.4164044 1.6226366 -2.1699386 1.0517902e-38
1.417778 1.6307751 -2.1657467 1.0701215e-38
1.4205226 1.6398085 -2.1604338 1.0792691e-38
1.4219066 1.6480075 -2.1562111 1.0517902e-38
1.4232906 1.6562067 -2.1519883 1.0701215e-38
1.4246746 1.6644059 -2.1477656 1.0792694e-38
1.4260585 1.672605 -2.143543 1.0701215e-38
1.4288641 1.6820009 -2.1380434 1.0517547e-38
1.4302583 1.6902605 -2.1337893 1.0517902e-38
1.4316524 1.6985201 -2.1295357 1.0517902e-38
1.4330466 1.7067795 -2.125282 1.0517897e-38
1.4344409 1.7150391 -2.1210282 1.0425704e-38
1.4358349 1.7232985 -2.1167743 1.0885959e-38
1.437229 1.7315581 -2.1125207 1.0424981e-38
1.4514339 1.8081074 -2.0724006 8.279628e-40
1.3684926 1.4076747 -2.2869449 1.0610448e-38
1.3735701 1.4308884 -2.2743616 1.0978152e-38
1.3749236 1.4389063 -2.2702322 1.088524e-38
1.3762769 1.4469241 -2.266103 1.079341e-38
1.3776301 1.454942 -2.2619734 1.1252221e-38
1.3789836 1.46296 -2.2578442 1.0702644e-38
1.3803369 1.470978 -2.2537146 1.0702644e-38
1.3816903 1.4789959 -2.2495854 1.061117e-38
1.3830438 1.4870137 -2.245456 1.1254019e-38
1.3843971 1.4950318 -2.2413266 1.107035e-38
1.3868903 1.5029341 -2.2366288 1.0978871e-38
1.3882537 1.5110124 -2.2324681 1.107035e-38
1.3909811 1.5271692 -2.2241473 1.0977083e-38
1.3923446 1.5352476 -2.2199867 1.0977802e-38
1.3937081 1.5433259 -2.215826 1.097852e-38
1.3962727 1.551651 -2.2109108 1.1070706e-38
1.3976462 1.5597898 -2.2067189 1.0978152e-38
1.3990201 1.5679284 -2.2025273 1.0611167e-38
1.4003938 1.5760673 -2.1983359 1.0794842e-38
1.4017676 1.5842059 -2.194144 1.079341e-38
1.4031415 1.5923446 -2.1899524 1.079341e-38
1.4032531 1.5998741 -2.1867025 1.0978155e-38
1.4046166 1.6079525 -2.1825421 1.0793045e-38
1.4072628 1.6167611 -2.1773777 1.0794492e-38
1.4086365 1.6248996 -2.1731861 1.0609742e-38
1.4113132 1.6338894 -2.1679282 1.0334587e-38
1.4126973 1.6420887 -2.1637056 1.0701568e-38
1.4167986 1.6595191 -2.1541007 1.0701215e-38
1.4181926 1.6677786 -2.1498468 1.0793763e-38
1.4195869 1.6760381 -2.1455932 1.0793045e-38
1.4209809 1.6842978 -2.1413393 1.079341e-38
1.4223751 1.6925573 -2.1370852 1.0794489e-38
1.4237694 1.7008168 -2.1328316 1.0610451e-38
1.4392754 1.7854526 -2.0885816 1.0149826e-38
1.4406804 1.7937756 -2.084295 9.9650762e-39
1.4420853 1.8020988 -2.0800083 1.0333489e-38
1.4434901 1.8104221 -2.0757217 2.5868628e-39
1.3582112 1.3939726 -2.2983165 1.1436612e-38
1.3659174 1.433118 -2.2775609 1.1070703e-38
1.3686242 1.4491539 -2.2693021 1.0978871e-38
1.3699775 1.4571717 -2.2651727 1.0977789e-38
1.3723623 1.4647889 -2.2606549 1.107035e-38
1.3737257 1.4728674 -2.2564943 1.097852e-38
1.375089 1.4809457 -2.2523339 1.0978874e-38
1.3764527 1.489024 -2.2481732 1.1620654e-38
1.3778163 1.4971024 -2.2440128 1.0978155e-38
1.3791798 1.5051807 -2.2398522 1.143913e-38
1.3805435 1.5132589 -2.2356918 1.1346937e-38
1.381907 1.5213373 -2.2315311 1.0885606e-38
1.3832704 1.5294156 -2.2273705 1.107035e-38
1.384634 1.5374938 -2.2232101 1.0977802e-38
1.3859977 1.5455724 -2.2190495 1.107e-38
1.3873613 1.5536506 -2.214889 1.0885609e-38
1.3898785 1.5620532 -2.2099667 1.0794842e-38
1.3939997 1.5864693 -2.197392 1.0793761e-38
1.3953735 1.5946081 -2.1932001 1.0793763e-38
1.3967472 1.6027467 -2.1890085 1.0702291e-38
1.3981211 1.6108856 -2.1848168 1.0425704e-38
1.399495 1.6190244 -2.1806252 1.0885606e-38
1.4021035 1.6279703 -2.1754227 1.079341e-38
1.4034877 1.6361698 -2.1712003 1.0702647e-38
1.4061271 1.6452969 -2.1659043 1.079341e-38
1.4089153 1.661816 -2.1573966 1.0884887e-38
1.4103096 1.6700755 -2.1531427 1.0610098e-38
1.4117037 1.678335 -2.1488888 1.0701215e-38
1.4130979 1.6865947 -2.1446352 1.0885606e-38
1.4144921 1.6948544 -2.1403811 1.0794842e-38
1.4158862 1.7031137 -2.1361275 1.0702291e-38
1.4172803 1.7113732 -2.1318738 1.0518616e-38
1.4186745 1.7196327 -2.1276197 1.0242039e-38
1.4200686 1.7278924 -2.1233659 1.0700859e-38
1.427117 1.7627977 -2.1047623 1.0424631e-38
1.428522 1.7711209 -2.100476 1.005729e-38
1.4299269 1.7794441 -2.0961895 9.9654447e-39
1.4313318 1.7877672 -2.0919027 9.9650916e-39
1.4327366 1.7960904 -2.0876162 9.8725302e-39
1.4355464 1.8127366 -2.0790429 3.9705063e-39
1.3439004 1.3563981 -2.3219836 1.0793392e-38
1.3452436 1.3643556 -2.3178852 1.1068903e-38
1.3465866 1.372313 -2.3137867 1.0977789e-38
1.3569113 1.4273297 -2.2848897 1.1070706e-38
1.3582648 1.4353478 -2.2807605 1.1346216e-38
1.3596183 1.4433657 -2.2766311 1.0885237e-38
1.3609717 1.4513835 -2.2725017 1.1162547e-38
1.362325 1.4594014 -2.2683723 1.1161467e-38
1.3636783 1.4674195 -2.2642429 1.0977802e-38
1.3660154 1.4751139 -2.2597179 1.1071427e-38
1.367379 1.4831921 -2.2555571 1.1253663e-38
1.3687426 1.4912704 -2.2513967 1.1161467e-38
1.3701061 1.4993489 -2.247236 1.1346218e-38
1.3714697 1.5074272 -2.2430756 1.1253668e-38
1.3728334 1.5155057 -2.2389152 1.107e-38
1.3741968 1.5235839 -2.2347546 1.0794489e-38
1.3755604 1.5316621 -2.2305944 1.0794842e-38
1.3769239 1.5397404 -2.2264335 1.107035e-38
1.3793632 1.548039 -2.2215977 1.0978155e-38
1.3807369 1.5561776 -2.2174058 1.0794842e-38
1.3845904 1.5728565 -2.2082539 1.1253312e-38
1.3873582 1.5892549 -2.1998081 1.0794489e-38
1.3887421 1.597454 -2.1955853 1.0701215e-38
1.3915102 1.6138523 -2.1871402 1.0793763e-38
1.392894 1.6220515 -2.1829171 1.0610098e-38
1.394278 1.6302506 -2.1786945 1.0700859e-38
1.4024264 1.6723725 -2.1564386 1.0794489e-38
1.4038206 1.6806321 -2.1521847 1.0517547e-38
1.4052148 1.6888916 -2.1479311 1.0701215e-38
1.4066088 1.6971511 -2.1436768 1.0610451e-38
1.4093971 1.7136703 -2.1351695 1.0427149e-38
1.4149584 1.7401429 -2.1209435 1.0517902e-38
1.4163634 1.7484661 -2.116657 1.0517184e-38
1.4177682 1.7567892 -2.1123703 1.0149839e-38
1.4191732 1.7651125 -2.1080837 1.0057643e-38
1.4205779 1.7734355 -2.103797 1.0149123e-38
1.4219828 1.7817585 -2.0995104 1.0149123e-38
1.4233878 1.7900819 -2.0952239 1.014947e-38
1.4247925 1.7984048 -2.0909371 9.9650762e-39
1.426127 1.8127848 -2.0841234 4.0601852e-39
1.4275211 1.8210442 -2.0798695 4.6133534e-39
1.3336191 1.342696 -2.3333554 1.1252571e-38
1.3451986 1.4055058 -2.3004773 1.0977433e-38
1.346552 1.4135237 -2.2963481 1.1161467e-38
1.3479055 1.4215415 -2.2922187 1.1161467e-38
1.3492588 1.4295594 -2.288089 1.1070706e-38
1.3506122 1.4375775 -2.2839599 1.1161823e-38
1.3519657 1.4455954 -2.2798307 1.0978508e-38
1.353319 1.4536133 -2.275701 1.1071427e-38
1.3546723 1.4616312 -2.2715714 1.1161467e-38
1.3569416 1.469282 -2.2671018 1.0978155e-38
1.3583052 1.4773605 -2.2629414 1.107072e-38
1.3596687 1.4854387 -2.2587807 1.1161117e-38
1.3610322 1.4935169 -2.2546203 1.1346218e-38
1.3623959 1.5015954 -2.2504597 1.1161467e-38
1.3637595 1.5096737 -2.2462995 1.0977802e-38
1.365123 1.5177522 -2.2421389 1.0978874e-38
1.367474 1.5258859 -2.2374201 1.097852e-38
1.3678502 1.5339087 -2.2338176 1.0978874e-38
1.3702214 1.5421635 -2.2290368 1.1069997e-38
1.3729692 1.5584409 -2.2206535 1.1071071e-38
1.3743428 1.5665797 -2.2164619 1.0885606e-38
1.3757164 1.5747185 -2.2122703 1.0885253e-38
1.3781488 1.5833359 -2.2073028 1.0978167e-38
1.3795328 1.5915349 -2.2030799 1.0794136e-38
1.3809166 1.5997341 -2.1988571 1.0885606e-38
1.3823009 1.6079332 -2.1946344 1.0702294e-38
1.3836846 1.6161323 -2.1904118 1.0701215e-38
1.3850687 1.6243316 -2.1861892 1.0885609e-38
1.3864526 1.6325307 -2.1819663 1.0517547e-38
1.3917549 1.6581503 -2.1682422 1.0702297e-38
1.3931489 1.6664099 -2.1639884 1.0702294e-38
1.3945429 1.6746693 -2.1597345 1.0977083e-38
1.3959372 1.6829289 -2.1554806 1.0885606e-38
1.3973315 1.6911885 -2.1512268 1.0702294e-38
1.4028 1.7174882 -2.1371245 1.079341e-38
1.4042047 1.7258114 -2.1328378 1.0794492e-38
1.4056096 1.7341343 -2.1285512 1.079341e-38
1.4070145 1.7424574 -2.1242647 1.0334231e-38
1.4084196 1.7507807 -2.1199782 1.0517184e-38
1.4098244 1.7591038 -2.1156914 1.0517178e-38
1.4112293 1.7674268 -2.1114047 1.0424981e-38
1.4126343 1.77575 -2.1071181 1.0149123e-38
1.4182537 1.8090427 -2.089972 8.3980966e-39
1.4196584 1.8173658 -2.0856853 4.0601796e-39
1.419638 1.8233414 -2.0831654 4.6130003e-39
1.421032 1.8316008 -2.0789113 4.2449296e-39
1.4224262 1.8398603 -2.0746577 2.8638098e-39
1.3361928 1.3997177 -2.3078063 1.1254372e-38
1.3375461 1.4077355 -2.3036771 1.1254016e-38
1.3388995 1.4157532 -2.2995474 1.116182e-38
1.3402529 1.4237713 -2.295418 1.1254019e-38
1.3416063 1.4317892 -2.2912889 1.1254019e-38
1.3429596 1.4398072 -2.2871592 1.1162903e-38
1.344313 1.4478251 -2.28303 1.1254019e-38
1.3465042 1.4553719 -2.2786462 1.1255818e-38
1.3478678 1.4634502 -2.2744858 1.1163622e-38
1.3492315 1.4715284 -2.2703252 1.1162901e-38
1.350595 1.4796067 -2.2661648 1.0978152e-38
1.3519584 1.4876852 -2.2620044 1.1438414e-38
1.3533221 1.4957635 -2.2578437 1.1162903e-38
1.3555847 1.5037334 -2.2532423 1.1161823e-38
1.3569586 1.5118719 -2.2490509 1.1071427e-38
1.3583322 1.5200107 -2.2448592 1.1531682e-38
1.3597059 1.5281494 -2.2406676 1.1163266e-38
1.3610798 1.5362881 -2.2364759 1.1070717e-38
1.3624535 1.5444269 -2.2322843 1.0794489e-38
1.3638272 1.5525655 -2.2280927 1.1070717e-38
1.3652012 1.5607042 -2.223901 1.0794845e-38
1.3665748 1.568843 -2.2197094 1.1530612e-38
1.3679485 1.5769819 -2.215518 1.1345865e-38
1.3703233 1.585616 -2.2105746 1.143878e-38
1.3755066 1.6108898 -2.1970608 1.0978155e-38
1.3782949 1.627409 -2.1885533 1.0884887e-38
1.3796891 1.6356685 -2.1842995 1.0978874e-38
1.3838714 1.6604471 -2.1715381 1.0978871e-38
1.3852657 1.6687068 -2.1672843 1.107035e-38
1.3866599 1.6769663 -2.1630304 1.1161823e-38
1.3880541 1.6852258 -2.1587765 1.0978155e-38
1.3906413 1.6948334 -2.1533053 1.0703366e-38
1.3920462 1.7031566 -2.149019 1.0702647e-38
1.3934511 1.7114797 -2.1447322 1.0978155e-38
1.396261 1.7281259 -2.1361592 1.0334231e-38
1.3976659 1.7364491 -2.1318727 1.0885606e-38
1.3990706 1.7447722 -2.1275859 1.0702647e-38
1.4004756 1.7530953 -2.1232994 1.0701215e-38
1.4018805 1.7614183 -2.1190128 1.0610095e-38
1.4032854 1.7697417 -2.1147261 1.0517178e-38
1.4117147 1.8196805 -2.0890067 3.9705007e-39
1.4117547 1.8256381 -2.0864611 4.6130003e-39
1.4131489 1.8338977 -2.0822072 4.1523809e-39
1.4132261 1.8397894 -2.0796697 2.9585236e-39
1.3271869 1.3939294 -2.315135 1.116182e-38
1.3285402 1.4019473 -2.3110056 1.1346216e-38
1.3298937 1.4099652 -2.3068764 1.1529163e-38
1.3312471 1.4179831 -2.302747 1.1254019e-38
1.3326005 1.4260011 -2.2986176 1.1254019e-38
1.3339537 1.434019 -2.2944882 1.1162547e-38
1.335307 1.4420367 -2.2903588 1.1346216e-38
1.3366604 1.4500548 -2.2862294 1.1070706e-38
1.338794 1.4576185 -2.2818696 1.1070717e-38
1.3401577 1.4656968 -2.2777095 1.1255467e-38
1.3415211 1.473775 -2.2735491 1.1162553e-38
1.3428847 1.4818534 -2.2693882 1.0794489e-38
1.3442483 1.4899317 -2.2652278 1.1436615e-38
1.3456119 1.4980099 -2.2610674 1.1346934e-38
1.3478168 1.5059965 -2.25649 1.1528808e-38
1.3491907 1.5141354 -2.2522984 1.1255818e-38
1.3519381 1.5304126 -2.2439153 1.1070717e-38
1.353312 1.5385512 -2.2397237 1.1163272e-38
1.3546857 1.5466901 -2.235532 1.1163988e-38
1.3560593 1.5548288 -2.2313404 1.1346937e-38
1.3574331 1.5629675 -2.2271485 1.1438064e-38
1.358807 1.5711064 -2.2229571 1.1345509e-38
1.3601806 1.5792451 -2.2187653 1.0977802e-38
1.3624978 1.587896 -2.2138462 1.1161117e-38
1.3638816 1.5960951 -2.2096233 1.1070717e-38
1.3662294 1.6049272 -2.2046106 1.1253312e-38
1.3676236 1.6131868 -2.2003567 1.0794489e-38
1.3690176 1.6214464 -2.1961029 1.0978155e-38
1.3704119 1.6297059 -2.191849 1.0977436e-38
1.3718059 1.6379653 -2.1875951 1.0978155e-38
1.3732001 1.6462249 -2.1833415 1.0977802e-38
1.3745942 1.6544843 -2.1790876 1.1070353e-38
1.3759884 1.662744 -2.1748335 1.097852e-38
1.3773825 1.6710036 -2.1705797 1.0794489e-38
1.3787768 1.679263 -2.166326 1.1070353e-38
1.3801709 1.6875226 -2.1620722 1.0978155e-38
1.3826975 1.697148 -2.1566267 1.107035e-38
1.3855072 1.7137941 -2.1480534 1.107035e-38
1.3869122 1.7221173 -2.1437669 1.097852e-38
1.3883171 1.7304405 -2.1394804 1.0703013e-38
1.389722 1.7387636 -2.1351936 1.0885956e-38
1.3911269 1.7470869 -2.1309071 1.0885959e-38
1.4037707 1.8219949 -2.0923278 4.152734e-39
1.4051757 1.8303181 -2.0880411 4.7055546e-39
1.4052659 1.8361946 -2.0855031 4.705549e-39
1.4054004 1.8420693 -2.0829415 3.9705063e-39
1.3127674 1.3560693 -2.3389814 1.1438764e-38
1.3208877 1.404177 -2.3142049 1.1436615e-38
1.3222409 1.4121947 -2.3100758 1.1438411e-38
1.3235943 1.4202127 -2.3059464 1.1162903e-38
1.3249477 1.4282306 -2.3018169 1.1346216e-38
1.3310839 1.4598649 -2.2850933 1.1162916e-38
1.3324473 1.4679431 -2.2809329 1.1163272e-38
1.3338109 1.4760215 -2.2767723 1.1346218e-38
1.3351746 1.4840999 -2.2726119 1.1071071e-38
1.3365382 1.4921782 -2.2684512 1.1346584e-38
1.3379017 1.5002565 -2.2642906 1.1255465e-38
1.340049 1.5082598 -2.2597377 1.1253668e-38
1.3427966 1.5245372 -2.2513542 1.1162553e-38
1.3441702 1.532676 -2.2471628 1.143878e-38
1.3455442 1.5408148 -2.2429714 1.1346937e-38
1.3469179 1.5489534 -2.2387795 1.143878e-38
1.3482918 1.5570921 -2.2345879 1.1070717e-38
1.3496655 1.565231 -2.2303963 1.1162553e-38
1.3510392 1.5733697 -2.2262046 1.1438058e-38
1.3524128 1.5815084 -2.222013 1.116255e-38
1.3546722 1.5901762 -2.2171178 1.0977802e-38
1.3560561 1.5983752 -2.2128952 1.1163269e-38
1.3583462 1.6072242 -2.2079067 1.0977802e-38
1.3597403 1.6154838 -2.2036526 1.1070717e-38
1.3611344 1.6237433 -2.199399 1.1069997e-38
1.3625286 1.6320028 -2.1951449 1.0977802e-38
1.3639227 1.6402624 -2.1908913 1.1069997e-38
1.3653169 1.6485218 -2.1866372 1.1161114e-38
1.366711 1.6567813 -2.1823833 1.0977804e-38
1.3681052 1.665041 -2.1781297 1.1162553e-38
1.3694993 1.6733004 -2.1738758 1.0978874e-38
1.3708935 1.68156 -2.1696219 1.1346218e-38
1.3722876 1.6898196 -2.1653681 1.1162547e-38
1.3736819 1.6980792 -2.1611142 1.1253663e-38
1.3761585 1.7077856 -2.1556611 1.097852e-38
1.3775635 1.7161088 -2.1513746 1.0794489e-38
1.3789684 1.7244319 -2.1470881 1.097852e-38
1.3803731 1.7327549 -2.1428013 1.0977802e-38
1.381778 1.741078 -2.1385148 1.0794489e-38
1.383183 1.7494012 -2.1342282 1.0334234e-38
1.3845879 1.7577243 -2.1299417 1.0517902e-38
1.3971215 1.8267636 -2.0939085 4.5211564e-39
1.3972318 1.8326327 -2.0913625 4.6133534e-39
1.313235 1.4064068 -2.3174045 1.1254019e-38
1.3220097 1.454033 -2.2924771 1.1346216e-38
1.3233734 1.4621115 -2.2883167 1.1346937e-38
1.324737 1.4701897 -2.2841561 1.1255818e-38
1.3261006 1.4782679 -2.2799957 1.1071071e-38
1.3274642 1.4863464 -2.2758353 1.1070717e-38
1.3288277 1.4944246 -2.2716749 1.1255815e-38
1.3301913 1.5025029 -2.2675145 1.1255821e-38
1.332281 1.5105232 -2.2629855 1.1162547e-38
1.3350284 1.5268005 -2.2546022 1.116255e-38
1.3364022 1.5349392 -2.2504103 1.1345862e-38
1.3377761 1.5430779 -2.2462189 1.1622802e-38
1.3391498 1.5512168 -2.2420273 1.1346937e-38
1.3405237 1.5593555 -2.2378356 1.1255467e-38
1.3418972 1.5674942 -2.233644 1.1162919e-38
1.3440787 1.5760578 -2.2288349 1.1530257e-38
1.3454627 1.5842571 -2.2246122 1.1438064e-38
1.3476747 1.593002 -2.2197101 1.1530259e-38
1.3482307 1.6006554 -2.2161667 1.1346231e-38
1.3504629 1.609521 -2.2112024 1.1344789e-38
1.3518571 1.6177806 -2.2069485 1.1253668e-38
1.3532512 1.62604 -2.2026947 1.097852e-38
1.3546454 1.6342996 -2.1984408 1.1162553e-38
1.3560396 1.6425593 -2.1941869 1.0794492e-38
1.3574337 1.6508188 -2.1899331 1.1161114e-38
1.3588278 1.6590784 -2.1856794 1.1071071e-38
1.3611901 1.6684844 -2.1804154 1.1253663e-38
1.3625951 1.6768078 -2.1761289 1.0978155e-38
1.3639998 1.6851307 -2.1718421 1.107e-38
1.3654048 1.693454 -2.1675556 1.0978523e-38
1.3668098 1.7017771 -2.163269 1.0977802e-38
1.3682146 1.7101002 -2.1589823 1.0978523e-38
1.3696194 1.7184232 -2.1546957 1.0794492e-38
1.3710244 1.7267464 -2.1504092 1.0794492e-38
1.3724291 1.7350694 -2.1461227 1.0884887e-38
1.3738341 1.7433926 -2.1418359 1.0978523e-38
1.3891138 1.8290967 -2.0972564 4.7977503e-39
1.3892881 1.8349473 -2.0946836 4.3392903e-39
1.3906927 1.8432703 -2.0903969 4.062353e-39
1.2988156 1.3685467 -2.3412511 1.1346213e-38
1.3015224 1.3845825 -2.3329923 1.1438762e-38
1.3088456 1.4239662 -2.3123431 1.1346218e-38
1.3102092 1.4320446 -2.3081825 1.1438411e-38
1.3115727 1.4401227 -2.3040221 1.1530607e-38
1.3142998 1.4562795 -2.2957008 1.1346218e-38
1.3156635 1.464358 -2.2915404 1.1255821e-38
1.3176442 1.4720926 -2.2871909 1.171572e-38
1.3183906 1.4805144 -2.2832193 1.1622808e-38
1.3197539 1.4885929 -2.2790589 1.1530612e-38
1.3211176 1.4966712 -2.2748983 1.143878e-38
1.3224813 1.5047495 -2.2707379 1.1438058e-38
1.324513 1.5127863 -2.2662327 1.1163272e-38
1.325887 1.520925 -2.2620413 1.134766e-38
1.3279493 1.5291432 -2.257443 1.143878e-38
1.3286344 1.5372026 -2.2536581 1.1530257e-38
1.330008 1.5453411 -2.2494662 1.1530257e-38
1.3313817 1.5534799 -2.2452748 1.1255465e-38
1.3327558 1.5616187 -2.2410834 1.1346934e-38
1.3348691 1.5701387 -2.2363293 1.1348013e-38
1.3362532 1.5783381 -2.2321069 1.1439133e-38
1.3376372 1.5865372 -2.2278841 1.1438061e-38
1.3397913 1.5952989 -2.2230058 1.0701941e-38
1.3411856 1.6035584 -2.2187519 1.0978523e-38
1.3425797 1.6118181 -2.214498 1.1345865e-38
1.3439738 1.6200773 -2.2102442 1.1252593e-38
1.3453681 1.628337 -2.2059906 1.1253312e-38
1.3467622 1.6365966 -2.2017367 1.107e-38
1.3481563 1.6448561 -2.1974826 1.1071073e-38
1.3495506 1.6531157 -2.1932292 1.0978155e-38
1.3518416 1.6624761 -2.1880233 1.1163619e-38
1.3532463 1.6707991 -2.1837368 1.1346218e-38
1.3546512 1.6791223 -2.17945 1.107035e-38
1.3560561 1.6874455 -2.1751635 1.1255465e-38
1.357461 1.6957686 -2.170877 1.1162919e-38
1.3588659 1.7040918 -2.1665902 1.1253312e-38
1.3602709 1.7124147 -2.1623037 1.1438064e-38
1.3616757 1.7207379 -2.1580169 1.0978167e-38
1.3630805 1.7290609 -2.1537304 1.0794136e-38
1.3811061 1.8314297 -2.1006041 4.7981034e-39
1.381344 1.8372617 -2.0980048 4.6130003e-39
1.3827488 1.8455849 -2.0937183 4.5208032e-39
1.3830101 1.8513447 -2.0911367 3.5091793e-39
1.3844043 1.8596041 -2.0868828 3.7832382e-39
1.2898098 1.3627585 -2.3485799 1.116182e-38
1.3011351 1.4262128 -2.3155663 1.1438411e-38
1.3024987 1.434291 -2.3114059 1.143913e-38
1.3065896 1.4585263 -2.2989244 1.1346937e-38
1.307953 1.4666044 -2.294764 1.1530612e-38
1.3093166 1.4746827 -2.2906034 1.1530612e-38
1.31068 1.4827609 -2.2864428 1.1070723e-38
1.3126239 1.4906334 -2.2820556 1.1437708e-38
1.3134073 1.4989177 -2.2781217 1.1438061e-38
1.3167452 1.5150497 -2.2694805 1.1255465e-38
1.3181189 1.5231886 -2.2652888 1.143913e-38
1.3201239 1.5314233 -2.260715 1.1438064e-38
1.3208665 1.5394658 -2.2569058 1.1622808e-38
1.3228917 1.5478216 -2.2522695 1.1438064e-38
1.3242757 1.5560206 -2.2480466 1.1622455e-38
1.3256596 1.5642198 -2.243824 1.1806486e-38
1.3270435 1.5724189 -2.2396011 1.134766e-38
1.3291199 1.5810766 -2.2348094 1.134766e-38
1.3305141 1.5893362 -2.2305553 1.1163272e-38
1.3319081 1.5975958 -2.2263017 1.1255467e-38
1.3333023 1.6058552 -2.2220478 1.1255465e-38
1.3346964 1.6141148 -2.2177939 1.116255e-38
1.3360907 1.6223744 -2.2135401 1.1253668e-38
1.337485 1.6306338 -2.2092862 1.1253668e-38
1.338879 1.6388934 -2.2050326 1.1071427e-38
1.3410876 1.6481442 -2.1999176 1.1070717e-38
1.3424926 1.6564676 -2.195631 1.1163269e-38
1.3438975 1.6647905 -2.1913443 1.1071071e-38
1.3453023 1.6731137 -2.1870577 1.1253663e-38
1.3467072 1.6814369 -2.1827712 1.097852e-38
1.3481122 1.68976 -2.1784847 1.1253312e-38
1.3495172 1.6980833 -2.1741982 1.1253668e-38
1.3509219 1.7064064 -2.1699114 1.0978167e-38
1.3523269 1.7147294 -2.1656249 1.1253312e-38
1.3537318 1.7230526 -2.1613383 1.1345509e-38
1.3551366 1.7313755 -2.1570518 1.0978523e-38
1.3575209 1.7414742 -2.1514828 1.0702659e-38
1.3719951 1.8312532 -2.1056125 5.0743302e-39
1.293425 1.4284592 -2.3187902 1.107035e-38
1.2947886 1.4365374 -2.3146296 1.1440209e-38
1.2961521 1.4446157 -2.3104689 1.1346937e-38
1.2975159 1.4526943 -2.3063085 1.1440209e-38
1.2988791 1.4607726 -2.3021479 1.1255467e-38
1.3007348 1.4684807 -2.2978778 1.1438064e-38
1.3021085 1.4766194 -2.2936864 1.1622808e-38
1.3034824 1.484758 -2.2894948 1.1899035e-38
1.3048561 1.4928968 -2.2853029 1.1622808e-38
1.3062298 1.5010357 -2.2811117 1.1531326e-38
1.3076035 1.5091741 -2.2769198 1.1622808e-38
1.3089774 1.5173129 -2.2727282 1.1622808e-38
1.3109145 1.5255042 -2.2682092 1.1530612e-38
1.3122985 1.5337034 -2.2639866 1.1622808e-38
1.3136823 1.5419024 -2.259764 1.1806836e-38
1.3150665 1.5501016 -2.2555411 1.1348013e-38
1.3164502 1.5583007 -2.2513182 1.1530963e-38
1.3178343 1.5664998 -2.2470956 1.1531329e-38
1.3198426 1.5751139 -2.2423589 1.1256184e-38
1.3212366 1.5833735 -2.2381053 1.134766e-38
1.3226308 1.5916331 -2.2338514 1.1255112e-38
1.3240249 1.5998927 -2.2295973 1.1437708e-38
1.3254193 1.6081522 -2.2253437 1.1346228e-38
1.3268133 1.6164118 -2.2210898 1.1345862e-38
1.3282075 1.6246712 -2.216836 1.1253312e-38
1.3296015 1.6329306 -2.2125819 1.1253312e-38
1.3317388 1.642136 -2.2075253 1.1346584e-38
1.3331438 1.6504589 -2.2032387 1.1345509e-38
1.3345485 1.6587821 -2.1989522 1.116255e-38
1.3359535 1.6671052 -2.1946654 1.1346218e-38
1.3373585 1.6754283 -2.1903789 1.1346216e-38
1.3387632 1.6837515 -2.1860921 1.1071073e-38
1.3401684 1.6920747 -2.1818058 1.1253312e-38
1.3415731 1.7003977 -2.1775193 1.1345509e-38
1.3429781 1.708721 -2.1732326 1.1162916e-38
1.3452647 1.7186375 -2.1677935 1.1070723e-38
1.3457878 1.7253671 -2.1646597 1.1438061e-38
1.3471926 1.7336901 -2.160373 1.0978167e-38
1.3495133 1.7438072 -2.1548305 1.0794136e-38
1.3622587 1.8193161 -2.115942 1.0149082e-38
1.363675 1.8277063 -2.1116207 4.3392903e-39
1.3640513 1.8335677 -2.1089337 4.7080714e-39
1.3668612 1.8502141 -2.1003609 4.3389399e-39
1.368266 1.8585372 -2.0960741 4.062353e-39
1.2788968 1.390314 -2.3428161 1.1346218e-38
1.2843511 1.4226273 -2.326174 1.1989783e-38
1.2857147 1.4307057 -2.3220134 1.1531326e-38
1.2870781 1.4387841 -2.317853 1.1806839e-38
1.2884418 1.4468623 -2.3136926 1.1806839e-38
1.2898054 1.4549407 -2.3095319 1.1808641e-38
1.2929668 1.4707438 -2.3011255 1.1990512e-38
1.2943406 1.4788827 -2.2969339 1.1531326e-38
1.2961692 1.4867887 -2.2925947 1.1713569e-38
1.2975529 1.4949877 -2.2883718 1.1530257e-38
1.2989371 1.5031868 -2.2841492 1.1622452e-38
1.2998357 1.5114375 -2.2801676 1.1898316e-38
1.3012094 1.5195762 -2.2759757 1.1622802e-38
1.3025833 1.5277151 -2.2717841 1.1531326e-38
1.3044728 1.5359834 -2.2672584 1.1439856e-38
1.3058567 1.5441825 -2.2630358 1.189759e-38
1.3077768 1.5526322 -2.2584162 1.1624246e-38
1.309171 1.5608917 -2.2541623 1.1806839e-38
1.310565 1.5691512 -2.2499087 1.1624246e-38
1.3133537 1.5856707 -2.2414012 1.1716076e-38
1.3147477 1.5939301 -2.2371471 1.1806839e-38
1.316142 1.6021897 -2.2328935 1.1531326e-38
1.317536 1.6104491 -2.2286394 1.1438777e-38
1.3189301 1.6187085 -2.2243857 1.1346581e-38
1.3209854 1.6278042 -2.2194197 1.1253668e-38
1.3223902 1.6361272 -2.215133 1.1163272e-38
1.3237951 1.6444504 -2.2108464 1.1345509e-38
1.3252 1.6527734 -2.2065597 1.162101e-38
1.326605 1.6610967 -2.2022731 1.1346231e-38
1.3280097 1.6694198 -2.1979866 1.152918e-38
1.3294146 1.6777427 -2.1937003 1.1071073e-38
1.3308195 1.6860659 -2.1894135 1.0979957e-38
1.3322245 1.694389 -2.1851268 1.1071073e-38
1.3344249 1.7041909 -2.1797833 1.107072e-38
1.3358409 1.7125809 -2.1754622 1.1163272e-38
1.3372571 1.7209707 -2.1711414 1.1163269e-38
1.3386732 1.7293607 -2.1668203 1.1163269e-38
1.3400894 1.7377505 -2.1624992 1.1071073e-38
1.3561075 1.8358823 -2.1122549 4.6158757e-39
1.3575125 1.8442055 -2.1079683 4.5233214e-39
1.3589172 1.8525286 -2.1036816 4.2470946e-39
1.3603222 1.8608518 -2.099395 4.062353e-39
1.3617271 1.8691748 -2.0951085 3.877952e-39
1.363132 1.8774979 -2.090822 4.0598349e-39
1.3645369 1.8858212 -2.0865355 3.5070114e-39
1.2698231 1.3844823 -2.3501999 1.1530607e-38
1.2752774 1.4167955 -2.3335578 1.1438777e-38
1.2766409 1.4248738 -2.3293974 1.1530607e-38
1.2780044 1.4329523 -2.3252368 1.1623877e-38
1.2838252 1.4648684 -2.3085647 1.1530607e-38
1.2851987 1.4730071 -2.304373 1.1623158e-38
1.2883435 1.4890686 -2.2958665 1.1806839e-38
1.2897274 1.4972678 -2.2916436 1.2174544e-38
1.2911115 1.5054671 -2.2874207 1.162424e-38
1.2924954 1.513666 -2.2831981 1.1806839e-38
1.2938793 1.5218654 -2.2789755 1.1622808e-38
1.2952633 1.5300645 -2.2747529 1.1899035e-38
1.2966472 1.5382636 -2.27053 1.1624246e-38
1.2980312 1.5464627 -2.2663074 1.1438064e-38
1.2998937 1.5549291 -2.2617121 1.1624246e-38
1.302682 1.5714482 -2.2532046 1.1623537e-38
1.3040762 1.5797077 -2.2489507 1.1439859e-38
1.3054703 1.5879674 -2.2446966 1.1622808e-38
1.3068645 1.596227 -2.240443 1.1347663e-38
1.3082588 1.6044863 -2.2361891 1.1622802e-38
1.3096527 1.6127459 -2.2319353 1.1438777e-38
1.3130414 1.6301187 -2.2227409 1.153061e-38
1.3144463 1.6384418 -2.2184544 1.143913e-38
1.3158512 1.6467651 -2.2141676 1.1070717e-38
1.3172562 1.6550883 -2.2098811 1.1437708e-38
1.318661 1.6634113 -2.2055943 1.1437708e-38
1.3200659 1.6717342 -2.201308 1.1438061e-38
1.3214707 1.6800573 -2.1970212 1.1348013e-38
1.3228756 1.6883806 -2.1927347 1.1255467e-38
1.3242805 1.6967037 -2.1884482 1.1163272e-38
1.3264172 1.706524 -2.183131 1.1438061e-38
1.3278335 1.7149141 -2.1788101 1.1347663e-38
1.3306658 1.7316936 -2.1701679 1.1438061e-38
1.3476596 1.8323724 -2.1183164 3.877952e-39
1.3490758 1.8407624 -2.1139951 4.2474477e-39
1.3495685 1.8465201 -2.1112895 4.062702e-39
1.3509735 1.8548431 -2.1070027 4.2470946e-39
1.3523784 1.8631662 -2.1027164 3.6939208e-39
1.2607491 1.3786504 -2.3575842 1.1989786e-38
1.2621127 1.3867286 -2.3534236 1.1622802e-38
1.2634764 1.3948071 -2.3492632 1.1531326e-38
1.2648399 1.4028854 -2.3451025 1.1531682e-38
1.2662035 1.4109639 -2.3409419 1.1899388e-38
1.2760574 1.4671317 -2.3118122 1.1807192e-38
1.2777501 1.4749504 -2.3075836 1.1808273e-38
1.2864339 1.5241878 -2.2820232 1.1806839e-38
1.2878281 1.5324476 -2.2777696 1.1622452e-38
1.2892222 1.5407069 -2.2735157 1.162389e-38
1.2906164 1.5489665 -2.2692621 1.1439856e-38
1.2920105 1.5572261 -2.2650082 1.1990512e-38
1.2934048 1.5654855 -2.2607543 1.2083427e-38
1.2947987 1.573745 -2.2565002 1.1440578e-38
1.2961931 1.5820047 -2.2522464 1.1808638e-38
1.2975872 1.5902643 -2.2479928 1.1715723e-38
1.2989813 1.5985237 -2.2437389 1.1531331e-38
1.3003756 1.6067834 -2.2394848 1.1805767e-38
1.3022878 1.615787 -2.2346354 1.1530257e-38
1.3050975 1.6324332 -2.2260621 1.1345865e-38
1.3065023 1.6407564 -2.2217755 1.1438064e-38
1.3079072 1.6490796 -2.2174888 1.1531331e-38
1.3093123 1.6574028 -2.2132022 1.1622808e-38
1.3107171 1.6657259 -2.2089159 1.1622455e-38
1.3121221 1.6740489 -2.2046292 1.1530257e-38
1.313527 1.682372 -2.2003424 1.1530612e-38
1.3149318 1.690695 -2.1960559 1.143878e-38
1.3169936 1.7004671 -2.1907997 1.1255465e-38
1.3396519 1.8347055 -2.1216645 4.705549e-39
1.3410683 1.8430954 -2.1173432 4.8899459e-39
1.3416247 1.8488348 -2.1146107 4.0630551e-39
1.3430294 1.8571576 -2.1103241 4.5208032e-39
1.3444344 1.8654808 -2.1060374 3.6939208e-39
1.2475847 1.3485836 -2.3774498 1.1989064e-38
1.2671566 1.4608322 -2.3193007 1.2358219e-38
1.2685406 1.4690315 -2.315078 1.2174547e-38
1.2873194 1.5764859 -2.2593892 1.1624246e-38
1.2887244 1.5848092 -2.2551029 1.171609e-38
1.2901292 1.5931323 -2.2508161 1.1622455e-38
1.2915342 1.6014555 -2.2465296 1.1439859e-38
1.2990727 1.6440711 -2.2243946 1.1530259e-38
1.3004889 1.6524613 -2.2200735 1.1530259e-38
1.3019052 1.660851 -2.2157526 1.1530259e-38
1.3033211 1.6692408 -2.2114315 1.1622455e-38
1.3047374 1.6776308 -2.2071106 1.1530257e-38
1.335893 1.8622085 -2.1120491 4.3389399e-39
1.3393002 1.8844416 -2.1007855 3.8776016e-39
1.3407052 1.8927648 -2.096499 4.4286076e-39
1.2371472 1.3346733 -2.3889942 1.1990136e-38
1.2385108 1.3427517 -2.3848338 1.1623158e-38
1.2412379 1.3589083 -2.3765125 1.1530963e-38
1.2426015 1.3669866 -2.3723521 1.1989786e-38
1.2509052 1.4146872 -2.3476491 1.1898319e-38
1.2536527 1.4309646 -2.3392658 1.1899035e-38
1.2550265 1.4391032 -2.3350739 1.153061e-38
1.2564002 1.447242 -2.3308823 1.1808273e-38
1.259331 1.4631124 -2.3225725 1.1898319e-38
1.289649 1.6380143 -2.2320633 1.1623527e-38
1.2910652 1.6464043 -2.2277422 1.1622452e-38
1.2924813 1.6547942 -2.2234213 1.1255112e-38
1.2938975 1.663184 -2.2191005 1.1255112e-38
1.2953137 1.671574 -2.2147791 1.1622452e-38
1.3271664 1.8587116 -2.1182559 4.5211564e-39
1.3278853 1.8645415 -2.1153972 3.877952e-39
1.3293015 1.8729314 -2.1110761 4.4286076e-39
1.3313563 1.8867562 -2.1041069 4.61265e-39
1.2267101 1.3207632 -2.4005389 1.1530607e-38
1.2280736 1.3288414 -2.3963783 1.1530963e-38
1.2294372 1.3369199 -2.3922176 1.1989786e-38
1.2308009 1.3449982 -2.3880572 1.1807192e-38
1.2321644 1.3530766 -2.3838968 1.1530612e-38
1.2376423 1.3843956 -2.3676629 1.1991585e-38
1.2431372 1.4169505 -2.3508964 1.1716076e-38
1.2487376 1.4489942 -2.3342898 1.2174544e-38
1.2501215 1.4571934 -2.3300669 1.2174547e-38
1.2572078 1.4980403 -2.3089263 1.1900834e-38
1.2586019 1.5062999 -2.3046722 1.1808638e-38
1.267217 1.5561457 -2.2788916 1.1899038e-38
1.2788092 1.6235678 -2.2440534 1.1806839e-38
1.2802252 1.6319575 -2.2397323 1.1898319e-38
1.2844738 1.6571275 -2.2267692 1.1897963e-38
1.2858897 1.6655173 -2.2224481 1.1439856e-38
1.3190981 1.8610623 -2.1216292 4.6130003e-39
1.3198776 1.8668746 -2.1187449 4.4286076e-39
1.3241261 1.8920442 -2.1057818 4.7977503e-39
1.3255422 1.9004341 -2.1014609 4.062353e-39
1.238144 1.434876 -2.3460069 1.2084855e-38
1.2395279 1.4430752 -2.341784 1.190154e-38
1.240912 1.4512742 -2.3375614 1.1808273e-38
1.2507185 1.5085968 -2.3079681 1.208343e-38
1.2693853 1.6175112 -2.2517221 1.1991235e-38
1.2708015 1.6259009 -2.247401 1.1622455e-38
1.2722176 1.6342909 -2.2430801 1.1897966e-38
1.2750499 1.6510706 -2.2344379 1.1530259e-38
1.2764663 1.6594605 -2.2301171 1.1897963e-38
1.2778822 1.6678505 -2.2257962 1.171609e-38
1.2853458 1.7112507 -2.2033694 1.1439862e-38
1.2867728 1.719704 -2.1990156 1.1899038e-38
1.3110298 1.8634132 -2.1250024 4.7973999e-39
1.3118701 1.8692079 -2.1220927 4.61265e-39
1.3132862 1.8775976 -2.1177716 4.5208032e-39
1.3147024 1.8859875 -2.113451 3.9705063e-39
1.3161185 1.8943774 -2.1091297 4.062353e-39
1.3175346 1.9027673 -2.1048086 4.062353e-39
1.3189509 1.9111574 -2.1004879 3.6017252e-39
1.2085625 1.3090996 -2.4153068 1.1530963e-38
1.2207327 1.3807833 -2.37835 1.1991585e-38
1.2400471 1.4943746 -2.3197718 1.2452209e-38
1.2428353 1.5108937 -2.3112638 1.2175626e-38
1.2442296 1.5191534 -2.3070099 1.1808285e-38
1.2456237 1.5274128 -2.3027563 1.2083433e-38
1.2527341 1.5690978 -2.2812474 1.2083433e-38
1.2585453 1.6030644 -2.2637117 1.1990514e-38
1.2599615 1.6114542 -2.2593906 1.208343e-38
1.2613777 1.6198442 -2.2550697 1.2083427e-38
1.262794 1.6282341 -2.2507489 1.1716076e-38
1.26421 1.6366239 -2.2464278 1.1899035e-38
1.2656262 1.6450138 -2.2421069 1.2266743e-38
1.2744238 1.6966945 -2.21545 1.162389e-38
1.2758507 1.705148 -2.2110963 1.1622452e-38
1.2772775 1.7136014 -2.2067423 1.1990879e-38
1.3006263 1.8514669 -2.1356966 4.6158701e-39
1.3015345 1.8573104 -2.1327293 4.7977503e-39
1.3029615 1.865764 -2.1283755 4.2470946e-39
1.3038623 1.8715409 -2.1254404 4.6130003e-39
1.3052787 1.8799309 -2.1211197 4.6130003e-39
1.3066946 1.8883206 -2.1167986 3.9697973e-39
1.3081111 1.8967106 -2.1124775 4.5208032e-39
1.309527 1.9051003 -2.1081564 4.154899e-39
1.3109432 1.9134903 -2.1038356 3.8776016e-39
1.219725 1.423038 -2.3609958 1.2451843e-38
1.232164 1.4966714 -2.3230674 1.2268177e-38
1.2335582 1.5049311 -2.3188136 1.245149e-38
1.2447902 1.5714123 -2.2845683 1.19916e-38
1.2491217 1.5970076 -2.2713807 1.2175273e-38
1.2505378 1.6053976 -2.2670596 1.1990882e-38
1.25337 1.6221774 -2.2584174 1.2452209e-38
1.2620748 1.6736848 -2.2318842 1.1807569e-38
1.2649286 1.6905918 -2.223177 1.1899038e-38
1.2934663 1.8596612 -2.1361024 4.7977503e-39
1.2948934 1.8681149 -2.1317487 4.154899e-39
1.2977471 1.8850218 -2.1230412 4.5208032e-39
1.2986872 1.8906538 -2.1201465 3.9705063e-39
1.3001033 1.8990438 -2.1158254 4.6130003e-39
1.3029356 1.9158235 -2.1071835 4.062702e-39
1.3043517 1.9242134 -2.1028626 3.9697973e-39
1.2024493 1.3690325 -2.3932283 1.2173105e-38
1.21731 1.4576707 -2.3476324 1.2268177e-38
1.228417 1.5237883 -2.3136094 1.1993398e-38
1.229822 1.5321115 -2.3093226 1.2358938e-38
1.2312267 1.5404347 -2.3050358 1.2544407e-38
1.2326316 1.5487578 -2.3007493 1.2361092e-38
1.2525797 1.6675823 -2.2396111 1.171609e-38
1.2843623 1.8562059 -2.1424963 5.2583697e-39
1.2872385 1.8732463 -2.1337202 3.9705063e-39
1.288252 1.8789191 -2.1307683 4.062702e-39
1.2892634 1.8845971 -2.1278152 4.062702e-39
1.2906795 1.8929869 -2.1234944 4.5208032e-39
1.2920957 1.9013768 -2.1191733 4.4286076e-39
1.3039478 1.9719074 -2.0828774 3.9784545e-39
1.2176634 1.5094565 -2.3255036 1.2358938e-38
1.2190684 1.5177798 -2.3212173 1.2451853e-38
1.2359388 1.6184537 -2.2694342 1.208343e-38
1.2776684 1.8670954 -2.1415081 4.890299e-39
1.2816105 1.8897234 -2.1297879 4.062702e-39
1.2830372 1.8981766 -2.1254339 4.5204543e-39
1.2915987 1.9488976 -2.0993116 3.8776016e-39
1.2944524 1.9658046 -2.0906043 3.4173326e-39
1.184166 1.3572816 -2.408107 1.2266743e-38
1.1920966 1.4052808 -2.3834789 1.2359294e-38
1.2194341 1.5704476 -2.2987077 1.2453292e-38
1.2208505 1.5788374 -2.2943869 1.2544407e-38
1.2250988 1.604007 -2.281424 1.2360742e-38
1.2335893 1.6553769 -2.255065 1.1993751e-38
1.2695364 1.8694649 -2.144908 5.2587228e-39
1.2735422 1.8920741 -2.1331611 4.6133534e-39
1.2835305 1.9512485 -2.102685 4.1523809e-39
1.2085943 1.5560009 -2.3106976 1.2452939e-38
1.2100104 1.5643908 -2.3063765 1.263732e-38
1.2114266 1.5727806 -2.3020558 1.2361459e-38
1.2128426 1.5811706 -2.2977347 1.2912112e-38
1.214259 1.5895605 -2.2934141 1.2453292e-38
1.2170912 1.6063402 -2.2847717 1.2544054e-38
1.2183865 1.6154603 -2.2802069 1.2267824e-38
1.2212403 1.6323674 -2.2714996 1.2178147e-38
1.2614045 1.8718342 -2.1483078 4.6158701e-39
1.2657189 1.8973949 -2.1351433 5.0736267e-39
1.2754622 1.9535993 -2.1060581 4.0598349e-39
1.159014 1.3048371 -2.4439435 1.2358926e-38
1.2005867 1.5583341 -2.3140454 1.2360739e-38
1.2034191 1.5751138 -2.3054037 1.2912115e-38
1.2048351 1.5835036 -2.3010826 1.2636604e-38
1.2088913 1.6093577 -2.2879341 1.2544407e-38
1.2602594 1.9136828 -2.1312001 4.062353e-39
1.1603162 1.3629262 -2.4186306 1.2635155e-38
1.1911628 1.5522773 -2.3217144 1.2728803e-38
1.1925792 1.5606673 -2.3173935 1.2821714e-38
1.1939952 1.569057 -2.3130724 1.27288e-38
1.20225 1.6201619 -2.2869534 1.226854e-38
1.2149391 1.6976482 -2.2472577 1.2544051e-38
1.2423253 1.8622057 -2.1627181 4.7080714e-39
1.2507641 1.90758 -2.138927 4.3389399e-39
1.1524906 1.3652062 -2.4219024 1.2268172e-38
1.1566427 1.3898038 -2.4092343 1.2636601e-38
1.1602516 1.4136351 -2.3971844 1.2636604e-38
1.1681097 1.4627677 -2.3721159 1.2913544e-38
1.1709195 1.479414 -2.3635426 1.2728797e-38
1.1789068 1.5294406 -2.3380251 1.2821351e-38
1.1831553 1.5546104 -2.325062 1.2637676e-38
1.1845715 1.5630004 -2.3207412 1.2913191e-38
1.1859877 1.5713904 -2.3164201 1.2820998e-38
1.1913279 1.605606 -2.2990341 1.2544407e-38
1.2413229 1.9045031 -2.1453431 4.7977503e-39
1.1391292 1.3346899 -2.442065 1.2451121e-38
1.1460491 1.3756857 -2.4209514 1.2912818e-38
1.14958 1.399413 -2.4089878 1.3003945e-38
1.1587611 1.4567591 -2.3797235 1.2913544e-38
1.1601659 1.4650822 -2.375437 1.27288e-38
1.1615707 1.4734054 -2.3711503 1.2728447e-38
1.1680669 1.514994 -2.3500147 1.3097222e-38
1.1694832 1.523384 -2.3456941 1.2913191e-38
1.1751477 1.5569435 -2.3284099 1.2821717e-38
1.1765637 1.5653335 -2.3240888 1.2636967e-38
1.2244842 1.8583947 -2.1739933 5.5356684e-39
1.2302819 1.8927428 -2.1563036 4.6151667e-39
1.2317528 1.8983524 -2.153131 4.1545487e-39
1.1326877 1.3451691 -2.4411139 1.2636954e-38
1.1340717 1.3533683 -2.4368911 1.2451134e-38
1.1354555 1.3615673 -2.4326684 1.2819914e-38
1.141697 1.4017098 -2.4122837 1.3003942e-38
1.1586431 1.5089374 -2.3576837 1.2912838e-38
1.1614754 1.525717 -2.3490417 1.3097578e-38
1.1694838 1.5764936 -2.3231955 1.2639121e-38
1.2162887 1.8607826 -2.1774199 5.7193492e-39
1.2177382 1.8693695 -2.1729975 5.5356684e-39
1.2236207 1.9007217 -2.1565309 4.3392903e-39
1.2250589 1.9092419 -2.1521425 4.2470946e-39
1.1310254 1.3874878 -2.424087 1.2819914e-38
1.1478033 1.4944905 -2.3696735 1.3006461e-38
1.1492195 1.5028806 -2.3653524 1.2913191e-38
1.1506357 1.5112705 -2.3610315 1.2913913e-38
1.1520518 1.5196604 -2.3567107 1.2913913e-38
1.1534679 1.5280502 -2.3523896 1.3189058e-38
1.1548841 1.5364403 -2.3480685 1.3097222e-38
1.1599885 1.5703909 -2.3309224 1.2913191e-38
1.1614153 1.5788444 -2.3265686 1.2821714e-38
1.1709057 1.6389638 -2.2959619 1.27288e-38
1.1737821 1.6560042 -2.2871857 1.263732e-38
1.2080929 1.8631706 -2.1808467 5.903372e-39
1.1115007 1.3169327 -2.4645483 1.2635881e-38
1.1203537 1.3732653 -2.4358907 1.2820269e-38
1.1383795 1.488434 -2.377342 1.3466362e-38
1.1397958 1.4968239 -2.3730214 1.3374166e-38
1.1412119 1.5052137 -2.3687003 1.3557481e-38
1.1476395 1.5473813 -2.3473566 1.3282336e-38
1.1490666 1.5558349 -2.343003 1.3006111e-38
1.1519201 1.5727417 -2.3342953 1.3281973e-38
1.1533471 1.5811952 -2.3299417 1.2821361e-38
1.2013465 1.8741454 -2.1798503 5.4434728e-39
1.2042456 1.8913196 -2.1710055 4.6158757e-39
1.2056949 1.8999066 -2.1665831 4.6158757e-39
1.2102329 1.9225007 -2.1545541 4.7977503e-39
1.2116711 1.9310211 -2.150166 4.3389399e-39
1.1096824 1.3590432 -2.4476941 1.2913547e-38
1.1110767 1.3673029 -2.4434404 1.3096856e-38
1.1199611 1.4244019 -2.4144411 1.2820998e-38
1.1289557 1.4823771 -2.385011 1.3097222e-38
1.1303719 1.4907671 -2.3806901 1.3098661e-38
1.1317879 1.499157 -2.376369 1.3189423e-38
1.1332045 1.507547 -2.3720481 1.3280897e-38
1.1395712 1.5497321 -2.3507297 1.364968e-38
1.1409981 1.5581857 -2.3463759 1.3282692e-38
1.1424252 1.5666392 -2.3420224 1.3098661e-38
1.1627128 1.6962065 -2.2761493 1.2820995e-38
1.1898919 1.8621368 -2.1911404 4.8928172e-39
1.1913531 1.8707938 -2.1866817 5.7193464e-39
1.1960497 1.8937076 -2.174432 4.6158757e-39
1.1017994 1.3613402 -2.4509902 1.2913894e-38
1.1204464 1.4766549 -2.3920429 1.3281253e-38
1.1209481 1.4847103 -2.3883588 1.3281973e-38
1.1223645 1.4931002 -2.384038 1.3374891e-38
1.1237804 1.50149 -2.3797169 1.3281618e-38
1.1272223 1.5267227 -2.3671644 1.3374166e-38
1.1300761 1.5436295 -2.3584566 1.3281618e-38
1.13293 1.5605365 -2.3497496 1.3282336e-38
1.1516184 1.6814204 -2.2884207 1.2912838e-38
1.1530678 1.6900074 -2.2839983 1.2821717e-38
1.0911278 1.347118 -2.4627936 1.2913897e-38
1.1012635 1.4123846 -2.4296565 1.3189776e-38
1.1115246 1.4786537 -2.3960278 1.3189421e-38
1.1129405 1.4870435 -2.3917067 1.3281973e-38
1.1143568 1.4954333 -2.3873858 1.3282336e-38
1.117727 1.5206199 -2.374891 1.3374888e-38
1.1220077 1.5459803 -2.3618298 1.3098305e-38
1.1234347 1.5544338 -2.3574762 1.3374172e-38
1.1248615 1.5628872 -2.3531225 1.3374172e-38
1.1268724 1.5802794 -2.344666 1.3098305e-38
1.1283107 1.5887996 -2.3402781 1.3188702e-38
1.1434226 1.6838084 -2.2918472 1.3097222e-38
1.1448721 1.6923953 -2.2874248 1.2913547e-38
1.1733669 1.8669517 -2.1980493 5.9040782e-39
1.1782088 1.8898965 -2.1857076 4.892464e-39
1.185456 1.9328313 -2.163595 4.3392903e-39
1.1956019 1.9929404 -2.1326375 3.9697973e-39
1.104933 1.4893765 -2.3950546 1.3466368e-38
1.1068051 1.5060639 -2.3869717 1.3466368e-38
1.1082319 1.5145173 -2.3826182 1.3374891e-38
1.1096588 1.5229708 -2.3782644 1.3558563e-38
1.1125127 1.5398777 -2.3695569 1.3466365e-38
1.1139396 1.5483313 -2.3652031 1.3467086e-38
1.1153663 1.5567846 -2.3608494 1.3559635e-38
1.1187403 1.5826488 -2.3480659 1.3558563e-38
1.1201785 1.5911688 -2.3436775 1.3281618e-38
1.1216168 1.5996894 -2.3392899 1.3374172e-38
1.1279798 1.6432616 -2.3173862 1.3189776e-38
1.170013 1.8922844 -2.1891339 4.8006215e-39
1.0853757 1.4170138 -2.4362991 1.3466718e-38
1.0867807 1.425337 -2.4320126 1.3374169e-38
1.0926768 1.4665401 -2.4113653 1.3649677e-38
