# .PCD v0.7 - Point Cloud Data file format
VERSION 0.7
FIELDS x y z rgb
SIZE 4 4 4 4
TYPE F F F F
COUNT 1 1 1 1
WIDTH 733
HEIGHT 1
VIEWPOINT 0 0 0 1 0 0 0
POINTS 733
DATA ascii
-2.5272439 1.0715747 0.60159796 8.7578351e-39
-2.5156603 1.0661957 0.62028587 9.86777e-39
-2.539808 1.0611509 0.63177562 9.8659511e-39
-2.5058892 1.0636857 0.62975943 1.0882983e-38
-2.5397258 1.0580579 0.64138728 9.866663e-39
-2.5044961 1.0608337 0.63884938 1.0791142e-38
-2.4833033 1.0626978 0.63671982 1.1157777e-38
-2.4658411 1.0642054 0.63505304 9.7712304e-39
-2.5030782 1.0579846 0.64793432 1.0698953e-38
-2.4742723 1.0606138 0.64474374 1.1619481e-38
-2.4565086 1.0621699 0.64297879 9.0379827e-39
-2.434238 1.0633866 0.64304364 1.1335683e-38
-2.51531 1.0539271 0.65841526 1.0144339e-38
-2.417841 1.0619274 0.65039921 1.0691376e-38
-2.5184686 1.0526748 0.66175658 9.775196e-39
-2.5019124 1.0521511 0.66623652 8.3948036e-39
-2.4354057 1.0578506 0.66002029 8.1156817e-39
-2.3735406 1.0624864 0.65630388 0
-2.5379417 1.0477669 0.6736272 9.3145808e-39
-2.5066361 1.0486599 0.67625463 1.0420921e-38
-2.4847143 1.0510299 0.67268121 8.1178649e-39
-2.5311964 1.0454156 0.68208611 9.590809e-39
-2.5097189 1.0461407 0.68354034 7.2895336e-39
-2.3520291 1.0577227 0.67479509 2.9488224e-39
-2.5780001 1.0377769 0.69771737 8.393356e-39
-2.5416276 1.0405256 0.69546109 9.499691e-39
-2.5209334 1.0429589 0.69147921 9.6833718e-39
-2.5595529 1.0366647 0.70434994 8.5773899e-39
-2.5421805 1.0380005 0.703201 9.3138648e-39
-2.5208299 1.0398875 0.7010271 9.4067947e-39
-2.4970505 1.0420161 0.69852316 9.9599572e-39
-2.3606274 1.0521834 0.6905005 3.7756936e-39
-2.3347707 1.0539709 0.68941271 2.756518e-39
-2.5818205 1.0314842 0.71658444 8.3915595e-39
-2.5693681 1.0324109 0.71585661 8.7610497e-39
-2.5420198 1.0349134 0.71280754 9.2220321e-39
-2.520716 1.0368164 0.71057659 9.6830088e-39
-2.4969361 1.0389701 0.70799422 1.0052149e-38
-2.4698229 1.0406092 0.70758367 7.6572567e-39
-2.4157994 1.0443896 0.7051698 9.8666826e-39
-2.5957122 1.0268812 0.72847188 8.2997269e-39
-2.5646839 1.029866 0.72456133 6.3643529e-39
-2.5080934 1.0347189 0.71926183 9.8681274e-39
-2.4374557 1.0394218 0.71684998 9.4078709e-39
-2.5854144 1.024886 0.73643845 8.3000856e-39
-2.5665648 1.0267349 0.73395205 6.3643529e-39
-2.5443032 1.0284684 0.73241234 9.1298392e-39
-2.5204554 1.0306741 0.72968072 9.7755618e-39
-2.5838335 1.0219629 0.74578184 8.4848328e-39
-2.544157 1.025372 0.74204534 9.1309168e-39
-2.520309 1.027603 0.73923516 9.5911789e-39
-2.4965284 1.0298328 0.73641711 9.9606761e-39
-2.3523669 1.0410305 0.72653139 3.5920072e-39
-2.5651827 1.0203111 0.75412315 8.8532468e-39
-2.5339825 1.0231333 0.75074637 9.4067863e-39
-2.4981618 1.0263438 0.74696159 9.8684819e-39
-2.3855367 1.0358491 0.73688906 5.6303948e-39
-2.3708017 1.0365561 0.73723614 4.5233368e-39
-2.6194983 1.0133377 0.76639473 8.023856e-39
-2.5923023 1.0138878 0.76937765 8.4848342e-39
-2.5668516 1.0167298 0.76494777 8.9458053e-39
-2.5338423 1.0200443 0.76035547 9.4067849e-39
-2.4980431 1.0232874 0.75646567 9.8691993e-39
-2.408433 1.0310756 0.74775249 6.4579919e-39
-2.3502619 1.0354744 0.7441346 3.2199877e-39
-2.7658093 0.9980095 0.78872627 5.3476744e-39
-2.6195903 1.0102838 0.77585483 7.9316618e-39
-2.5791724 1.0125954 0.77565187 8.3929861e-39
-2.5580766 1.0145897 0.77310187 8.9458067e-39
-2.5098724 1.0192634 0.76691234 1.0052509e-38
-2.4807608 1.0224031 0.76218975 7.2884742e-39
-2.4102147 1.0281103 0.75664657 6.3657962e-39
-2.3768003 1.0299354 0.75674552 2.8594882e-39
-2.7641275 0.99506825 0.79814273 5.2576354e-39
-2.617888 1.0073323 0.78530675 8.0234959e-39
-2.5928917 1.0099163 0.78159922 8.3000828e-39
-2.6334436 1.003294 0.79515481 8.1160446e-39
-2.5984392 1.0061271 0.79240024 8.2082445e-39
-2.7206156 0.99320167 0.8114382 5.9962794e-39
-2.6242223 1.0002755 0.80611134 8.2086004e-39
-2.3938978 1.0214057 0.78026426 4.8914075e-39
-2.3898735 1.0214788 0.78073156 1.1985278e-39
-2.6224995 0.99731386 0.81559807 8.1160517e-39
-2.5816131 1.0016875 0.80907774 5.8118952e-39
-2.3961473 1.018188 0.78986061 3.8743815e-39
-2.3896823 1.0185374 0.78989118 1.5647908e-39
-2.621284 0.9946084 0.82420254 7.5625149e-39
-2.3822885 1.0164764 0.79756129 3.315049e-39
-2.6367075 0.98950529 0.83737731 7.6532784e-39
-2.5853417 0.99501318 0.82914472 8.024219e-39
-2.6363623 0.98764974 0.84319448 3.6935705e-39
-2.5851235 0.99187571 0.83891755 8.3000828e-39
-2.3818963 1.0106056 0.81584591 4.1426727e-39
-2.7514758 0.97420567 0.86505973 6.3654207e-39
-2.6471093 0.98429084 0.8517639 6.7327571e-39
-2.638274 0.98446822 0.85273689 4.5208032e-39
-2.4071407 1.0065596 0.82404673 2.035138e-39
-2.6538203 0.98042989 0.86258686 7.3781251e-39
-2.6146417 0.98377347 0.85896808 5.2583697e-39
-2.7738779 0.96214771 0.89861166 4.1520305e-39
-2.4085262 0.99758339 0.85166067 2.2987769e-39
-2.4102945 0.99463987 0.86048913 2.8519507e-39
-2.492193 0.95217192 0.97814143 2.501151e-39
-2.5727456 1.0288441 0.72634161 1.0604585e-38
-2.5710502 1.02573 0.73629671 1.0510242e-38
-2.3478734 1.0473448 0.70771354 6.7273481e-39
-2.4907765 1.0208741 0.76520735 1.2171926e-38
-2.369024 1.0271045 0.76687074 3.4979997e-39
-2.409152 1.0134511 0.80231631 1.1102922e-39
-2.632431 0.97943395 0.86936551 9.3142249e-39
-2.6306918 0.97623932 0.87957811 9.2216761e-39
-2.5242171 0.94911176 0.98211443 3.5001521e-39
-2.6098254 1.0632788 0.61309868 7.0093271e-39
-2.4692364 1.0747399 0.60177994 9.3945641e-39
-2.6387537 1.051878 0.64348632 6.6401957e-39
-2.6290162 1.0470281 0.66021425 7.104771e-39
-2.6472485 1.0390241 0.68190604 6.8216905e-39
-2.6911228 1.0313429 0.6981746 5.4412994e-39
-2.7105751 1.0262067 0.71075714 3.9654659e-39
-2.6608145 1.0315949 0.70261914 6.6383964e-39
-2.7055478 1.0237027 0.71939367 5.9026279e-39
-2.7106736 1.0108283 0.75845861 7.0993718e-39
-2.7308605 1.0054146 0.77177554 6.823145e-39
-2.7056048 1.0083036 0.76716638 7.3759629e-39
-2.6804111 1.0111829 0.76257658 7.8405396e-39
-2.7257502 1.0028694 0.78055465 7.1011739e-39
-2.700536 1.005779 0.77587408 7.7468936e-39
-2.7206399 1.0003241 0.78933364 7.2877189e-39
-2.7155297 0.99777883 0.79811263 7.6561455e-39
-2.7626433 0.98905349 0.8170622 7.4685116e-39
-2.7364991 0.99214858 0.81196678 8.0234833e-39
-2.7688153 0.97540104 0.85836053 8.5759508e-39
-2.7635734 0.97279024 0.8673656 8.3011618e-39
-2.781328 0.96744341 0.88089472 8.9465312e-39
-2.776041 0.96481019 0.88997722 9.4968337e-39
-2.4032011 0.99668503 0.85536653 1.0425274e-38
-2.4719183 1.0578247 0.65380383 1.0974104e-38
-2.4303885 1.0617926 0.64865357 1.0329077e-38
-2.4950333 1.0527629 0.66552448 1.0697512e-38
-2.449899 1.056949 0.66031843 1.1066658e-38
-2.4006493 1.0605482 0.65764344 9.3970529e-39
-2.4486349 1.0541139 0.66933376 1.1066659e-38
-2.4202039 1.0568396 0.66577899 1.0513487e-38
-2.4043729 1.0582373 0.6641714 7.747974e-39
-2.3881011 1.0589594 0.66473722 9.1229953e-39
-2.3753092 1.0595429 0.6651324 6.0773151e-39
-2.3543284 1.0611774 0.663679 2.8526569e-39
-2.484798 1.0476692 0.68309492 1.0697881e-38
-2.4643538 1.0497123 0.68028069 7.9334681e-39
-2.423388 1.0527921 0.67778867 1.051492e-38
-2.4015865 1.0548388 0.67519766 9.7762792e-39
-2.3923676 1.0556005 0.67442375 7.9291283e-39
-2.3822098 1.0565132 0.67334336 7.552441e-39
-2.3560836 1.0582557 0.67244202 2.8533604e-39
-2.4706275 1.046648 0.68870717 9.4082254e-39
-2.4516966 1.0471305 0.69047487 1.0698236e-38
-2.4295545 1.0492328 0.68776971 1.042237e-38
-2.4275644 1.0494652 0.6873917 9.3153109e-39
-2.3982096 1.0521051 0.68426239 8.8536139e-39
-2.3842852 1.0533566 0.68277997 8.7545729e-39
-2.3554587 1.0548122 0.68323469 8.1978272e-39
-2.33689 1.0570142 0.6796037 2.0225361e-39
-2.4502103 1.0443358 0.69940233 1.0882272e-38
-2.4280832 1.0464606 0.69662517 1.0330173e-38
-2.4274569 1.0464877 0.69664925 9.4075023e-39
-2.3967807 1.04936 0.69302624 1.0052149e-38
-2.382865 1.050624 0.69150424 7.1901353e-39
-2.3595941 1.0524124 0.68996811 5.1596902e-39
-2.4495428 1.0414928 0.70833927 9.8681232e-39
-2.4300759 1.0432266 0.70631653 9.7759247e-39
-2.3814216 1.0478939 0.70022434 6.7323969e-39
-2.355068 1.0507176 0.69600737 6.5429848e-39
-2.3573244 1.0493263 0.69993526 7.8315334e-39
-2.3365128 1.051071 0.69811022 2.9459217e-39
-2.5318005 1.0323942 0.72238702 9.4067835e-39
-2.5085094 1.0346644 0.71935892 1.0144703e-38
-2.4683917 1.0385351 0.71426648 1.0422373e-38
-2.4374201 1.0395989 0.71630645 9.7766464e-39
-2.4074876 1.0423646 0.71288681 1.0143628e-38
-2.3843658 1.0438483 0.71227014 8.8547027e-39
-2.3580532 1.0465043 0.70856619 6.3636158e-39
-2.3408086 1.0479424 0.7070775 4.8859886e-39
-2.3382549 1.0481713 0.70680779 3.5945408e-39
-2.4784529 1.0346904 0.7244615 1.0513861e-38
-2.4668915 1.0357248 0.72324544 1.0606406e-38
-2.4291763 1.0379514 0.72284031 9.4078709e-39
-2.3989727 1.0410419 0.71845907 8.7621385e-39
-2.4024415 1.0400946 0.72080016 9.8684903e-39
-2.3793216 1.0415982 0.72012186 9.5922579e-39
-2.3430734 1.0451844 0.71524513 7.1948394e-39
-2.3472764 1.0446942 0.71604139 3.4144571e-39
-2.3484962 1.0444962 0.71644509 4.7934189e-39
-2.5499806 1.0245601 0.74356049 9.0376464e-39
-2.475292 1.0315063 0.73488665 7.4724955e-39
-2.453197 1.0340712 0.73073786 1.0330533e-38
-2.4240689 1.0362301 0.72906202 9.7762905e-39
-2.408819 1.0371531 0.72882766 7.1937604e-39
-2.4029822 1.0366123 0.73151278 9.1298463e-39
-2.3729992 1.0391346 0.72885615 8.5777599e-39
-2.356158 1.0408273 0.72650844 3.8750625e-39
-2.4994087 1.0265712 0.74604118 7.1040703e-39
-2.4494553 1.0315124 0.73932314 1.0237983e-38
-2.430043 1.033161 0.73755497 9.0390898e-39
-2.4185898 1.0340686 0.73671401 9.2227607e-39
-2.4028261 1.0336591 0.74070281 8.7617826e-39
-2.5012457 1.0235138 0.75521111 7.1037144e-39
-2.4602787 1.0271331 0.75104529 9.9610348e-39
-2.4298813 1.0301881 0.74680763 9.314955e-39
-2.3925791 1.0331446 0.74406654 8.7625085e-39
-2.3713479 1.0343665 0.7439363 7.4728613e-39
-2.3661351 1.0339013 0.74627835 3.8757954e-39
-2.5254967 1.0178932 0.76846939 9.2227495e-39
-2.4405758 1.0266039 0.75608474 1.0238702e-38
-2.4173758 1.0281577 0.7552644 9.5000679e-39
-2.4182951 1.0281365 0.75517154 8.9468927e-39
-2.3683794 1.030977 0.75496542 6.2732475e-39
-2.5471208 1.01326 0.77911699 8.853981e-39
-2.5163202 1.0156564 0.77699262 9.7751974e-39
-2.498524 1.0174463 0.77450758 1.0513841e-38
-2.4754176 1.0197421 0.77136815 1.0052512e-38
-2.4375136 1.0231353 0.76737612 1.0145069e-38
-2.421025 1.0248076 0.76503026 9.5922621e-39
-2.4159453 1.0252917 0.76440418 6.7342214e-39
-2.4056523 1.0261672 0.7634629 9.31675e-39
-2.390842 1.0270185 0.76337492 5.1697726e-39
-2.5620236 1.0100491 0.78651041 8.8536097e-39
-2.5341868 1.0123968 0.78402579 6.4561926e-39
-2.5067377 1.0137218 0.784648 9.8681147e-39
-2.5017924 1.0140426 0.78450513 1.005216e-38
-2.455513 1.0191566 0.77661777 1.069788e-38
-2.4422057 1.0195893 0.77756983 1.005288e-38
-2.4204652 1.0218805 0.7742095 9.7762891e-39
-2.4113717 1.0227783 0.77299196 7.9334723e-39
-2.3948624 1.0243913 0.77083373 8.3026121e-39
-2.3926103 1.024075 0.77220327 4.4336537e-39
-2.590533 1.0039221 0.80060571 8.3004415e-39
-2.5603404 1.0071555 0.79577905 8.9458053e-39
-2.530498 1.0103767 0.79093015 9.314592e-39
-2.4990492 1.0121614 0.79081565 9.0390856e-39
-2.4902709 1.0134504 0.78833002 7.2881015e-39
-2.4459479 1.0172992 0.78403056 1.0513132e-38
-2.4513509 1.01608 0.78688198 9.4071464e-39
-2.4176409 1.0192561 0.78283966 8.8543468e-39
-2.4115987 1.0198432 0.78206003 9.5918936e-39
-2.3974314 1.0212711 0.78007227 8.7632357e-39
-2.5826151 1.001711 0.80883187 8.3004429e-39
-2.5527606 1.0047559 0.80453217 8.6692212e-39
-2.5145011 1.0083784 0.79988945 6.7342214e-39
-2.502429 1.0097041 0.79785752 9.8684805e-39
-2.4997718 1.0078632 0.80402827 9.7755688e-39
-2.4648235 1.0124164 0.79592669 6.9193189e-39
-2.4417913 1.0139415 0.79516602 9.3156626e-39
-2.4119399 1.0171006 0.79051125 7.7483509e-39
-2.4021883 1.0177432 0.79019898 9.0390968e-39
-2.5872939 0.99821573 0.81887054 7.9313031e-39
-2.5709004 0.9997282 0.8170045 8.5763067e-39
-2.5271502 1.0046526 0.80926889 9.8677588e-39
-2.5141149 1.0056487 0.80842602 9.4996994e-39
-2.4939165 1.0073817 0.80653208 7.1937604e-39
-2.4526012 1.0113546 0.80132884 9.5915517e-39
-2.4648488 1.0085658 0.80787039 9.5919034e-39
-2.441592 1.010952 0.80447668 9.4993392e-39
-2.4094019 1.0141699 0.80004275 9.2231139e-39
-2.4005814 1.0149944 0.79900533 7.8402075e-39
-2.3712978 1.0184484 0.79333782 2.5832545e-39
-2.6114154 0.9922595 0.83319277 7.7476293e-39
-2.5780122 0.9962644 0.82652605 7.2880973e-39
-2.5443413 0.99952424 0.82221746 8.7603449e-39
-2.5187271 1.0024232 0.81763929 9.9610306e-39
-2.4958251 1.0049127 0.81386387 1.0329817e-38
-2.4709244 1.006732 0.81251293 1.0145423e-38
-2.4294701 1.0110531 0.80625337 9.5007812e-39
-2.4413826 1.0079625 0.81378889 9.3149424e-39
-2.4113598 1.0115987 0.80768335 7.4721466e-39
-2.3989506 1.0122482 0.80780816 4.2449562e-39
-2.3848197 1.0137155 0.80569196 1.2885668e-39
-2.3660328 1.0160818 0.80158901 3.1292424e-39
-2.5896544 0.99157828 0.83905917 8.3015177e-39
-2.5210319 0.9993403 0.82680792 9.313876e-39
-2.5201635 0.99891496 0.82827741 9.5915251e-39
-2.4925983 1.0013413 0.8255021 1.0881909e-38
-2.4692407 1.0039229 0.82151943 1.0329094e-38
-2.446836 1.0063928 0.81771904 1.0237259e-38
-2.4158201 1.0096672 0.8129077 8.9468969e-39
-2.4060585 1.0086727 0.81767678 7.9320444e-39
-2.3972955 1.0095043 0.81660742 2.6743781e-39
-2.3969045 1.0091732 0.81770235 2.9473553e-39
-2.6496437 0.98400801 0.85220444 7.1026256e-39
-2.5950935 0.98774701 0.85000944 8.3000814e-39
-2.5630276 0.99141967 0.84414297 9.0376492e-39
-2.5193071 0.99648911 0.8359524 9.6830088e-39
-2.5159454 0.99632823 0.83703125 9.4067849e-39
-2.490875 0.99851102 0.83458155 1.0697518e-38
-2.4675326 1.0011164 0.83052242 1.0604962e-38
-2.445142 1.0036093 0.82664847 9.961032e-39
-2.423012 1.0060741 0.82281637 9.6844522e-39
-2.4110608 1.0067054 0.82291871 6.824622e-39
-2.3859236 1.0085872 0.82141393 0
-2.3820331 1.0084426 0.82253367 2.7604613e-39
-2.6188433 0.98392969 0.85775888 5.7171828e-39
-2.5486038 0.99067736 0.84893376 8.3940833e-39
-2.5277567 0.99324304 0.8445676 6.1810505e-39
-2.5076096 0.9945963 0.84384274 1.0052154e-38
-2.5039344 0.99429685 0.84540558 1.0143988e-38
-2.4729555 0.99739951 0.84112072 1.042201e-38
-2.4423702 1.0009356 0.83542299 1.0144703e-38
-2.4344835 1.0016546 0.83455169 9.3153011e-39
-2.4136596 1.0039845 0.83091325 6.1821295e-39
-2.4086344 1.0040302 0.83163804 1.4751091e-39
-2.6316826 0.97980857 0.86833221 8.1156901e-39
-2.620739 0.98077458 0.86722201 5.9937697e-39
-2.6024919 0.98265094 0.86454654 8.1160489e-39
-2.5692735 0.98670393 0.85769856 9.1291232e-39
-2.5297689 0.99036354 0.85315531 9.6837291e-39
-2.5078821 0.99116302 0.85444915 9.3153137e-39
-2.4767334 0.99511158 0.84756827 1.0053237e-38
-2.46611 0.99523467 0.84901851 1.0145069e-38
-2.4437063 0.99777955 0.84498531 1.0053941e-38
-2.4261513 0.99971253 0.84201461 8.855416e-39
-2.4145975 1.0008184 0.84057581 5.9962935e-39
-2.3969791 1.0030375 0.83672839 9.1871369e-40
-2.4067991 1.0010152 0.84130979 3.1317535e-39
-2.6226344 0.97761947 0.87668508 5.4431197e-39
-2.5920467 0.98101318 0.87142956 8.4855516e-39
-2.5591574 0.98484665 0.86520612 8.9461683e-39
-2.5280225 0.98749804 0.86234814 9.8681189e-39
-2.4922514 0.99126416 0.85683078 9.1316469e-39
-2.4871469 0.98981494 0.86220783 9.8688406e-39
-2.4630895 0.99384499 0.8538515 6.3664983e-39
-2.4584711 0.99300188 0.85726386 9.7770023e-39
-2.4269288 0.9970082 0.85027188 7.4717865e-39
-2.4174094 0.99770188 0.84976095 3.1353773e-39
-2.412446 0.99772906 0.85053259 0
-2.6010718 0.97701406 0.88228202 8.4844712e-39
-2.5902183 0.97809196 0.88080925 8.6699415e-39
-2.5519881 0.98264635 0.87326986 9.2227495e-39
-2.5262513 0.98463476 0.87153804 9.6844494e-39
-2.4969535 0.98806089 0.86595941 1.0052151e-38
-2.4873087 0.98863274 0.86584812 6.4579975e-39
-2.464884 0.99085778 0.86281103 6.3657962e-39
-2.4567566 0.99019855 0.86625808 9.6840836e-39
-2.4479342 0.9910751 0.86505967 8.5763165e-39
-2.4081285 0.99618131 0.8560797 1.943636e-39
-2.4044421 0.99641228 0.85599864 1.9328502e-39
-2.6853876 0.96656638 0.90016073 4.6104821e-39
-2.5752845 0.97681326 0.88735205 8.6695814e-39
-2.5501916 0.97976476 0.88252091 9.1323574e-39
-2.5351038 0.9810136 0.8812477 6.4561954e-39
-2.5121255 0.98316336 0.87853986 9.6837361e-39
-2.482343 0.9864493 0.87347955 7.6565281e-39
-2.4656625 0.98832977 0.87052095 9.1298533e-39
-2.4452219 0.9900009 0.86886048 6.1814008e-39
-2.4326668 0.99001276 0.87098891 7.1937618e-39
-2.4199028 0.99198776 0.86706161 1.8510592e-40
-2.398591 0.99412358 0.86410946 8.279544e-40
-2.3947003 0.99397892 0.86522919 2.1179828e-39
-2.583889 0.97269088 0.89865965 8.4855516e-39
-2.5658236 0.97474539 0.89539999 9.2227509e-39
-2.5369236 0.97819102 0.88969231 9.4996994e-39
-2.4900327 0.98278809 0.88351405 9.1302078e-39
-2.5101974 0.98020756 0.88804382 9.1302008e-39
-2.4779859 0.98395562 0.88196856 9.5911789e-39
-2.4470034 0.98703551 0.87775475 5.9966564e-39
-2.417918 0.98949105 0.87515098 3.5055737e-39
-2.4216712 0.98904425 0.87589025 0
-2.4003463 0.99120188 0.87287253 2.0225361e-39
-2.5686431 0.97211301 0.90308195 7.8416256e-39
-2.5424497 0.97451299 0.90015203 8.9476074e-39
-2.5202284 0.97733855 0.89521646 6.2717985e-39
-2.4985085 0.97878087 0.89448649 9.0380122e-39
-2.5099697 0.97714472 0.89758688 9.2220419e-39
-2.4865513 0.97975761 0.89351773 9.037638e-39
-2.4537449 0.98379582 0.8866446 9.0390912e-39
-2.4411635 0.98481405 0.88565487 1.3883252e-39
-2.4253209 0.98643988 0.88334203 2.3952689e-39
-2.4021015 0.98828024 0.88163549 2.667558e-39
-2.5513558 0.97170305 0.90733522 9.1309154e-39
-2.5220513 0.9743042 0.90431744 5.7193464e-39
-2.5216527 0.97266775 0.90946388 9.3153095e-39
-2.5048537 0.97457558 0.90644103 9.6837291e-39
-2.4863126 0.97671968 0.90298545 9.129835e-39
-2.4778254 0.97757781 0.90178627 6.6406077e-39
-2.4466174 0.98095804 0.89667928 1.5709214e-39
-2.4250579 0.98347014 0.89260244 3.7753167e-39
-2.6185746 0.96145028 0.92755723 4.3392903e-39
-2.5238743 0.97126985 0.91341847 5.7193464e-39
-2.5214438 0.9698894 0.91812092 8.4862705e-39
-2.5095932 0.97086906 0.91712487 9.7759163e-39
-2.4860632 0.97368139 0.9124561 8.5766683e-39
-2.4572418 0.97725433 0.90633947 4.8899389e-39
-2.4483991 0.97799265 0.90557343 0
-2.4269764 0.9802137 0.90237594 1.3778912e-39
-2.6044586 0.96003634 0.93437886 7.9330995e-39
-2.5880296 0.96131998 0.93322879 7.7479894e-39
-2.5275619 0.96778154 0.92360651 8.5781102e-39
-2.5077693 0.96801299 0.92630154 9.7759177e-39
-2.4858036 0.97064286 0.921929 6.1806889e-39
-2.4758246 0.9717375 0.92025334 2.4924938e-39
-2.4501805 0.97502732 0.91446745 0
-2.4999681 0.96756136 0.92904818 5.6289529e-39
-2.4774468 0.96994728 0.92552853 5.0775938e-39
-2.4559109 0.9722088 0.92222512 3.4151816e-39
-2.4591627 0.97117013 0.92488712 8.2831593e-40
-2.5776408 0.95589948 0.95183998 8.3011646e-39
-2.4833546 0.96729147 0.93275058 8.3944462e-39
-2.4576926 0.96924335 0.93111926 2.4896295e-39
-2.4537435 0.9690966 0.93225574 4.5917748e-40
-2.5538697 0.95670623 0.95343578 4.5233214e-39
-2.5639126 0.95410192 0.95978504 8.670303e-39
-2.4770582 0.96382499 0.94459254 0
-2.5752063 0.95214468 0.96391052 8.2093277e-39
-2.5329893 0.95609814 0.95892358 5.1661727e-39
-2.5312364 0.95516253 0.96212894 9.0383681e-39
-2.5491304 0.95192951 0.9690749 7.6579546e-39
-2.511308 0.95180529 0.97598273 6.9204148e-39
-2.507484 0.95208037 0.97578877 2.0232578e-39
-2.488215 0.9520241 0.97928613 3.6734198e-40
-2.4842367 0.95187616 0.98043114 8.2867186e-40
-2.5347593 1.0516524 0.66211945 1.0420198e-38
-2.4225702 1.059387 0.65746623 1.2079718e-38
-2.3407354 1.0392939 0.73392588 2.3959836e-39
-2.3567643 1.028782 0.76377946 2.6754529e-39
-2.6578946 0.96657628 0.90487111 9.6804837e-39
-2.4077322 0.99518818 0.85922974 4.4231804e-39
-2.6561403 0.96335435 0.91517103 8.9450794e-39
-2.4132636 0.99201876 0.86811036 1.1041783e-39
-2.4061177 0.99222225 0.86871129 5.6188537e-39
-2.5465715 0.97254544 0.90554637 1.042057e-38
-2.594202 0.96019578 0.93565279 9.6826487e-39
-2.5968926 0.95677882 0.94579142 9.7751946e-39
-2.5754075 0.95893848 0.94279516 9.8677616e-39
-2.4413197 0.97504693 0.91593456 5.8961623e-39
-2.5721278 0.95609117 0.95219588 9.9599544e-39
-2.5347304 0.95434844 0.96405238 1.0329809e-38
-2.5114875 0.9569627 0.9599486 2.0308374e-39
-2.5483322 0.94930869 0.97734475 9.5936873e-39
-2.5347047 0.95074689 0.97523218 7.6525848e-39
-2.5274529 0.95192987 0.97281212 1.7516988e-39
-2.5386333 0.94572896 0.990125 3.6921132e-39
-2.5132513 0.947348 0.98947823 4.8766083e-39
-2.4886355 1.0776951 0.58926457 1.8720069e-38
-2.4818099 1.0787667 0.5871166 2.0193033e-38
-2.5234213 1.0716844 0.60191697 7.7501376e-39
-2.5020063 1.0738209 0.59898001 7.6572147e-39
-2.5367143 1.067755 0.611817 9.038724e-39
-2.4760621 1.0736684 0.60392791 1.0329816e-38
-2.5141234 1.0670536 0.61788952 9.4075065e-39
-2.4927773 1.0692242 0.6148349 1.0054308e-38
-2.4714818 1.0713871 0.61179644 1.0331967e-38
-2.553195 1.0602512 0.63225859 8.3933574e-39
-2.5496788 1.0608033 0.63115209 9.0387268e-39
-2.5273483 1.0630901 0.62790728 9.6840934e-39
-2.4881625 1.0669259 0.6227625 1.0237267e-38
-2.4847243 1.0674657 0.6216805 1.0425249e-38
-2.5261545 1.0602098 0.63705033 9.4075065e-39
-2.5226653 1.0607576 0.63595235 9.9592412e-39
-2.4835479 1.0646275 0.63068992 1.0697873e-38
-2.4589083 1.0673602 0.62645966 1.1250693e-38
-2.5634928 1.0536823 0.65086585 8.485553e-39
-2.5402405 1.0561024 0.64736623 8.9483263e-39
-2.517982 1.0584251 0.64399749 1.0142907e-38
-2.4789333 1.0623292 0.6386174 1.1065936e-38
-2.5587358 1.051313 0.65903795 8.6688653e-39
-2.5132992 1.0560926 0.65204257 1.0053229e-38
-2.4743187 1.0600308 0.64654481 1.1065939e-38
-2.4252789 1.0655482 0.63788116 1.5476233e-38
-2.5539789 1.0489438 0.6672101 9.1291218e-39
-2.4697044 1.0577325 0.65447223 1.0974822e-38
-2.549222 1.0465744 0.67538214 9.4060674e-39
-2.4862304 1.0531609 0.66580725 1.0514207e-38
-2.444 1.0576992 0.65900803 1.1620905e-38
-2.4019735 1.0622053 0.65227312 1.0422733e-38
-2.5666881 1.0417936 0.68720484 8.8536167e-39
-2.5248804 1.0461487 0.68090087 9.4075065e-39
-2.4639137 1.0525959 0.67140907 1.088299e-38
-2.4604752 1.0531358 0.67032707 1.171275e-38
-2.5201612 1.0437982 0.689008 9.5918978e-39
-2.4980562 1.0462149 0.68532115 1.0145425e-38
-2.4592991 1.0502975 0.67933649 1.1158854e-38
-2.3763406 1.0593702 0.66549069 1.1067381e-38
-2.5802386 1.0344684 0.70759767 8.9458123e-39
-2.4722841 1.0462147 0.68976605 1.0975538e-38
-2.430259 1.0508553 0.68261391 1.1988965e-38
-2.5107229 1.0390973 0.70522213 9.8691937e-39
-2.4886901 1.0415499 0.70141137 1.0882268e-38
-2.4676352 1.0438993 0.6977523 1.1250693e-38
-2.4466317 1.0462406 0.69410938 1.1804223e-38
-2.3839262 1.0532165 0.68327677 1.0331262e-38
-2.3573692 1.0564799 0.67773014 7.5531697e-39
-2.5475159 1.0322446 0.72014087 9.5900985e-39
-2.5254371 1.0347279 0.71624249 1.0145425e-38
-2.4840069 1.0392175 0.70945644 1.0607479e-38
-2.4629867 1.0415838 0.70573866 1.1250693e-38
-2.4420171 1.0439422 0.7020368 1.2080457e-38
-2.3794143 1.0509694 0.69102776 1.0607129e-38
-2.5693455 1.026685 0.73362762 8.8543356e-39
-2.4583378 1.0392684 0.71372491 1.0700043e-38
-2.416518 1.0440114 0.70621967 1.1803867e-38
-2.3956847 1.0463707 0.70249116 1.1435796e-38
-2.3749025 1.0487221 0.69877869 1.0791876e-38
-2.3715408 1.0492499 0.69772077 1.1067747e-38
-2.345073 1.0525419 0.69207025 3.2261044e-39
-2.6079814 1.0194664 0.74936372 8.3029596e-39
-2.5839565 1.022209 0.74499667 8.8543328e-39
-2.5194676 1.029433 0.73370206 9.8666896e-39
-2.4965656 1.0320461 0.72954321 1.0512409e-38
-2.4571528 1.0364091 0.72280121 1.1345047e-38
-2.367029 1.0470027 0.70547169 1.0975551e-38
-2.3405936 1.0503109 0.69976544 4.1458704e-39
-2.6261909 1.0143499 0.76209962 8.485553e-39
-2.5790877 1.0197841 0.75336069 9.038724e-39
-2.5560842 1.0224379 0.749093 9.6840934e-39
-2.4918466 1.0296956 0.73765028 1.0973383e-38
-2.4525039 1.0340937 0.73078758 1.125357e-38
-2.4490399 1.0346376 0.72969753 1.1437605e-38
-2.574219 1.0173591 0.76172477 9.4071506e-39
-2.5319152 1.0221349 0.75420076 9.8670456e-39
-2.5099537 1.0246943 0.75004619 1.0330538e-38
-2.4871275 1.0273452 0.74575728 1.0790071e-38
-2.447855 1.0317783 0.73877376 1.1343964e-38
-2.4269969 1.034209 0.73482859 1.143724e-38
-2.3820465 1.039578 0.72592044 1.0974113e-38
-2.361367 1.0419805 0.72203147 1.069969e-38
-2.3316348 1.0458488 0.71515578 8.1985573e-39
-2.6162984 1.0094229 0.7790941 9.2216761e-39
-2.5271223 1.0197477 0.76243472 9.5918978e-39
-2.5051968 1.0223252 0.75821823 1.0422377e-38
-2.4824085 1.0249947 0.75386435 1.0975185e-38
-2.4432063 1.0294629 0.74676001 1.1069536e-38
-2.4223824 1.0319107 0.74275607 1.1804223e-38
-2.4016094 1.0343503 0.7387681 1.1345413e-38
-2.3808877 1.0367819 0.73479623 1.0881918e-38
-2.3602169 1.0392056 0.73084033 1.0882274e-38
-2.3568552 1.0397334 0.7297824 1.0514933e-38
-2.6362579 1.0040165 0.79242754 8.8543356e-39
-2.5004399 1.0199558 0.76639032 1.0329816e-38
-2.4776893 1.0226443 0.76197135 1.079187e-38
-2.4385576 1.0271475 0.75474638 1.1621271e-38
-2.4350936 1.0276912 0.75365633 1.208081e-38
-2.3763418 1.0345176 0.74260592 1.0881918e-38
-2.3523433 1.0374862 0.73753339 9.8710084e-39
-2.6312704 1.0015323 0.80099601 8.8543356e-39
-2.4339087 1.024832 0.76273257 1.1988614e-38
-2.4304447 1.025376 0.76164252 1.153016e-38
-2.3684084 1.0327852 0.74934971 1.0514207e-38
-2.3478315 1.035239 0.74528426 9.7784569e-39
-2.4500318 1.0200098 0.7749154 1.143724e-38
-2.3433197 1.0329918 0.75303525 9.685192e-39
-2.3203924 1.0358768 0.74803722 3.5901939e-39
-2.317055 1.0364007 0.74698693 3.9593478e-39
-2.6489654 0.99306715 0.82421136 8.4859062e-39
-2.6250112 0.99598038 0.81930244 8.3033128e-39
-2.600199 0.99899 0.81424278 8.8543328e-39
-2.5115213 1.0096381 0.79649466 1.0053229e-38
-2.5079503 1.0101987 0.79537082 1.0697875e-38
-2.4453487 1.0176773 0.78296059 1.1713116e-38
-2.3388081 1.0307446 0.76078612 9.4989959e-39
-2.3159132 1.0336457 0.75573242 4.7833379e-39
-2.6200235 0.99349624 0.82787085 8.3015149e-39
-2.5952528 0.99652642 0.82274008 8.9458123e-39
-2.5723717 0.99933463 0.81797218 9.4071506e-39
-2.5294669 1.004465 0.8094517 9.5900985e-39
-2.5067284 1.0072508 0.80472863 1.0330172e-38
-2.4406657 1.0153449 0.79100567 1.1437245e-38
-2.4199622 1.0178858 0.78669143 1.1803867e-38
-2.3993096 1.0204188 0.78239334 1.1160303e-38
-2.3513827 1.0265243 0.77171314 6.4522451e-39
-2.3309343 1.0290252 0.76747912 1.2892843e-39
-2.3114336 1.0314146 0.76342762 6.0755341e-39
-2.6389105 0.98805922 0.84148455 8.7617812e-39
-2.524636 1.0020589 0.81775075 9.9592412e-39
-2.5019352 1.0048635 0.81296271 1.0697875e-38
-2.4153135 1.0155704 0.79467773 1.1896065e-38
-2.394695 1.0181204 0.79032075 1.1160303e-38
-2.3468368 1.02426 0.7795229 2.0210984e-39
-2.3264225 1.026778 0.77523011 4.7840736e-39
-2.5853603 0.99159932 0.83973444 8.3908113e-39
-2.5198052 0.9996528 0.82604975 1.0328018e-38
-2.4754424 1.0051836 0.81653821 1.1622353e-38
-2.3900805 1.0158221 0.79824817 1.106918e-38
-2.359309 1.0199885 0.79062635 3.1299402e-39
-2.4706852 1.0028143 0.82471025 1.1805668e-38
-2.3535612 1.0148901 0.8074376 4.6915276e-39
-2.3886054 1.0045371 0.83351904 8.1124713e-39
-2.3804929 1.0027654 0.84041536 4.965588e-39
-2.4635911 0.98576558 0.87883478 1.1526557e-38
-2.5414917 0.95681655 0.95522803 1.0146504e-38
-2.5839531 0.94771302 0.97615343 1.0052876e-38
-2.5496998 0.94607997 0.98712742 9.9621223e-39
-2.5252573 0.94629627 0.99067134 9.3164025e-39
-2.5890458 0.99102074 0.84089422 9.0365618e-39
-2.6087768 0.98546016 0.85474563 9.3135158e-39
-2.5840995 0.98855716 0.84939146 9.1284057e-39
-2.5791533 0.98609364 0.8578887 1.0051437e-38
-2.5563953 0.98898166 0.85285187 9.7766478e-39
-2.5742068 0.98363012 0.86638588 9.6840934e-39
-2.5823283 0.95742363 0.94630218 9.3171088e-39
-2.4920485 1.0771593 0.59033853 1.5127334e-38
-2.7825398 0.97709715 0.85073084 5.6278501e-39
-2.7436397 0.98138344 0.84413886 6.5487273e-39
-2.7533398 0.97712815 0.85567003 6.2732237e-39
-2.6713462 0.97549063 0.87489069 7.2859365e-39
-2.4922142 0.96176857 0.94836003 3.0384775e-39
-2.5055025 0.95411795 0.9698078 5.251125e-39
-2.7574463 0.98646516 0.82598984 7.0107733e-39
-2.7522497 0.98387682 0.83491749 7.7486943e-39
-2.671066 0.97552443 0.87483406 7.1019081e-39
-2.6751654 0.97359902 0.88010162 7.0089908e-39
-2.6524818 0.97523856 0.87892586 4.8899459e-39
-2.6362948 0.97605896 0.87917167 8.1156915e-39
-2.6730382 0.96984273 0.89212394 7.4703249e-39
-2.6487482 0.97182959 0.89014769 7.1937394e-39
-2.6287315 0.97462058 0.88493913 5.6249858e-39
-2.6348288 0.97162169 0.89319301 4.705549e-39
-2.6306272 0.97146553 0.89440221 5.7171828e-39
-2.6109223 0.97268432 0.89401829 8.2075298e-39
-2.6367242 0.96846664 0.90265626 4.6133534e-39
-2.6325226 0.96831042 0.90386546 5.1665258e-39
-2.6090653 0.96974361 0.90346336 8.023856e-39
-2.6386199 0.96531153 0.91211939 4.062702e-39
-2.619638 0.96778101 0.90773016 7.2880959e-39
-2.5931678 0.9692049 0.90787637 7.6561539e-39
-2.6166937 0.96458125 0.9181664 4.8899459e-39
-2.6154671 0.96493471 0.91728121 8.2082487e-39
-2.5755837 0.96882826 0.91207755 8.5777501e-39
-2.5994091 0.96386302 0.92337579 8.2093235e-39
-2.583488 0.96565986 0.92054582 8.4862719e-39
-2.5568895 0.96739715 0.91974193 8.1167789e-39
-2.5549667 0.96465176 0.92859209 8.2078956e-39
-2.5314033 0.96752405 0.92374301 8.2093305e-39
-2.5542679 0.96297228 0.93392402 5.350924e-39
-2.5501962 0.96282095 0.93509579 5.350924e-39
-2.5294502 0.96480685 0.93251115 8.2093277e-39
-2.5419872 0.96310836 0.93561953 8.9472459e-39
-2.5520329 0.95976359 0.94426584 5.1665258e-39
-2.5341229 0.9611938 0.94291651 8.8546887e-39
-2.5253024 0.96201652 0.94188452 5.353075e-39
-2.5108747 0.96389675 0.93853837 9.4075023e-39
-2.5271254 0.95898223 0.95098555 4.9846597e-39
-2.5290642 0.95830059 0.9527663 9.3142417e-39
-2.4996214 0.96212721 0.94596988 7.8402075e-39
-2.486809 0.96113354 0.95126253 5.1683405e-39
-2.4976587 0.95942968 0.95467848 3.4194709e-39
-2.4961119 0.95862526 0.95744133 1.9342851e-39
-2.5112107 0.95566952 0.96400911 4.8928172e-39
-2.511153 0.95485872 0.96653497 6.1810406e-39
-2.4846253 0.95799851 0.96136695 3.0438823e-39
-2.4630373 0.96034729 0.95780152 1.8367099e-40
-2.665988 0.97228819 0.88575178 8.8539684e-39
-2.6157033 0.97512454 0.88562208 9.3135102e-39
-2.5959265 0.96336329 0.92552698 9.5926041e-39
-2.5492163 0.96918619 0.91551387 9.6840934e-39
-2.5475211 0.96607202 0.92546922 9.9592412e-39
-2.6797578 0.97996199 0.85956585 8.7617812e-39
-2.6784554 0.97681892 0.86954308 8.9447263e-39
-2.6628668 0.97237206 0.8860296 4.2467443e-39
-2.6407449 0.97177541 0.89169598 7.0093524e-39
-2.6175199 0.97495133 0.8858462 9.4060674e-39
-2.6124923 0.9724474 0.89448279 9.8670456e-39
-2.7665155 0.98844558 0.81828076 7.2855651e-39
-2.7561219 0.98326886 0.8361361 7.378467e-39
-2.5410252 1.0674874 0.61190426 8.3940665e-39
-2.5630596 1.0515049 0.65769696 9.2216691e-39
-2.6022146 1.0419083 0.68072265 7.9320163e-39
-2.6074438 1.0349916 0.70128268 6.9182385e-39
-2.5914609 1.0366427 0.69891578 8.2993639e-39
-2.5955355 1.0331428 0.70907313 8.4841125e-39
-2.6068606 1.0290731 0.7197479 7.8394648e-39
-2.6629243 1.0206323 0.73627156 6.2728677e-39
-2.6207671 1.0244411 0.73172277 7.9320191e-39
-2.6266279 1.0212455 0.74062788 6.9182357e-39
-2.6519268 1.0172219 0.74875027 6.7338431e-39
-2.621366 1.0155174 0.75930935 7.102627e-39
-2.6445763 1.0108012 0.76994079 7.5632394e-39
-2.6938252 0.99750149 0.80271608 6.3650634e-39
-2.6921375 0.99462205 0.81194192 6.365062e-39
-2.6815374 0.99415606 0.81521571 7.4710424e-39
-2.6495602 0.99760038 0.81004256 8.0238504e-39
-2.7162216 0.98900622 0.82521409 6.9164337e-39
-2.7065139 0.99025542 0.82301199 5.0718134e-39
-2.6597033 0.99373907 0.82027483 7.1015438e-39
-2.7036417 0.98738509 0.83241367 6.9160763e-39
-2.708472 0.98699576 0.83278894 4.705549e-39
-2.6468358 0.99201661 0.82783836 7.0082706e-39
-2.6895242 0.98564816 0.84023786 6.7331284e-39
-2.6847248 0.98613566 0.83955294 4.7055546e-39
-2.6877744 0.98277146 0.84946573 6.9178742e-39
-2.6866674 0.98290241 0.84925044 4.7973999e-39
-2.6610162 0.98533106 0.84613788 5.3484059e-39
-2.5825207 1.0631595 0.61817753 7.7479852e-39
-2.6002393 1.0585042 0.62956679 7.9312848e-39
-2.6152859 1.0542823 0.6400727 8.023133e-39
-2.610455 1.0518762 0.64837176 8.2089662e-39
-2.6056242 1.0494701 0.65667087 8.3933574e-39
-2.6229064 1.0416087 0.67808408 7.2877133e-39
-2.6423399 1.0365794 0.69033837 6.7309438e-39
-2.6180377 1.0391837 0.68644804 7.6557896e-39
-2.6558683 1.0291313 0.71111619 7.0997249e-39
-2.6753836 1.008679 0.77121311 8.2089633e-39
-2.6954672 1.0032544 0.78458196 7.7486943e-39
-2.6903985 1.0007298 0.79328978 8.1171208e-39
-2.7053092 0.9926883 0.81567067 8.1153286e-39
-2.7009401 0.97067595 0.88472694 6.6412915e-39
-2.5673525 1.0673026 0.60793751 8.0227798e-39
-2.5638361 1.0678546 0.60683101 7.7497873e-39
-2.5591171 1.0655042 0.61493796 8.8543328e-39
-2.5579143 1.0626017 0.62415165 8.3011618e-39
-2.5543981 1.0631537 0.62304509 8.9465284e-39
-2.5682497 1.0560516 0.64269382 8.7614197e-39
-2.5995622 1.0440928 0.67440158 8.301159e-39
-2.5947311 1.0416867 0.68270063 8.1167677e-39
-2.6562088 1.0139533 0.75815374 8.3011618e-39
-2.651221 1.0114691 0.7667222 8.1167677e-39
-2.6499498 1.0084015 0.77646011 8.1167677e-39
-2.6462333 1.0089849 0.77529061 8.3919071e-39
-2.665329 1.0036711 0.7884863 8.4859062e-39
-2.6412458 1.0065007 0.78385901 8.3937105e-39
-2.7091167 0.99209052 0.81686896 8.0231302e-39
-2.6552744 0.99866313 0.80575943 8.485553e-39
-2.7040064 0.98954523 0.82564795 8.3000632e-39
-2.6751919 0.99315596 0.81941313 8.3933574e-39
-2.6988962 0.98699999 0.83442694 8.3919099e-39
-2.7147715 0.98389733 0.8413167 4.5211564e-39
-2.7167299 0.98063767 0.85109359 4.6133534e-39
-2.7145047 0.97839612 0.85843265 6.6416489e-39
-2.6929157 0.97982919 0.85770887 4.705549e-39
-2.6691401 0.97907621 0.8641454 5.073977e-39
-2.7158849 0.98188132 0.84738022 8.3015121e-39
-2.7167528 0.97526616 0.86775702 6.4579723e-39
-2.6909139 0.97813541 0.86330968 6.7334843e-39
-2.6729927 0.97836918 0.86567479 7.101548e-39
-2.7148776 0.972381 0.87703282 6.1828357e-39
-2.7011065 0.97352266 0.8758651 4.5208032e-39
