# .PCD v0.7 - Point Cloud Data file format
VERSION 0.7
FIELDS x y z rgb
SIZE 4 4 4 4
TYPE F F F F
COUNT 1 1 1 1
WIDTH 1060
HEIGHT 1
VIEWPOINT 0 0 0 1 0 0 0
POINTS 1060
DATA ascii
1.8485061 0.073041081 2.6509352 1.1340448e-38
1.8481308 0.083408438 2.6531715 1.1064221e-38
1.8551739 -0.0055012703 2.581423 7.1959829e-39
1.8532981 0.0043316754 2.6044309 9.6830971e-39
1.8529261 0.014608623 2.6066477 1.0788726e-38
1.8525543 0.024885604 2.6088645 1.1524492e-38
1.8506051 0.035062145 2.632782 1.1800355e-38
1.85023 0.045429472 2.6350181 1.1709959e-38
1.8498551 0.055796824 2.6372545 1.1434092e-38
1.84948 0.066164248 2.6394911 1.1709956e-38
1.8491049 0.076531567 2.6417272 1.1801433e-38
1.8487296 0.086898886 2.6439636 1.1249697e-38
1.8483545 0.097266145 2.6461999 1.0606483e-38
1.8479793 0.10763338 2.6484361 1.1707435e-38
1.8557622 -0.0020705406 2.5723722 0
1.8538914 0.0077916831 2.5953033 0
1.8519541 0.017817944 2.6191013 0
1.851579 0.028185267 2.6213377 0
1.8504536 0.059287269 2.6280465 4.2428333e-39
1.8500786 0.069654688 2.6302829 5.71689e-39
1.8497032 0.080022 2.6325192 6.8232403e-39
1.849328 0.090389349 2.6347556 8.8536868e-39
1.848953 0.10075659 2.636992 1.1063518e-38
1.8525529 0.021308364 2.6098933 8.2893278e-39
1.8521775 0.031675681 2.6121294 7.6432325e-39
1.8518025 0.042043038 2.6143661 4.7887651e-39
1.8514273 0.05241036 2.6166024 3.8660802e-39
1.8510522 0.062777683 2.6188385 3.4018608e-39
1.8506771 0.073145099 2.6210749 1.3800436e-39
1.8503019 0.083512418 2.6233113 0
1.8499268 0.093879774 2.6255476 0
1.8495518 0.10424701 2.627784 0
1.8524011 0.045533482 2.6051579 1.1330319e-38
1.8520259 0.055900805 2.6073942 1.1330685e-38
1.851651 0.066268161 2.6096308 1.0962275e-38
1.8512758 0.076635577 2.611867 1.077861e-38
1.8509005 0.087002896 2.6141033 1.0317999e-38
1.8505254 0.097370215 2.6163397 9.7655467e-39
1.8501505 0.10773748 2.6185758 8.8450197e-39
1.8497754 0.11810473 2.6208122 6.1716996e-39
1.8552999 0.028448783 2.5701365 1.0866799e-38
1.8522496 0.069758609 2.6004226 9.6689776e-39
1.8518746 0.080126025 2.602659 1.003778e-38
1.8530687 0.090110838 2.5834377 9.8548332e-39
1.852697 0.10038786 2.5856545 1.0223243e-38
1.8564677 -0.11639618 2.5948586 1.1615596e-38
1.8570508 -0.11299465 2.5858853 1.1615593e-38
1.8576344 -0.10959309 2.5769117 1.1064937e-38
1.8582176 -0.10619156 2.5679381 1.0973467e-38
1.8584355 -0.092686638 2.5611441 1.1433378e-38
1.8532268 -0.03341946 2.6160357 1.0973823e-38
1.8549541 -0.019122239 2.5882754 1.1709237e-38
1.8735265 -0.5266906 2.475944 7.6259433e-39
1.8758849 -0.55247527 2.4507937 6.8927209e-39
1.8742927 -0.54693305 2.4711103 6.7108436e-39
1.8740469 -0.53622854 2.4714754 6.8019476e-39
1.8796713 -0.65091336 2.4264722 8.8216096e-39
1.8793958 -0.64030367 2.4272718 8.3631468e-39
1.8793812 -0.63056546 2.4247346 5.3300769e-39
1.8768885 -0.58315611 2.4456396 5.7975193e-39
1.8745675 -0.54576647 2.4670064 3.4008309e-39
1.8726008 -0.46013033 2.4699271 3.0532416e-39
1.8829778 -0.71820062 2.3999765 7.811408e-39
1.8798929 -0.63994271 2.420341 7.0057987e-39
1.878355 -0.62073642 2.4360669 9.9506498e-39
1.8857354 -0.76215458 2.3744602 4.5971838e-39
1.8854975 -0.75180352 2.3748136 5.2458098e-39
1.8792185 -0.54737198 2.4035521 9.5743185e-39
1.87264 -0.43480301 2.4622626 9.766281e-39
1.8725985 -0.42308024 2.4595306 1.2536111e-38
1.8715539 -0.41499776 2.471611 1.0233003e-38
1.8889611 -0.8216297 2.346875 5.7942809e-39
1.8886921 -0.8112815 2.3476589 5.887194e-39
1.886965 -0.79752272 2.367517 6.5347186e-39
1.8865935 -0.7825731 2.3684144 7.2712074e-39
1.8850921 -0.76709598 2.3846858 1.0690367e-38
1.883284 -0.62457258 2.3694203 1.0417034e-38
1.8817219 -0.57470626 2.3768468 7.456347e-39
1.8804423 -0.54686439 2.3865948 4.7819352e-39
1.8757557 -0.49478644 2.4363296 6.0723139e-39
1.8747811 -0.45233655 2.4377775 9.4965408e-39
1.8743534 -0.42872766 2.4370081 9.3967698e-39
1.8726875 -0.42451695 2.4587114 1.437859e-38
1.8727106 -0.41069964 2.4545081 1.0878017e-38
1.8716701 -0.40255165 2.4665103 1.8406714e-39
1.8674625 -0.32366723 2.5021207 1.4286745e-38
1.8684371 -0.30835205 2.4844203 1.3180402e-38
1.8675318 -0.29925132 2.4942982 1.2259162e-38
1.8921561 -0.89726204 2.3242626 6.710475e-39
1.8921443 -0.88564968 2.3211565 5.7978668e-39
1.8904182 -0.8728947 2.3412833 6.4432418e-39
1.8901491 -0.86254615 2.3420687 6.8120271e-39
1.889868 -0.84048384 2.3397183 1.0047517e-38
1.8872362 -0.79116786 2.3620033 1.11517e-38
1.8870987 -0.69598734 2.3371031 1.004824e-38
1.8846679 -0.64058214 2.3549104 1.0417033e-38
1.8843873 -0.63073921 2.3559957 1.0509228e-38
1.8831761 -0.62533373 2.3711133 1.2441391e-38
1.8814869 -0.60992742 2.3899922 1.2075132e-38
1.8819877 -0.57357818 2.3728786 1.0409825e-38
1.8829719 -0.5582698 2.3550472 1.0610053e-38
1.8815122 -0.55287588 2.3735845 4.4120639e-39
1.8803055 -0.54689574 2.3884833 5.0603116e-39
1.8786372 -0.5422076 2.4100871 5.4276535e-39
1.8770252 -0.52534819 2.4274886 5.154668e-39
1.8767346 -0.51518595 2.4286222 5.0613934e-39
1.8760282 -0.49362984 2.4322612 5.0650045e-39
1.8757846 -0.48301739 2.4326231 6.4432642e-39
1.8755407 -0.4724049 2.4329851 4.8806048e-39
1.8752972 -0.46179244 2.4333472 1.1975352e-38
1.8749325 -0.45309505 2.4359076 7.8286958e-39
1.8744804 -0.43849608 2.4380114 5.4230012e-39
1.8741883 -0.42830372 2.4391592 9.2142044e-39
1.8741498 -0.41661537 2.4363976 1.3090382e-38
1.872522 -0.41024822 2.4569702 1.3088558e-38
1.8722271 -0.39997116 2.4581311 7.6439598e-39
1.8721895 -0.38817886 2.4553273 4.4221574e-39
1.8711535 -0.37987438 2.467226 5.8032912e-39
1.8954998 -0.97067255 2.2989788 6.4353287e-39
1.8907874 -0.87105387 2.3356931 1.0875117e-38
1.8874872 -0.69394332 2.3311882 1.0139367e-38
1.8843929 -0.66561013 2.3657329 1.2256273e-38
1.8853573 -0.64954901 2.3479602 1.2256273e-38
1.8845385 -0.64096051 2.3567924 1.0967335e-38
1.884497 -0.62967902 2.3541892 1.0875856e-38
1.8836735 -0.62225032 2.3634112 1.0784743e-38
1.8827233 -0.61530519 2.3745136 1.087658e-38
1.8807163 -0.5976488 2.3971214 1.3177148e-38
1.8812753 -0.58791852 2.3867033 7.0882581e-39
1.8818282 -0.57407641 2.3752089 8.8388933e-39
1.8820156 -0.56209892 2.3692632 9.7727396e-39
1.8817779 -0.5517478 2.3696165 5.5220086e-39
1.8795512 -0.55022484 2.3997865 6.7205574e-39
1.8788466 -0.54146975 2.407002 6.8120313e-39
1.8789974 -0.52859616 2.401305 5.5234617e-39
1.8780087 -0.52109891 2.4127812 5.1557568e-39
1.8767881 -0.51369822 2.4274688 6.1666745e-39
1.8752037 -0.50781983 2.4475832 7.3666527e-39
1.8763007 -0.49247324 2.4281929 5.8962043e-39
1.8760568 -0.48186079 2.4285548 6.263898e-39
1.8758132 -0.4712483 2.4289167 5.9883999e-39
1.8742205 -0.46500179 2.4490438 7.4606602e-39
1.8753259 -0.45002338 2.4296408 5.5252708e-39
1.8750819 -0.4394109 2.4300025 6.5343865e-39
1.8748384 -0.42879832 2.4303646 7.4621007e-39
1.874553 -0.41446885 2.4302528 7.0979887e-39
1.8742599 -0.40428177 2.4314101 5.9909307e-39
1.8726332 -0.3978129 2.4519436 4.9749641e-39
1.8731983 -0.38439164 2.4404008 1.7488527e-39
1.8691523 -0.30741975 2.4743316 9.0287103e-39
1.8712338 -0.2937327 2.4418747 7.0897084e-39
1.8695861 -0.28626609 2.4624147 6.2631862e-39
1.8905107 -0.76784497 2.3104432 9.4014347e-39
1.8902346 -0.7581436 2.3115079 9.5868994e-39
1.8899584 -0.74844223 2.3125727 9.6787377e-39
1.8887516 -0.7323994 2.3246405 1.0138281e-38
1.888194 -0.71285051 2.3268011 9.9546141e-39
1.8879151 -0.70307589 2.3278811 1.0139003e-38
1.8873932 -0.69436526 2.3325999 1.0414869e-38
1.8866034 -0.68713182 2.3414195 1.0507425e-38
1.884828 -0.68446541 2.3650622 1.1613417e-38
1.8842918 -0.6759209 2.3700221 1.2994552e-38
1.8858567 -0.65869665 2.3436744 1.234812e-38
1.8856207 -0.64843017 2.3440244 1.1705623e-38
1.8853853 -0.63816375 2.3443747 1.2256994e-38
1.8851494 -0.62789726 2.3447247 1.1982931e-38
1.8849137 -0.61763084 2.3450749 1.2166248e-38
1.8843181 -0.60790735 2.3505199 1.0969136e-38
1.8828274 -0.60330963 2.3697104 1.1703102e-38
1.8829945 -0.59202415 2.3642361 1.4005496e-38
1.8827567 -0.58167309 2.364589 9.5808023e-39
1.8815546 -0.57476854 2.379164 8.564463e-39
1.880441 -0.56998754 2.3931217 1.142614e-38
1.8801646 -0.55937511 2.3939292 7.8315684e-39
1.8805845 -0.54503804 2.3841264 6.8167131e-39
1.8796817 -0.53765815 2.3944533 6.5390416e-39
1.8793994 -0.52649325 2.3951912 4.329959e-39
1.8784158 -0.5189777 2.4065886 4.6036606e-39
1.8770607 -0.51254165 2.4234006 4.4206889e-39
1.8780929 -0.49725273 2.4049127 3.6827833e-39
1.8763294 -0.48070419 2.4244864 1.5666293e-39
1.8760856 -0.47009167 2.4248483 1.2871641e-39
1.8760334 -0.45905554 2.4224594 1.7484814e-39
1.8757405 -0.44886863 2.4236188 3.4047671e-39
1.8754474 -0.43868166 2.4247777 3.771756e-39
1.8751544 -0.42849439 2.4259367 3.9576004e-39
1.8748612 -0.41830721 2.4270954 5.4320214e-39
1.8740979 -0.4087095 2.4348817 2.9463113e-39
1.8732049 -0.40016851 2.444752 4.3285241e-39
1.8731718 -0.38837212 2.4418852 6.9063976e-39
1.8721458 -0.38004011 2.4536378 7.4584994e-39
1.8708076 -0.30326763 2.4504161 1.160514e-38
1.873794 -0.28710485 2.4048319 1.0593504e-38
1.8743531 -0.27370751 2.3933802 1.1699137e-38
1.8693327 -0.23904058 2.4526067 1.1514377e-38
1.8690869 -0.22833608 2.4529715 1.132998e-38
1.8927127 -0.78259754 2.2843409 9.3103139e-39
1.8912437 -0.76748633 2.3002739 1.0599981e-38
1.8880062 -0.73970944 2.3369374 1.124427e-38
1.8877708 -0.72944295 2.3372877 1.1336468e-38
1.888249 -0.71750504 2.3273551 9.8624171e-39
1.8878204 -0.70353448 2.329313 1.0139001e-38
1.8870633 -0.69864357 2.3383379 1.1705971e-38
1.887503 -0.68250197 2.3277502 1.0875133e-38
1.8865918 -0.6781106 2.3390384 1.253287e-38
1.8863558 -0.66784418 2.3393884 1.2533939e-38
1.8863909 -0.65414721 2.3350539 1.0968766e-38
1.8861091 -0.64431518 2.3361578 1.0969125e-38
1.8858272 -0.6344831 2.3372619 1.1060602e-38
1.8844483 -0.63013953 2.354986 1.2165151e-38
1.8843341 -0.61868399 2.3533342 1.0692899e-38
1.882663 -0.61771142 2.3760204 1.2166225e-38
1.8828119 -0.6026482 2.3697333 9.4914709e-39
1.8825253 -0.59265935 2.3708618 9.2141554e-39
1.8822386 -0.58267057 2.37199 6.6373553e-39
1.881952 -0.57268167 2.3731182 4.7891155e-39
1.8819178 -0.56121963 2.3703616 2.491433e-39
1.8812426 -0.55387104 2.3775668 3.6853029e-39
1.8812596 -0.54237419 2.3740973 3.8675403e-39
1.8794403 -0.53837144 2.3979683 4.60259e-39
1.8791634 -0.52772009 2.3987782 4.6933549e-39
1.8775767 -0.52199751 2.4189703 3.2200521e-39
1.8783211 -0.50700396 2.4045193 8.3818948e-39
1.8770891 -0.5007726 2.4196942 5.5274442e-39
1.8768454 -0.49016005 2.4200561 8.1971518e-39
1.8773317 -0.47688809 2.4096403 5.7103725e-39
1.8763579 -0.4689351 2.4207799 1.0778625e-38
1.8764406 -0.45691714 2.4162612 8.8435834e-39
1.8761473 -0.44673356 2.4174271 8.0141717e-39
1.8758537 -0.4365499 2.4185925 7.8297734e-39
1.8763936 -0.42311618 2.4073951 1.0410175e-38
1.8751394 -0.41587266 2.4225895 1.1606898e-38
1.8745118 -0.4065536 2.4285896 9.9466659e-39
1.8736159 -0.39801636 2.4384983 1.0314369e-38
1.8735851 -0.38620794 2.4355993 1.0959726e-38
1.8948537 -0.83729833 2.2703214 9.5843812e-39
1.8934084 -0.80121076 2.2800217 9.5851015e-39
1.8919668 -0.78658718 2.2957125 1.0691096e-38
1.8906764 -0.78433025 2.3128095 1.1797068e-38
1.8904077 -0.77401638 2.3135982 1.2255896e-38
1.890139 -0.76370251 2.3143871 1.2440641e-38
1.8888812 -0.75895911 2.3303337 1.2532479e-38
1.8885057 -0.74885702 2.3326516 1.2254826e-38
1.8880341 -0.72832406 2.3333519 1.2164062e-38
1.8884912 -0.71126664 2.3222711 1.0599621e-38
1.8875626 -0.70779115 2.3340521 1.1518693e-38
1.8873268 -0.69752467 2.3344023 1.013863e-38
1.885903 -0.69327921 2.3527694 9.0315564e-39
1.8856655 -0.68292809 2.3531222 8.386187e-39
1.8852301 -0.67039502 2.3555775 1.0690373e-38
1.8849382 -0.66017538 2.356708 1.0045364e-38
1.8853326 -0.64778507 2.3478057 6.5430058e-39
1.8852987 -0.63640869 2.345068 3.5034339e-39
1.8850141 -0.62650293 2.3461907 3.1357332e-39
1.8842391 -0.6208213 2.3552403 0
1.8838958 -0.60911936 2.356662 4.1488089e-39
1.8838614 -0.59770375 2.3539207 8.2651947e-40
1.8835756 -0.58776385 2.3550525 1.4708113e-39
1.8818457 -0.58090734 2.3768899 3.8675361e-39
1.882351 -0.57058018 2.3670411 3.9575962e-39
1.8815994 -0.56363493 2.3754132 6.910729e-39
1.8814367 -0.55255622 2.3745346 7.8283469e-39
1.8806491 -0.54497725 2.3832216 1.0777885e-38
1.879824 -0.53646338 2.3921599 1.1331415e-38
1.8795468 -0.52581167 2.3929713 1.1976791e-38
1.8787194 -0.5171833 2.4019129 1.2160818e-38
1.8777412 -0.47474131 2.4034059 1.1144501e-38
1.8761363 -0.45706975 2.4204857 1.1145931e-38
1.8758414 -0.44684094 2.4216609 1.1146288e-38
1.8953611 -0.86935872 2.272372 1.0780775e-38
1.8952329 -0.83530688 2.2645483 9.6772929e-39
1.8949233 -0.81477129 2.2630258 9.9528036e-39
1.8946491 -0.80519783 2.2640927 9.9524477e-39
1.8926898 -0.8056879 2.2911515 1.1333949e-38
1.8924582 -0.79558712 2.2914958 1.1148466e-38
1.8922262 -0.78548634 2.2918403 1.0964778e-38
1.8930591 -0.76912361 2.2757905 1.0504524e-38
1.8920134 -0.76432729 2.2888081 8.9397223e-39
1.8907241 -0.76099229 2.3055849 1.0230458e-38
1.8897368 -0.75438696 2.3172948 1.0229021e-38
1.889467 -0.74403626 2.3180864 9.674779e-39
1.8880163 -0.74015462 2.3369262 8.8460987e-39
1.8877444 -0.72971779 2.3377244 7.649359e-39
1.8888837 -0.70918214 2.3162899 4.0562532e-39
1.888603 -0.69938767 2.317394 4.056249e-39
1.8875904 -0.69640583 2.3304665 0
1.8862162 -0.69013733 2.3475819 8.2651947e-40
1.8860281 -0.66631007 2.3434622 1.287499e-39
1.8860134 -0.65559196 2.3406477 2.5771658e-39
1.8852179 -0.65074664 2.3502133 4.7848373e-39
1.8856969 -0.63429987 2.3390038 3.5898772e-39
1.8847424 -0.6300444 2.3509192 6.6341379e-39
1.8845769 -0.61696655 2.3495135 4.7898582e-39
1.8842809 -0.60799092 2.3510549 7.3691778e-39
1.8829783 -0.60217333 2.3673129 9.2112911e-39
1.8831128 -0.58663565 2.3610942 8.1963909e-39
1.88304 -0.57844609 2.3597925 7.2744444e-39
1.8821069 -0.57293338 2.3710566 1.2251914e-38
1.8827223 -0.556979 2.3581128 1.0961544e-38
1.8824346 -0.5469991 2.3592567 1.0961544e-38
1.882147 -0.53701913 2.3604007 1.031582e-38
1.8985399 -0.9404453 2.2487004 1.0135759e-38
1.8963089 -0.89833671 2.2675037 1.0873324e-38
1.8956183 -0.86826628 2.2685292 1.0871876e-38
1.8953881 -0.85824269 2.2688711 9.9513505e-39
1.8951579 -0.84821916 2.269213 8.6620312e-39
1.8956141 -0.83330089 2.2587442 7.7422427e-39
1.8951077 -0.82534379 2.263463 7.2812673e-39
1.895435 -0.81194794 2.2551982 6.8185011e-39
1.8953431 -0.80125004 2.2534475 3.2207164e-39
1.8929294 -0.80002588 2.2862666 7.0032651e-39
1.893672 -0.78901768 2.2729673 3.5945534e-39
1.8921143 -0.78821272 2.2941432 7.003984e-39
1.8925604 -0.77390456 2.2839878 0
1.8918391 -0.76631099 2.2917609 0
1.8918229 -0.75469857 2.2887144 1.8439168e-39
1.8906085 -0.74971741 2.3039994 0
1.8903397 -0.73940235 2.3047912 9.1835496e-41
1.8900707 -0.72908717 2.3055828 7.3504691e-40
1.8901888 -0.7147181 2.2999151 3.7775055e-39
1.8878477 -0.71741068 2.3328445 3.0377768e-39
1.8880897 -0.70555341 2.3261805 7.5539278e-39
1.8883432 -0.68951422 2.3181808 7.5528446e-39
1.8865918 -0.6882599 2.341893 1.1053402e-38
1.8873823 -0.67475396 2.3272309 1.1238139e-38
1.8848033 -0.6733678 2.3622799 1.0869352e-38
1.8857213 -0.65996963 2.345892 1.1975333e-38
1.8854976 -0.64544779 2.3448818 8.7492158e-39
1.8852458 -0.63926739 2.3465979 1.2526339e-38
1.8848896 -0.62494713 2.3474622 1.0039938e-38
1.8843356 -0.6177423 2.3530464 1.003923e-38
1.8996748 -0.95688677 2.2377355 1.1058774e-38
1.8951705 -0.88142174 2.2783847 5.899786e-39
1.8958755 -0.86717391 2.2646866 0
1.8956453 -0.85715032 2.2650285 0
1.8954153 -0.84712678 2.2653704 0
1.895185 -0.83710337 2.2657123 0
1.8955381 -0.8004092 2.250531 3.3165189e-39
1.8942641 -0.79700929 2.2670798 9.1835917e-40
1.8929768 -0.79338551 2.2837512 3.496604e-39
1.8938524 -0.77693349 2.2670896 2.8548275e-39
1.8935753 -0.76730323 2.2681842 4.5150551e-39
1.8916976 -0.7674852 2.2940376 8.014529e-39
1.8920487 -0.7529822 2.2851293 9.6718839e-39
1.8918167 -0.74288136 2.2854738 1.040838e-38
1.8913878 -0.73467654 2.2890575 8.4740624e-39
1.8904406 -0.7272433 2.2999809 1.0501638e-38
1.890465 -0.71317166 2.2956867 8.6573747e-39
1.9005302 -0.95038033 2.2241464 0
1.8960723 -0.90005088 2.271239 9.1943116e-40
1.8958052 -0.88981855 2.2720275 8.2759987e-40
1.896363 -0.87610489 2.2605021 3.2221779e-39
1.8961327 -0.86608148 2.260844 5.4359478e-39
1.8964592 -0.85151178 2.2522588 3.961531e-39
1.8961835 -0.84191537 2.2533464 4.7898469e-39
1.8954421 -0.83601099 2.2618694 8.8435708e-39
1.8958763 -0.82129359 2.2517612 5.5270561e-39
1.8956006 -0.81169909 2.2528524 5.7110872e-39
1.8953243 -0.80210465 2.2539437 5.9876615e-39
1.8936641 -0.79633993 2.2751362 1.0961184e-38
1.8929518 -0.78880477 2.2828033 1.0868631e-38
1.8930039 -0.78218389 2.2802234 1.142142e-38
1.8925866 -0.77427119 2.28373 1.0960463e-38
1.8908112 -0.7253949 2.2943685 1.2250095e-38
1.9008337 -0.94997931 2.2198665 1.7506394e-39
1.8961735 -0.88797873 2.2664464 1.1330312e-38
1.8966204 -0.87501246 2.2566595 1.1146276e-38
1.8963903 -0.86498904 2.2570014 1.1328521e-38
1.8961599 -0.85496545 2.2573433 1.1418918e-38
1.896528 -0.83835584 2.2476101 9.1168941e-39
1.896293 -0.83028394 2.248569 6.5372339e-39
1.8959266 -0.82164365 2.2511702 9.8551878e-39
1.8938583 -0.80746984 2.2755992 1.2524872e-38
1.8935906 -0.79720461 2.2763908 1.2341917e-38
1.8933226 -0.78693944 2.2771823 1.2158262e-38
1.8971078 -0.88394374 2.252475 1.0131047e-38
1.8967927 -0.84864962 2.2468729 1.0775678e-38
1.8978255 -0.90289819 2.2479486 9.1179717e-39
1.8852972 -0.79096198 2.3885894 8.8205124e-39
1.882848 -0.75546378 2.4122505 9.4655245e-39
1.8825464 -0.74480897 2.4133949 9.4644371e-39
1.8822449 -0.73415416 2.4145393 9.6491997e-39
1.8769819 -0.60126811 2.4494538 1.0940655e-38
1.8899616 -0.88616621 2.3512917 6.1594354e-39
1.8854593 -0.77795458 2.3827002 6.6153843e-39
1.8820138 -0.76000977 2.4249914 6.7072198e-39
1.8830115 -0.74234545 2.406311 6.9820088e-39
1.8814055 -0.73851293 2.4273002 7.1678322e-39
1.8811013 -0.72776437 2.4284546 7.2600265e-39
1.8807969 -0.71701598 2.4296091 7.1678322e-39
1.8804928 -0.70626748 2.4307637 7.0749205e-39
1.8801886 -0.69551909 2.4319179 7.810322e-39
1.8798845 -0.68477052 2.4330726 7.902519e-39
1.8795803 -0.67402214 2.434227 7.9039511e-39
1.8925103 -0.90691835 2.3221147 1.1242456e-38
1.8922162 -0.89653367 2.32323 1.1427198e-38
1.8898262 -0.86279488 2.3465776 1.1334299e-38
1.8895295 -0.85232002 2.3477027 1.1060942e-38
1.8889368 -0.83137071 2.3499527 1.069215e-38
1.8868175 -0.80720598 2.3722723 1.0691799e-38
1.8846827 -0.7825011 2.3946497 1.1333933e-38
1.8840795 -0.76119149 2.3969383 1.1335002e-38
1.882483 -0.75752455 2.4178452 1.1242456e-38
1.8821787 -0.74677616 2.4189997 1.1242456e-38
1.8818747 -0.73602772 2.4201541 1.1242086e-38
1.8812662 -0.71453077 2.4224629 1.1241383e-38
1.880962 -0.70378226 2.4236176 1.142433e-38
1.8806578 -0.69303387 2.4247718 1.142433e-38
1.8803537 -0.68228531 2.4259264 1.1332134e-38
1.8935515 -0.92528653 2.3129797 1.1703415e-38
1.8932574 -0.91490185 2.314095 1.1888525e-38
1.8908761 -0.88132232 2.3373635 1.2257665e-38
1.8905798 -0.87084764 2.3384886 1.2256589e-38
1.8902832 -0.86037302 2.3396134 1.2257665e-38
1.8899868 -0.84989816 2.3407385 1.2257665e-38
1.8872784 -0.80476332 2.3652482 1.2441723e-38
1.8848461 -0.76938272 2.3887103 1.2995248e-38
1.8845446 -0.75872791 2.3898547 1.2995615e-38
1.882952 -0.75503933 2.4106991 1.3087092e-38
1.8826481 -0.74429095 2.4118536 1.3272561e-38
1.8823438 -0.7335425 2.413008 1.3455873e-38
1.8820395 -0.72279394 2.4141624 1.3640618e-38
1.8817354 -0.71204555 2.4153168 1.3548435e-38
1.881431 -0.70129704 2.4164715 1.3732467e-38
1.881127 -0.69054866 2.4176257 1.382431e-38
1.880823 -0.67980009 2.4187803 1.3732833e-38
1.8834212 -0.75255412 2.403553 1.2994895e-38
1.89983 -0.96762264 2.238621 1.1427198e-38
1.9002723 -0.96528065 2.2318869 1.1887453e-38
1.8948795 -0.86887765 2.2788553 1.2072923e-38
1.894588 -0.8585794 2.2799613 1.2532125e-38
1.8942963 -0.8482812 2.2810674 1.2348428e-38
1.8925599 -0.83500594 2.3011899 1.2440983e-38
1.8922663 -0.8246215 2.302305 1.2808353e-38
1.8916783 -0.80385208 2.3045359 1.280976e-38
1.8859712 -0.70235234 2.3543885 1.3363322e-38
1.8853732 -0.6812228 2.356658 1.3822861e-38
1.8833748 -0.63149786 2.3701229 1.2349533e-38
1.8805157 -0.58603239 2.3966098 9.5800232e-39
1.9004277 -0.95280975 2.2262406 8.6649263e-39
1.9001411 -0.94268084 2.2273283 8.6649263e-39
1.8953288 -0.8664965 2.2720084 1.0508137e-38
1.8950375 -0.85619825 2.2731147 1.0415217e-38
1.8947457 -0.8459 2.2742207 1.1242106e-38
1.8944545 -0.83560175 2.2753267 1.1060592e-38
1.8930132 -0.83260489 2.2942855 1.0968037e-38
1.893571 -0.81514686 2.2817099 1.0138635e-38
1.8924255 -0.81183571 2.2965162 1.1703805e-38
1.892123 -0.77688473 2.2908387 1.0692172e-38
1.8870302 -0.72103906 2.3450952 1.3179662e-38
1.8867314 -0.71047431 2.3462298 1.3548435e-38
1.8864321 -0.69990951 2.3473647 1.3732467e-38
1.8861333 -0.68934476 2.3484993 1.4008694e-38
1.8864375 -0.67485195 2.3402417 1.1890715e-38
1.8836912 -0.65298045 2.3718185 1.4286007e-38
1.8853945 -0.6333077 2.3428798 1.2351347e-38
1.8815249 -0.60007012 2.3866925 1.2995621e-38
1.8805702 -0.59462005 2.3982768 1.4191663e-38
1.880266 -0.5838716 2.3994315 1.0686061e-38
1.8809502 -0.5444237 2.3789284 7.0003827e-39
1.9011565 -0.9605968 2.2184186 0
1.8949362 -0.88212711 2.2818046 0
1.8957783 -0.86411542 2.2651618 0
1.895487 -0.85381716 2.2662678 0
1.8956803 -0.83753729 2.2590301 6.4572534e-40
1.894904 -0.83322072 2.2684801 0
1.8934667 -0.83020377 2.2873812 0
1.8931729 -0.81981921 2.2884965 0
1.8928787 -0.80943453 2.2896121 0
1.8925849 -0.79904985 2.2907274 0
1.8871924 -0.70803159 2.339206 1.102026e-39
1.885664 -0.70379084 2.3590131 1.3775324e-39
1.8841563 -0.65051693 2.3647346 3.6870867e-39
1.8850995 -0.63407832 2.3471489 4.3317555e-39
1.8848006 -0.62351346 2.3482835 5.0664436e-39
1.8835889 -0.61794192 2.3633616 6.1749422e-39
1.8829503 -0.60789764 2.369312 5.6178196e-39
1.8813435 -0.60288334 2.3899763 4.7898568e-39
1.8810394 -0.59213483 2.3911307 4.7873554e-39
1.8804312 -0.57063794 2.3934395 5.894405e-39
1.8959774 -0.90049529 2.2726696 1.169838e-38
1.8953894 -0.87972605 2.2749002 1.1606177e-38
1.896228 -0.86173427 2.2583151 1.1606903e-38
1.8970712 -0.84391516 2.2417109 1.160583e-38
1.8967824 -0.83370352 2.2428079 1.142108e-38
1.8964933 -0.82349181 2.2439046 1.1145569e-38
1.8936261 -0.81741816 2.2815924 1.1236326e-38
1.8938117 -0.80247253 2.2748342 6.6319519e-39
1.8891485 -0.75841266 2.3265083 1.0407304e-38
1.8888494 -0.74784786 2.3276432 9.9481037e-39
1.8888763 -0.69919556 2.3135793 1.0959038e-38
1.8864534 -0.67402571 2.3397887 9.7633621e-39
1.8836379 -0.6648888 2.3759036 1.0315105e-38
1.8817911 -0.56249934 2.3724608 6.3532112e-39
1.8972601 -0.87994957 2.2492559 1.2337613e-38
1.8969687 -0.86965132 2.2503622 1.2430868e-38
1.8966773 -0.85935318 2.2514682 1.2339767e-38
1.8969389 -0.82113063 2.2371154 1.2893291e-38
1.8940794 -0.8150171 2.2746882 1.3261701e-38
1.8914087 -0.77009654 2.2987401 1.3261351e-38
1.8911124 -0.75962192 2.2998652 1.3261351e-38
1.8908161 -0.74914724 2.3009901 1.3445759e-38
1.8905194 -0.73867244 2.3021152 1.3264234e-38
1.8873684 -0.69284183 2.3325105 1.1421419e-38
1.8862927 -0.68820894 2.3459897 1.3814534e-38
1.8842896 -0.56730545 2.339483 1.2527411e-38
1.8813695 -0.56566745 2.3791473 1.4554267e-38
1.8894693 -0.72506654 2.3127172 8.2968808e-39
1.8934294 -0.77953374 2.2736325 7.8362628e-39
1.8931004 -0.77043808 2.2755945 8.2028873e-39
1.8903303 -0.73114842 2.3025961 8.2046852e-39
1.8896669 -0.71281087 2.3065515 8.5720286e-39
1.8872538 -0.68161345 2.3309252 8.3898023e-39
1.8854399 -0.66874224 2.3522279 8.9422558e-39
1.8847662 -0.65012002 2.3562448 8.8500546e-39
1.8812385 -0.58989066 2.3877633 7.8344579e-39
1.880899 -0.58050656 2.3897874 5.7114277e-39
1.8798803 -0.55235422 2.3958604 4.1383707e-39
1.901841 -0.92549467 2.1991327 0
1.8969166 -0.85833311 2.2478957 7.2831016e-39
1.8965874 -0.84923738 2.2498577 7.744077e-39
1.8962582 -0.84014159 2.2518196 7.7444329e-39
1.8928503 -0.78307372 2.2825861 7.8366159e-39
1.8915232 -0.74639881 2.2904971 8.1124896e-39
1.8911915 -0.73723012 2.292475 8.2046852e-39
1.8908597 -0.72806144 2.2944527 8.2046852e-39
1.8859775 -0.66560745 2.3439581 9.3092419e-39
1.8856405 -0.65629643 2.3459666 8.9426202e-39
1.8841572 -0.65241992 2.3652589 8.8497043e-39
1.8834779 -0.63365167 2.3693073 8.9422558e-39
1.8831385 -0.62426758 2.3713315 9.1273674e-39
1.882799 -0.61488348 2.3733556 9.4028752e-39
1.8824594 -0.60549939 2.37538 9.0355249e-39
1.8821198 -0.59611529 2.3774045 8.576346e-39
1.8817804 -0.5867312 2.3794286 7.9270123e-39
1.8807619 -0.55857891 2.3855011 3.3197433e-39
1.8791904 -0.55404752 2.4058137 1.0408049e-38
1.9020343 -0.91351783 2.1931071 5.99016e-39
1.895138 -0.79160058 2.2535512 7.1912591e-39
1.8933798 -0.77998674 2.2744427 8.2043349e-39
1.8909949 -0.74929827 2.2985728 8.1146546e-39
1.8896579 -0.71234554 2.3065441 8.5716754e-39
1.8900622 -0.68829978 2.2942204 8.8482567e-39
1.8897305 -0.67913103 2.2961981 8.8500546e-39
1.8853781 -0.66802877 2.3528757 8.5741964e-39
1.8861784 -0.65316153 2.3376966 8.9422558e-39
1.884699 -0.64926058 2.3569243 8.9422558e-39
1.8817906 -0.60762554 2.3851666 9.1262982e-39
1.8814485 -0.59816504 2.3872075 9.0348158e-39
1.8823223 -0.58357185 2.3710938 8.2032404e-39
1.880764 -0.5792439 2.3912888 5.3365467e-39
1.8813035 -0.5554195 2.3771665 7.287398e-39
1.8766561 -0.46571743 2.4157774 9.4925569e-39
1.8953341 -0.77944255 2.2474346 0
1.8915284 -0.74618793 2.2903678 5.7182927e-39
1.8922505 -0.73105639 2.2761881 7.7419302e-39
1.8919185 -0.72188771 2.2781658 8.3887429e-39
1.891587 -0.71271884 2.2801437 8.5738461e-39
1.89026 -0.67604411 2.2880547 8.8522224e-39
1.8888544 -0.67228252 2.3063099 8.3008535e-39
1.8842224 -0.61794883 2.3546622 8.8522224e-39
1.8819947 -0.59497988 2.3788049 9.5858218e-39
1.8809679 -0.56659824 2.384927 1.1055194e-38
1.8753216 -0.44739181 2.428957 4.414561e-39
1.8736637 -0.44191891 2.4501979 4.1455439e-39
1.8968465 -0.80366737 2.23347 7.7386469e-39
1.8965175 -0.7945717 2.2354321 6.7248509e-39
1.8961885 -0.78547597 2.2373941 5.5241624e-39
1.8955301 -0.76728439 2.2413182 1.7466681e-39
1.8941066 -0.76464421 2.2601337 1.1938615e-39
1.8917274 -0.73383957 2.2841556 0
1.8913932 -0.72460145 2.2861483 0
1.8921162 -0.70963204 2.2720003 0
1.8903903 -0.69688684 2.2921264 2.5814776e-39
1.8897221 -0.67841041 2.2961121 5.7175892e-39
1.8882643 -0.67482513 2.3151314 6.7346194e-39
1.8879274 -0.66551405 2.3171396 8.1136036e-39
1.8828834 -0.60125518 2.3683615 9.1277205e-39
1.877942 -0.50138307 2.4081509 3.3125463e-39
1.8762171 -0.4537155 2.4184332 3.4969669e-39
1.875872 -0.44418216 2.4204895 1.0325542e-38
1.8715649 -0.40378121 2.4683025 1.0140443e-38
1.8712144 -0.39409134 2.4703927 5.2612451e-39
1.8708636 -0.3844015 2.4724829 8.1107141e-39
1.8705132 -0.37471175 2.4745731 7.9281207e-39
1.8701624 -0.36502191 2.4766631 9.8588171e-39
1.897701 -0.80970085 2.2234292 8.2910878e-39
1.8973718 -0.80060512 2.2253914 7.4656404e-39
1.8970429 -0.79150933 2.2273533 7.8318992e-39
1.8967137 -0.78241354 2.2293155 8.6602179e-39
1.8963845 -0.77331793 2.2312775 9.0279214e-39
1.8960555 -0.76422215 2.2332394 8.9361041e-39
1.8957263 -0.75512642 2.2352016 8.8435708e-39
1.8943045 -0.75238866 2.253968 8.7520814e-39
1.8929296 -0.74920577 2.2719648 8.3836534e-39
1.8914971 -0.74617952 2.2907934 7.3691442e-39
1.8919266 -0.7214911 2.2779431 3.5905751e-39
1.890924 -0.69377661 2.2839212 1.102026e-39
1.8894757 -0.69031256 2.3028445 1.102026e-39
1.8899211 -0.66606194 2.2898998 0
1.8884649 -0.66237932 2.3088698 0
1.8874544 -0.63444579 2.3148954 3.3186924e-39
1.8809069 -0.56490791 2.3852882 8.757859e-39
1.8805621 -0.55537438 2.3873448 3.315077e-39
1.8775566 -0.51235294 2.4165316 3.9586345e-39
1.8784922 -0.49817336 2.3996832 3.9586345e-39
1.8793219 -0.48454374 2.3844476 3.8657326e-39
1.8778025 -0.47910637 2.4037962 3.4973075e-39
1.8761653 -0.47389922 2.4248264 3.4054608e-39
1.8758172 -0.46428585 2.4268999 2.6660992e-39
1.874228 -0.45865795 2.4471552 9.3956908e-39
1.8747739 -0.43544573 2.4331212 2.9387359e-39
1.8721244 -0.40051883 2.4596963 9.5082305e-41
1.8717737 -0.39082903 2.4617865 1.9354076e-39
1.871423 -0.38113919 2.4638767 8.0966549e-39
1.8710725 -0.37144944 2.4659667 6.8876958e-39
1.869395 -0.36512712 2.4872372 9.0290607e-39
1.8969098 -0.77025551 2.2231989 8.5680195e-39
1.8959223 -0.74296832 2.229085 8.4744001e-39
1.8923719 -0.75235581 2.280515 8.4740498e-39
1.8916979 -0.73373348 2.2845321 9.3027188e-39
1.8924601 -0.71838087 2.2697382 9.7636914e-39
1.8917917 -0.69990438 2.2737236 9.0290228e-39
1.8903501 -0.69648886 2.2925661 8.844277e-39
1.8889036 -0.6929276 2.31144 8.4754959e-39
1.8893396 -0.66855544 2.2985914 8.1974825e-39
1.8875457 -0.65539116 2.3195367 3.68097e-39
1.8804226 -0.53309768 2.3829901 5.341583e-39
1.8793876 -0.50449705 2.3891594 3.3172448e-39
1.8790427 -0.49496362 2.391216 3.5920226e-39
1.8786978 -0.48543012 2.3932726 4.1430398e-39
1.8783528 -0.47589663 2.3953288 3.5920226e-39
1.8767204 -0.47066262 2.4162879 4.8759203e-39
1.8763726 -0.46104926 2.4183617 3.9535899e-39
1.8733848 -0.41663623 2.4469097 1.1338633e-38
1.8723332 -0.38756666 2.4531803 3.3140078e-39
1.8719828 -0.37787682 2.4552703 1.1977153e-38
1.8891063 -0.68038392 2.3051295 9.2994987e-39
1.8898774 -0.66542053 2.2903216 9.393132e-39
1.888427 -0.66161573 2.3091779 9.486757e-39
1.8869182 -0.65792352 2.3288686 9.9488043e-39
1.8865761 -0.64846301 2.3309093 9.5821896e-39
1.8874084 -0.63346338 2.3152506 9.3048993e-39
1.8837327 -0.60615593 2.3580711 7.3680848e-39
1.8834955 -0.56331819 2.3492758 2.2040519e-39
1.8824682 -0.53493655 2.3553979 1.4693679e-39
1.8809732 -0.52988797 2.3745227 1.4697267e-39
1.8806281 -0.52035445 2.3765793 8.279544e-40
1.8802832 -0.51082098 2.3786356 3.2185626e-39
1.8799381 -0.5012874 2.3806922 2.1183387e-39
1.8792483 -0.48222044 2.384805 3.0410167e-39
1.8776232 -0.47703952 2.4056759 3.3172448e-39
1.8756975 -0.46182296 2.4278524 3.9604464e-39
1.8753469 -0.45213321 2.4299426 7.9248585e-39
1.8749963 -0.44244346 2.4320328 5.241477e-39
1.8746458 -0.4327535 2.4341228 3.1303354e-39
1.8742952 -0.4230637 2.436213 7.2824038e-39
1.8712302 -0.37808803 2.4656682 5.3462493e-39
1.8708769 -0.36831832 2.4677756 2.4935826e-39
1.8705233 -0.35854858 2.469883 5.9891034e-39
1.8676955 -0.28039053 2.4867423 1.1153899e-38
1.8864378 -0.62635678 2.3265882 9.0254089e-39
1.8860954 -0.61689627 2.328629 9.1176059e-39
1.8846281 -0.61247975 2.3475473 9.3934823e-39
1.8847263 -0.57905412 2.3367918 1.0132847e-38
1.8826724 -0.52229095 2.3490362 7.4602832e-39
1.8823301 -0.51283038 2.3510768 6.354293e-39
1.8831966 -0.49892664 2.3352551 3.224682e-39
1.8804885 -0.49807766 2.3722248 2.8526513e-39
1.8801439 -0.48854426 2.3742812 2.0250444e-39
1.8714409 -0.3650291 2.4590983 3.3136701e-39
1.8710874 -0.35525933 2.4612057 9.7713271e-39
1.8707337 -0.34548962 2.4633131 1.0330975e-38
1.8703804 -0.33571979 2.4654207 9.6863215e-39
1.8842455 -0.54748738 2.3345113 9.0254089e-39
1.8839031 -0.53802687 2.3365519 9.4856752e-39
1.8835608 -0.5285663 2.3385928 9.8544675e-39
1.8844175 -0.51453537 2.3228719 9.947382e-39
1.8840781 -0.50515127 2.3248961 1.0409083e-38
1.8848883 -0.49155036 2.3099346 1.0870427e-38
1.8833991 -0.48638302 2.3289449 1.0869361e-38
1.8818493 -0.48126355 2.3487966 1.0042117e-38
1.8790811 -0.48017973 2.3865256 9.3063482e-39
1.8733107 -0.35840002 2.4315419 4.1463076e-39
1.8716514 -0.35197008 2.4525285 7.5636794e-39
1.871298 -0.34220037 2.4546359 8.6693053e-39
1.8678483 -0.28628239 2.4862976 1.0148026e-38
1.8778973 -0.42887595 2.3883555 9.9484806e-39
1.8772016 -0.40964925 2.392503 8.2896781e-39
1.8738703 -0.35513765 2.4229355 1.5629971e-39
1.8722157 -0.34868082 2.4438512 1.8367099e-40
1.8718623 -0.33891115 2.4459589 0
1.8701991 -0.3322145 2.4669261 9.1835496e-41
1.8704482 -0.29983205 2.4543884 4.5190726e-39
1.8684173 -0.28296626 2.4775496 8.8533364e-39
1.8680607 -0.27311662 2.4796741 9.9600441e-39
1.8786906 -0.39311364 2.3673873 9.6661036e-39
1.8727798 -0.34539154 2.435174 9.0276131e-39
1.8711241 -0.33874804 2.456053 8.0134598e-39
1.8713659 -0.3063125 2.4436035 3.037051e-39
1.8719301 -0.30302325 2.4349263 1.0132496e-38
1.871223 -0.28348377 2.4391413 9.1190801e-39
1.8695548 -0.2763339 2.4600527 8.2903984e-39
1.8684853 -0.24678493 2.4664268 5.1539673e-39
1.869767 -0.2631681 2.4534295 9.5782239e-39
1.8954612 -0.8555302 2.2671015 9.1255597e-39
1.8970764 -0.89109236 2.2549183 9.1241177e-39
1.9007144 -0.96293873 2.2251527 8.2050355e-39
1.895666 -0.87564099 2.2699468 7.2841582e-39
1.8984748 -0.90172064 2.2386971 7.3752776e-39
1.8981506 -0.89276052 2.2406297 7.3749245e-39
1.8978263 -0.88380015 2.2425625 7.3749245e-39
1.8986681 -0.88974375 2.2326715 7.3752776e-39
1.8980193 -0.87182319 2.236537 7.4671201e-39
1.8963817 -0.86053681 2.2558603 8.0188562e-39
1.8950757 -0.82443172 2.2636483 7.6518645e-39
1.8991852 -0.88672704 2.2247131 7.1919654e-39
1.8988609 -0.87776679 2.2266459 7.4671201e-39
1.8982127 -0.85984617 2.2305114 7.7422623e-39
1.8978885 -0.85088605 2.2324443 7.4671201e-39
1.8965766 -0.84847158 2.2497902 7.8344579e-39
1.8962499 -0.83944541 2.2517374 7.4685523e-39
1.895597 -0.82139289 2.2556314 7.4685523e-39
1.8952703 -0.81236666 2.2575786 7.6522205e-39
1.9006747 -0.87685645 2.2014716 7.8362628e-39
1.9003528 -0.8679623 2.2033901 7.8369817e-39
1.89873 -0.85682952 2.2225535 7.8362628e-39
1.8984059 -0.84786934 2.2244864 7.0090189e-39
1.8967713 -0.83640641 2.2437205 7.4685523e-39
1.9026672 -0.89755028 2.1799166 5.8014695e-39
1.9017016 -0.87086755 2.1856723 6.4284847e-40
1.9000893 -0.85975641 2.204704 0
1.8957648 -0.98085171 2.2982051 6.2509346e-39
1.895489 -0.9591502 2.2958872 6.3517496e-39
1.8952242 -0.94897115 2.2966607 6.5361465e-39
1.8946943 -0.92861289 2.298208 6.9060122e-39
1.8968912 -0.97287095 2.2804813 9.4936261e-39
1.8963745 -0.97850257 2.2891672 9.4929073e-39
1.8951267 -0.84687734 2.2692637 9.3085132e-39
1.8955441 -0.85583824 2.2660518 9.1252066e-39
1.898159 -0.93176115 2.2514904 1.1334298e-38
1.8980833 -0.92056018 2.2493787 1.0597087e-38
1.8976325 -0.9115665 2.2530389 1.1519398e-38
1.8994128 -0.94683713 2.2385066 1.1149895e-38
1.898795 -0.93936175 2.2448888 9.6733329e-39
1.898567 -0.92941922 2.2452281 9.3041804e-39
1.8980033 -0.92120743 2.2506568 9.9542091e-39
1.8981102 -0.9095341 2.2459061 7.1858291e-39
1.8966224 -0.9075107 2.2657771 8.1096071e-39
1.9003037 -0.94051522 2.2244828 0
1.9000772 -0.93064988 2.2248194 0
1.8990653 -0.92630291 2.2375016 5.0707512e-39
1.8985937 -0.91839302 2.2417552 0
1.8983654 -0.90845048 2.2420945 0
1.8963389 -0.91028333 2.2704506 0
1.8999532 -0.94463199 2.2304606 2.6711537e-39
1.8992598 -0.93776721 2.2380564 3.1321291e-39
1.8989962 -0.92766869 2.2388346 3.5923884e-39
1.8976299 -0.92557913 2.2570231 3.9622485e-39
1.8976247 -0.91401553 2.2538378 1.0871865e-38
1.897359 -0.90383267 2.2546232 1.1237763e-38
1.8970807 -0.89505947 2.2559757 1.0778585e-38
1.9005793 -0.95289195 2.2241814 1.1330678e-38
1.8998892 -0.94604141 2.2317352 1.1514346e-38
1.8996254 -0.93594229 2.2325151 1.123811e-38
1.8993621 -0.9258433 2.233295 1.1329949e-38
1.8979983 -0.9237386 2.25144 1.123848e-38
1.8977984 -0.91401422 2.2514496 1.0131398e-38
1.8975682 -0.90399063 2.2517915 1.0776051e-38
1.8974622 -0.89180368 2.2498164 1.1235222e-38
1.9005196 -0.95431191 2.2254007 1.0959363e-38
1.9000444 -0.94496989 2.2293034 9.8569814e-39
1.8998159 -0.93502736 2.2296424 9.9477351e-39
1.8995876 -0.92508489 2.2299814 9.8558898e-39
1.898286 -0.9229452 2.2472649 9.9462848e-39
1.8953881 -0.99644446 2.3077691 7.5319456e-39
1.8958375 -0.99406332 2.3009224 6.8984242e-39
1.8962871 -0.99168223 2.2940755 1.0415573e-38
1.8954127 -0.96078759 2.2973938 1.069215e-38
1.8951213 -0.95048958 2.2984996 1.0416276e-38
1.8948299 -0.94019127 2.2996058 1.0966579e-38
1.893392 -0.9380722 2.3187685 1.1335356e-38
1.893098 -0.92768759 2.3198838 1.1335002e-38
1.8938451 -0.93567109 2.3118641 1.1795611e-38
1.898335 -0.94290441 2.2522078 1.1888172e-38
1.8987809 -0.94054335 2.2454185 8.6660137e-39
1.8982029 -0.92011976 2.247612 9.3106796e-39
1.8972356 -0.91560644 2.2596314 0
1.9005395 -0.96645623 2.2285495 1.1699828e-38
1.900985 -0.96409506 2.2217603 1.1601849e-38
1.9004071 -0.94367158 2.2239537 1.1601843e-38
1.895013 -0.85758847 2.2738411 7.2848617e-39
1.8990543 -0.86578977 2.2206204 7.4692852e-39
1.8970977 -0.84543264 2.2417734 7.9270095e-39
1.899896 -0.87173325 2.2107294 2.7687556e-39
1.8985987 -0.86947244 2.2279155 3.9676491e-39
1.8982723 -0.86044627 2.2298627 6.728839e-39
1.9023585 -0.92247808 2.1911743 7.1851256e-39
1.9004133 -0.86871666 2.2027714 3.6734198e-40
1.8977706 -0.86436647 2.2378552 0
1.8974416 -0.85527086 2.2398171 0
1.9009306 -0.86569989 2.194813 8.4751218e-39
1.899641 -0.86339462 2.2118819 7.3705735e-39
1.8982961 -0.8613041 2.2297764 6.3564188e-39
1.8979669 -0.8522085 2.2317383 5.4319667e-39
1.9017724 -0.87164348 2.184922 7.9190753e-39
1.9014479 -0.86268318 2.1868548 8.196021e-39
1.9001626 -0.86035562 2.2038646 8.1059875e-39
1.8512037 0.03855262 2.623574 2.1183331e-39
1.8508286 0.048919942 2.6258101 3.3201119e-39
1.903692 -0.94360065 2.1787944 7.3760035e-39
1.9047116 -0.9376561 2.1631124 1.1938615e-39
1.9043924 -0.92882806 2.1650167 5.5101298e-40
1.9061668 -0.92734659 2.140219 8.2910878e-39
1.904902 -0.92585593 2.1571758 7.8304951e-39
1.9057312 -0.93171173 2.1474304 8.1027463e-39
1.8663285 -0.30308369 2.5119097 1.2813421e-38
1.8649851 -0.29513308 2.5281298 1.4838862e-38
1.8644807 -0.27316445 2.5288789 1.5206209e-38
1.8642284 -0.26218018 2.5292537 1.5390598e-38
1.8634716 -0.22922748 2.5303776 1.4652654e-38
1.8632195 -0.21824321 2.5307522 1.3271168e-38
1.8631355 -0.20623966 2.5285292 1.1246461e-38
1.8652672 -0.29393598 2.5239191 1.1612706e-38
1.865015 -0.28295162 2.5242937 1.0140443e-38
1.8647628 -0.27196735 2.5246682 9.0315564e-39
1.8651755 -0.25867185 2.51525 9.3974873e-39
1.8642581 -0.24999894 2.5254173 6.6247814e-39
1.8640056 -0.23901467 2.5257921 4.601497e-39
1.8637534 -0.2280304 2.5261667 2.9448525e-39
1.863591 -0.21612914 2.5250537 4.7952602e-39
1.8635557 -0.20402756 2.5221288 1.010559e-39
1.8629967 -0.19507752 2.5272903 2.2048212e-39
1.8689924 -0.37692329 2.4960897 5.4345227e-39
1.8684921 -0.35514614 2.4968324 7.4592112e-39
1.8682424 -0.34425753 2.4972036 5.6167279e-39
1.8692907 -0.31621644 2.4749033 7.3901258e-40
1.865549 -0.29273885 2.5197079 4.5917748e-40
1.8652967 -0.28175449 2.5200827 9.1849509e-41
1.8658999 -0.26695976 2.5076351 2.0254452e-39
1.8647922 -0.25978595 2.5208318 5.6156742e-39
1.8645401 -0.24880181 2.5212064 7.4570658e-39
1.8646182 -0.23498219 2.516243 5.5245449e-39
1.8639781 -0.20180085 2.5156975 9.1194542e-39
1.8632787 -0.19388041 2.5230796 1.2343785e-38
1.8692716 -0.37573662 2.4919155 2.4839094e-39
1.8690218 -0.36484811 2.4922867 1.83854e-39
1.8685216 -0.34307086 2.4930294 4.144151e-39
1.8682715 -0.33218238 2.4934006 5.9851924e-39
1.8680215 -0.32129389 2.493772 8.1964427e-39
1.8680375 -0.2724857 2.4798162 9.0283292e-39
1.8662714 -0.24507396 2.4963715 1.3351788e-38
1.866555 -0.23020628 2.4882865 1.1053029e-38
1.8662536 -0.21977532 2.4894917 1.0868635e-38
1.8695514 -0.37454996 2.487741 1.1609835e-38
1.8693013 -0.36366144 2.4881124 1.1886752e-38
1.8683012 -0.32010722 2.489598 1.298267e-38
1.8675145 -0.26105419 2.4837844 1.1330675e-38
1.8681896 -0.25226039 2.4720337 1.1977506e-38
1.8659979 -0.27321538 2.5080433 1.1154617e-38
1.8644506 -0.25271237 2.5235345 1.0972021e-38
1.862685 -0.24520846 2.5456853 1.124681e-38
1.8623224 -0.235192 2.5478458 1.1064218e-38
1.8619601 -0.22517565 2.5500062 1.124681e-38
1.8615978 -0.21515924 2.5521669 1.124681e-38
1.8612354 -0.20514281 2.5543275 1.1064221e-38
1.860873 -0.19512634 2.5564883 1.1339013e-38
1.8605102 -0.18510987 2.5586488 1.115642e-38
1.8646648 -0.23943509 2.516855 1.124681e-38
1.8643054 -0.2295021 2.5189974 1.0972024e-38
1.8625385 -0.22180341 2.54111 1.0971668e-38
1.8621761 -0.21178694 2.5432708 1.1523041e-38
1.8618137 -0.20177051 2.5454314 1.1246813e-38
1.8663167 -0.26589006 2.5016046 1.1340095e-38
1.8655977 -0.24602391 2.5058899 1.1433725e-38
1.8648789 -0.22615784 2.5101755 1.134153e-38
1.8631167 -0.21843106 2.5322137 1.0699044e-38
1.8627545 -0.20841464 2.5343745 1.0606495e-38
1.8623919 -0.19839823 2.536535 1.0788359e-38
1.8620297 -0.18838175 2.5386958 1.124681e-38
1.8616673 -0.17836528 2.5408564 1.1339366e-38
1.869406 -0.33207715 2.4777839 6.3560908e-39
1.8690467 -0.32214403 2.4799266 4.0526448e-39
1.8644199 -0.23509158 2.5189962 5.4435401e-39
1.8640577 -0.22507511 2.5211568 6.6431623e-39
1.8615078 -0.19712111 2.5483239 1.0881287e-38
1.8696202 -0.31879976 2.4711044 1.0410508e-38
1.8642734 -0.21168646 2.514421 1.6551913e-39
1.8635488 -0.19165364 2.5187423 1.1045371e-39
1.864852 -0.20831417 2.5055249 7.8276238e-39
1.864127 -0.18828128 2.509846 7.090765e-39
1.8637648 -0.17826487 2.5120068 4.1404894e-39
1.8634022 -0.16824833 2.5141673 3.1231243e-39
1.8650678 -0.1949254 2.4987891 1.0314369e-38
1.8647053 -0.18490899 2.5009496 1.0775348e-38
1.864343 -0.17489256 2.5031104 1.0777143e-38
1.866227 -0.37671492 2.5340292 9.6448935e-39
1.865564 -0.40117413 2.550024 9.0917155e-39
1.8653116 -0.39018992 2.5503986 8.9094823e-39
1.8650594 -0.37920564 2.5507731 8.7279791e-39
1.8648072 -0.36822128 2.5511479 8.7272812e-39
1.8685366 -0.45056134 2.5230811 8.8201775e-39
1.8682864 -0.43967283 2.5234525 8.4506691e-39
1.8666024 -0.43292975 2.5446892 7.9896882e-39
1.8663502 -0.42194554 2.5450637 7.6223462e-39
1.866098 -0.41096133 2.5454383 6.0611427e-39
1.8688157 -0.44937465 2.5189071 4.9663195e-39
1.8685658 -0.43848613 2.5192783 3.8624956e-39
1.8668846 -0.43173262 2.5404782 4.3256486e-39
1.8666325 -0.42074841 2.5408528 4.2367026e-39
1.8663801 -0.4097642 2.5412276 4.608006e-39
1.8653708 -0.36582705 2.5427258 1.0047921e-38
1.8678823 -0.41714361 2.5226626 8.941565e-39
1.8646735 -0.30851158 2.5361772 1.4010546e-38
1.8662083 -0.31573159 2.5171199 1.2352809e-38
1.865909 -0.30526015 2.5182874 1.2537199e-38
1.8676832 -0.3466309 2.5055521 1.3365533e-38
1.8674331 -0.33574241 2.5059235 1.3733591e-38
1.8671829 -0.32485393 2.506295 1.4744149e-38
1.8669327 -0.31396532 2.5066662 1.3917985e-38
1.8659928 -0.28062531 2.5102012 1.3182931e-38
1.8710378 -0.39237309 2.4723341 4.0540994e-39
1.8679626 -0.34544423 2.5013781 1.4563357e-38
1.8677126 -0.33455575 2.5017493 1.4929966e-38
1.8693264 -0.32811546 2.4777637 6.8181676e-39
1.8688751 -0.30859643 2.4784706 2.1523944e-42
1.8679489 -0.29706195 2.4879484 2.9517203e-39
1.8650938 -0.22319092 2.5063889 5.3394292e-39
1.8652414 -0.21359497 2.5016599 9.5779184e-39
1.8715672 -0.37768966 2.4609261 1.2878858e-39
1.8690416 -0.35535735 2.4893446 1.0236962e-38
1.8686881 -0.34558758 2.4914522 1.0878025e-38
1.8683345 -0.33581778 2.4935596 1.0144406e-38
1.8703127 -0.37160757 2.4764526 1.0131754e-38
1.8699594 -0.3618378 2.47856 4.9767718e-39
1.8696058 -0.35206813 2.4806674 1.0880179e-38
1.8692521 -0.3422983 2.4827752 1.0509245e-38
1.8688987 -0.33252853 2.4848826 1.0236255e-38
1.8685453 -0.32275876 2.48699 1.0511044e-38
1.8681916 -0.312989 2.4890974 1.0509245e-38
1.8678381 -0.30321932 2.4912047 1.0695429e-38
1.8674847 -0.29344961 2.4933121 1.0418849e-38
1.8671311 -0.28367978 2.4954195 1.0695434e-38
1.8654293 -0.27653155 2.5167916 1.0695434e-38
1.865073 -0.26668185 2.5189161 1.078763e-38
1.8701698 -0.34877887 2.4719903 1.0973093e-38
1.8698163 -0.33900905 2.4740977 1.0511044e-38
1.8681363 -0.33231327 2.4952953 1.0236253e-38
1.8677801 -0.32246357 2.4974201 1.0329157e-38
1.8680487 -0.29016036 2.4846349 1.078763e-38
1.8642365 -0.26598969 2.5302141 1.1153896e-38
1.8638769 -0.25605658 2.5323567 1.0879826e-38
1.8687052 -0.32899711 2.4865472 9.9607476e-39
1.8683487 -0.31914741 2.4886718 1.0512835e-38
1.8679926 -0.30929777 2.4907963 1.0695429e-38
1.8686129 -0.28687111 2.4759576 1.0972374e-38
1.8682593 -0.27710131 2.478065 1.1154968e-38
1.8665668 -0.26989922 2.499295 1.1154971e-38
1.8662105 -0.26004958 2.5014198 1.1154615e-38
1.8671354 -0.26658309 2.4905469 1.0603962e-38
1.8653834 -0.25930128 2.5125697 1.078763e-38
1.8650242 -0.24936816 2.5147123 1.0972374e-38
1.8652384 -0.23609084 2.5080328 1.1342248e-38
1.8686296 -0.26980045 2.4709258 0
1.8665307 -0.25261283 2.494925 2.859491e-39
1.8661712 -0.24267969 2.4970677 4.5204823e-39
1.8674638 -0.25920162 2.4839602 5.7103683e-39
1.8667451 -0.23933542 2.4882452 4.5075147e-39
1.8631862 -0.18163717 2.5209031 3.4094278e-39
1.862824 -0.1716207 2.5230637 3.5974639e-39
1.8653761 -0.16311567 2.4855995 1.0316888e-38
1.85961 -0.18371752 2.5706296 1.1340448e-38
1.8607767 -0.17691444 2.5526826 1.1891829e-38
1.862522 -0.16092774 2.5242035 1.2803298e-38
1.8613045 -0.16834886 2.5430169 1.1157133e-38
1.8618833 -0.16497657 2.5341206 1.1709959e-38
1.8636183 -0.15485962 2.5074315 9.8566479e-39
1.86304 -0.15823191 2.5163279 1.4693679e-39
1.863256 -0.14484321 2.5095923 9.6729825e-39
1.8540753 -0.073606007 2.6156855 1.1339366e-38
1.8550323 -0.08036536 2.6044369 1.1156417e-38
1.8546636 -0.070175275 2.6066351 1.1523041e-38
1.8552523 -0.066744424 2.5975842 1.1064224e-38
1.8562093 -0.073503658 2.5863354 1.1802155e-38
1.8567976 -0.070072927 2.5772851 4.1535327e-39
1.856429 -0.059882898 2.5794833 7.1023411e-39
1.8570174 -0.056452058 2.5704324 0
1.8576057 -0.053021327 2.5613818 9.3963942e-39
1.8567193 -0.0088298349 2.5611236 1.0501298e-38
1.8526006 -0.032845374 2.6244781 1.1432999e-38
1.8520398 -0.040339481 2.6342912 1.133901e-38
1.8526331 -0.036879502 2.6251636 1.1432643e-38
1.8529692 -0.043035582 2.6222796 1.1156414e-38
1.8553228 -0.029312443 2.5860775 1.1434092e-38
1.8559113 -0.025881624 2.5770268 3.6856826e-39
1.8559724 -0.029856339 2.5773079 1.1238842e-38
1.8570879 -0.019020075 2.5589256 1.0869358e-38
1.8568684 -0.032641035 2.565778 5.5263274e-39
1.8570434 -0.015160542 2.5584528 4.4265239e-39
1.8552233 -0.062478215 2.596782 1.0972021e-38
1.854295 -0.059985127 2.6088331 1.1064221e-38
1.8548834 -0.056554288 2.5997822 1.1156414e-38
1.8558407 -0.063313633 2.5885336 1.1617761e-38
1.8554718 -0.053123496 2.5907316 1.0883075e-38
1.8548577 -0.052374903 2.5989614 1.0972744e-38
1.8539264 -0.049794991 2.6110313 1.0972388e-38
1.8545147 -0.04636414 2.6019807 1.1249331e-38
1.8560603 -0.049692702 2.5816813 9.4994317e-39
1.8566487 -0.04626191 2.5726304 0
1.857237 -0.042831182 2.56358 8.8425016e-39
1.8551031 -0.042933352 2.5929298 1.0422815e-38
1.8556914 -0.039502621 2.5838792 1.1066037e-38
1.8562799 -0.036071766 2.5748284 1.1945789e-39
1.854274 -0.055776451 2.607935 1.004825e-38
1.8576267 -0.01175903 2.5494795 1.1942202e-39
1.8579925 -0.021862365 2.5472999 3.3085904e-39
1.859207 -0.16844934 2.5718663 1.1066016e-38
1.8588789 -0.16351102 2.5749884 1.133901e-38
1.8594624 -0.16010948 2.566015 1.1156417e-38
1.8614302 -0.13640006 2.5323002 9.490036e-39
1.86058 -0.1483161 2.5473382 1.1799268e-38
1.8607957 -0.13492739 2.5406024 1.1342248e-38
1.8615205 -0.15496016 2.5362813 1.1618842e-38
1.8611583 -0.1449438 2.5384419 1.1433728e-38
1.8617365 -0.14157151 2.5295455 7.654796e-39
1.8613743 -0.1315551 2.5317063 8.8533336e-39
1.8623151 -0.13819915 2.5206492 0
1.8592445 -0.17361426 2.572809 1.0696157e-38
1.8624616 -0.16160429 2.5252242 5.078003e-39
1.8620992 -0.15158786 2.527385 6.6431679e-39
1.8626775 -0.1482155 2.5184886 7.3468397e-40
1.856102 -0.10629281 2.5970378 1.1249331e-38
1.8566854 -0.10289127 2.5880647 1.1156417e-38
1.8563198 -0.092788026 2.5902438 1.1156414e-38
1.8559543 -0.082684711 2.5924232 1.1157133e-38
1.8572687 -0.099489726 2.5790911 1.1156414e-38
1.8569033 -0.089386478 2.5812705 1.1156417e-38
1.8578522 -0.096088186 2.5701175 1.1617391e-38
1.8574865 -0.085984878 2.5722971 1.1249687e-38
1.8586535 -0.079181843 2.5543501 4.0559099e-39
1.8596025 -0.08588355 2.5431972 3.1310361e-39
1.8592368 -0.075780243 2.5453768 2.1150863e-39
1.8612974 -0.071355946 2.5158203 1.0410553e-38
1.8571211 -0.075881623 2.5744762 1.115642e-38
1.8588713 -0.065676987 2.5475559 1.102026e-39
1.8594546 -0.062275451 2.5385826 1.0042117e-38
1.856833 -0.12649944 2.5926793 1.0972744e-38
1.8574165 -0.12309796 2.5837057 1.1249331e-38
1.8579998 -0.11969642 2.5747325 1.0881628e-38
1.8592294 -0.11759292 2.5572438 9.1183626e-39
1.8598181 -0.11416212 2.5481932 1.0315439e-38
1.8594494 -0.10397197 2.5503912 1.0867543e-38
1.8593847 -0.099388465 2.5499914 1.2892899e-39
1.8603336 -0.10609017 2.5388384 6.7216364e-39
1.8599679 -0.095986925 2.5410178 4.8809608e-39
1.8605515 -0.092585377 2.5320444 1.1329966e-38
1.8600711 -0.11489449 2.5449238 1.042317e-38
1.8606493 -0.1115222 2.5360274 1.0788729e-38
1.8602871 -0.10150578 2.5381882 1.1155713e-38
1.8616595 -0.081372365 2.5136597 1.0779329e-38
