# .PCD v0.7 - Point Cloud Data file format
VERSION 0.7
FIELDS x y z rgb
SIZE 4 4 4 4
TYPE F F F F
COUNT 1 1 1 1
WIDTH 747
HEIGHT 1
VIEWPOINT 0 0 0 1 0 0 0
POINTS 747
DATA ascii
1.4249014 1.1398358 -1.3746232 2.4795584e-39
1.422267 1.1446342 -1.3697267 1.5612034e-39
1.4196326 1.1494328 -1.3648303 8.2651947e-40
1.4169983 1.1542313 -1.3599339 0
1.4143637 1.15903 -1.3550377 0
1.4168793 1.1617956 -1.3507029 8.5479206e-44
1.4090949 1.1686268 -1.3452448 1.5304162e-38
1.4175206 1.1361971 -1.3818526 3.7670504e-39
1.414902 1.1409672 -1.3769852 4.4131653e-39
1.4122831 1.1457372 -1.3721178 3.6806323e-39
1.4096642 1.1505075 -1.3672504 3.3143553e-39
1.4070455 1.1552775 -1.3623829 2.759755e-39
1.4044266 1.1600477 -1.3575156 2.7572369e-39
1.4069291 1.1627787 -1.3532281 0
1.4042948 1.1675773 -1.3483318 0
1.3965701 1.174358 -1.3429135 8.7503606e-39
1.3939514 1.1791279 -1.338046 8.3768865e-39
1.3963915 1.1819729 -1.3336426 8.1075093e-39
1.3988007 1.1848744 -1.3291813 1.9262072e-38
1.4232043 1.123341 -1.3954859 1.0101905e-39
1.42057 1.1281396 -1.3905895 4.6911773e-39
1.4179356 1.1329381 -1.3856932 5.1525058e-39
1.4153012 1.1377366 -1.3807967 4.6908088e-39
1.4075114 1.1446939 -1.3751864 3.588773e-39
1.4048924 1.149464 -1.3703191 3.037767e-39
1.4022737 1.1542342 -1.3654516 2.6679055e-39
1.394972 1.1609049 -1.3600093 2.2072875e-39
1.397036 1.1637744 -1.3557168 2.1150919e-39
1.3944172 1.1685445 -1.3508495 1.2878704e-39
1.3917984 1.1733147 -1.3459821 0
1.3942258 1.1761248 -1.3416259 4.5917748e-40
1.3915915 1.1809232 -1.3367295 2.7550649e-40
1.388957 1.1857218 -1.3318331 2.4795584e-39
1.3913223 1.1886455 -1.327361 8.2651947e-40
1.4262437 1.1151862 -1.4043465 2.6671754e-39
1.4184042 1.1222916 -1.3985728 4.0497736e-39
1.4157698 1.12709 -1.3936764 4.8759203e-39
1.4079773 1.1341102 -1.3879896 3.4955208e-39
1.4053584 1.1388804 -1.3831224 3.4962271e-39
1.4027396 1.1436507 -1.378255 3.1274459e-39
1.3954353 1.1503791 -1.3727429 2.7604613e-39
1.3928308 1.1551232 -1.367902 2.2994831e-39
1.385146 1.161947 -1.3624157 2.2072875e-39
1.3825572 1.1666629 -1.3576039 2.0221886e-39
1.3749192 1.1734014 -1.3522046 1.8381575e-39
1.3723457 1.1780887 -1.3474215 2.5731932e-39
1.3747903 1.1808099 -1.3431684 2.6653888e-39
1.3722014 1.1855254 -1.3383564 2.7572369e-39
1.3745991 1.1883317 -1.3340161 2.3880816e-39
1.3765514 1.1913517 -1.329581 2.4795906e-39
1.378888 1.1942693 -1.3251272 2.1122164e-39
1.3811936 1.1972435 -1.3206155 1.8367099e-39
1.3785437 1.2020705 -1.3156903 7.7290018e-39
1.4188731 1.111645 -1.4114524 3.1224069e-39
1.411062 1.1187568 -1.4056605 4.4199854e-39
1.4084432 1.1235267 -1.4007931 3.772828e-39
1.4011079 1.1303651 -1.3951582 3.6816889e-39
1.3985033 1.1351092 -1.3903173 2.759755e-39
1.3958988 1.1398532 -1.3854765 3.2185626e-39
1.3881956 1.1467685 -1.379885 2.2987769e-39
1.3856066 1.1514843 -1.3750732 2.3916788e-39
1.3779503 1.1583142 -1.3695685 1.838505e-39
1.3753768 1.1630015 -1.3647856 2.0225361e-39
1.3728036 1.1676888 -1.3600029 1.838505e-39
1.365628 1.1742362 -1.3546647 2.0225361e-39
1.3630689 1.1788975 -1.3499082 2.5731876e-39
1.3650835 1.1817508 -1.3456541 2.9423344e-39
1.3625101 1.1864381 -1.3408712 5.0610388e-39
1.3599368 1.1911254 -1.3360883 4.6915276e-39
1.3623061 1.1939256 -1.3317664 5.4290927e-39
1.3547901 1.2005 -1.3265225 7.6410647e-39
1.3571284 1.2033569 -1.3221426 7.1782733e-39
1.3639232 1.2046186 -1.3180474 7.3601436e-39
1.3613045 1.2093887 -1.31318 6.4378398e-39
1.3635504 1.2124135 -1.3086287 3.7670728e-39
1.3657651 1.2154953 -1.3040193 1.4693848e-39
1.4140729 1.1105955 -1.4145392 4.603648e-39
1.4062903 1.1177132 -1.408729 3.773537e-39
1.4036715 1.1224834 -1.4038618 3.4973075e-39
1.3912452 1.1315899 -1.3973541 3.2199919e-39
1.3886563 1.1363056 -1.3925422 2.759755e-39
1.3809814 1.1432271 -1.3869326 3.03453e-39
1.3834783 1.1457369 -1.3829185 2.2072875e-39
1.3758347 1.1526017 -1.3773668 2.2994831e-39
1.3732615 1.1572891 -1.372584 2.0221886e-39
1.3660833 1.1638941 -1.3671758 2.2994831e-39
1.3635242 1.1685553 -1.3624195 2.2072875e-39
1.3609651 1.1732167 -1.3576634 2.6653888e-39
1.3584061 1.1778779 -1.3529071 2.7572369e-39
1.355847 1.182539 -1.3481506 3.4962271e-39
1.3578213 1.1854128 -1.3438865 4.5982628e-39
1.3552479 1.1901002 -1.3391037 3.773537e-39
1.3526746 1.1947874 -1.3343208 5.4290927e-39
1.3501012 1.1994748 -1.329538 6.8998815e-39
1.3475279 1.2041621 -1.3247551 7.3615729e-39
1.3546896 1.2052327 -1.3207566 7.8203959e-39
1.352085 1.209977 -1.3159158 7.2654495e-39
1.3539139 1.2131155 -1.3113812 7.5459544e-39
1.4170581 1.1023649 -1.4235125 3.957578e-39
1.4041375 1.1118997 -1.4166651 4.8759203e-39
1.3968256 1.1188017 -1.4109435 3.6816889e-39
1.3942211 1.1235456 -1.4061025 3.3118372e-39
1.3840456 1.1312894 -1.4004225 1.8392421e-39
1.3850526 1.1349145 -1.3955994 1.4715343e-39
1.38135 1.1399897 -1.390764 3.0338238e-39
1.3787611 1.1447055 -1.3859522 2.6650413e-39
1.371146 1.1515765 -1.3803822 3.03453e-39
1.3639795 1.1582134 -1.3749309 3.2185626e-39
1.3614204 1.1628746 -1.3701744 2.2072875e-39
1.3542969 1.1694332 -1.3648028 2.2072875e-39
1.3517522 1.1740686 -1.3600732 3.1267397e-39
1.3492073 1.1787038 -1.3553435 3.8657326e-39
1.3511842 1.1815196 -1.3511491 4.87557e-39
1.3531325 1.1843876 -1.3469019 4.6908088e-39
1.350559 1.1890749 -1.342119 4.0461428e-39
1.3479857 1.1937621 -1.3373361 5.6116861e-39
1.3502827 1.1965783 -1.3330216 6.9920772e-39
1.3476938 1.2012939 -1.3282099 7.5466859e-39
1.3499439 1.2041951 -1.3238083 8.19027e-39
1.3473394 1.2089394 -1.3189677 6.5278816e-39
1.3491422 1.2120721 -1.3144499 7.175772e-39
1.398435 1.1072339 -1.4245247 3.0341727e-39
1.3894335 1.115373 -1.4179193 2.8519395e-39
1.3920798 1.1177639 -1.4139954 3.4962271e-39
1.3836246 1.1260307 -1.4070284 2.1158177e-39
1.3779635 1.1311513 -1.4028722 1.8399483e-39
1.373932 1.1369635 -1.3972565 1.9325055e-39
1.3722017 1.1417414 -1.3920465 1.6566375e-39
1.3690304 1.1458639 -1.3881804 3.3118372e-39
1.3618757 1.1525325 -1.3826858 3.4973075e-39
1.3593166 1.1571938 -1.3779294 3.3118372e-39
1.3522048 1.1637843 -1.3725145 2.3909725e-39
1.344709 1.1704956 -1.3670951 2.9448652e-39
1.3421799 1.1751025 -1.3623945 4.0508442e-39
1.3396506 1.1797093 -1.3576937 4.418203e-39
1.3371215 1.1843164 -1.3529928 4.87557e-39
1.339481 1.1869605 -1.3488657 5.0563669e-39
1.3414032 1.1898226 -1.3446351 6.81019e-39
1.3432969 1.1927369 -1.3403513 6.9920772e-39
1.3407234 1.1974243 -1.3355684 7.2668872e-39
1.3381501 1.2021115 -1.3307858 8.0051599e-39
1.3403876 1.2049782 -1.3264315 8.5604665e-39
1.3377986 1.2096939 -1.3216197 6.8044881e-39
1.3352097 1.2144095 -1.3168077 6.8970425e-39
1.3929434 1.1068368 -1.427071 2.4835157e-39
1.3833165 1.1152455 -1.4203695 2.5757141e-39
1.3792826 1.1211081 -1.4146931 1.8406658e-39
1.3775483 1.1258988 -1.4094687 1.7484758e-39
1.3695937 1.1320536 -1.4049038 1.4722574e-39
1.3651315 1.1380078 -1.3992758 1.7481198e-39
1.3634095 1.1427703 -1.3940815 1.5651677e-39
1.3596249 1.1484417 -1.3885461 1.8410301e-39
1.3539791 1.1535242 -1.3844304 2.0243466e-39
1.3501129 1.1581351 -1.380226 3.3114897e-39
1.347568 1.1627704 -1.3754964 2.9448652e-39
1.3401006 1.169488 -1.3700587 3.5920226e-39
1.3375715 1.1740948 -1.365358 3.9586345e-39
1.3350422 1.1787016 -1.3606572 3.6816889e-39
1.332513 1.1833086 -1.3559564 4.2291076e-39
1.3299839 1.1879153 -1.3512557 4.5031903e-39
1.3391415 1.1871916 -1.3487093 1.0872615e-38
1.3297546 1.1952171 -1.342388 7.0828561e-39
1.3316222 1.1981256 -1.3381211 7.5448978e-39
1.3290632 1.2027869 -1.3333648 8.283525e-39
1.3308879 1.2057736 -1.3290181 9.0210873e-39
1.3283145 1.210461 -1.3242353 8.0959486e-39
1.3257412 1.2151481 -1.3194524 8.2842649e-39
1.3326391 1.216352 -1.3153896 8.8388442e-39
1.3904291 1.1025279 -1.4332973 3.5880569e-39
1.381683 1.1090657 -1.42856 2.2080134e-39
1.3749136 1.1161951 -1.4223555 2.0243424e-39
1.3775541 1.1180327 -1.4191122 3.3143553e-39
1.3697655 1.1241475 -1.4145343 1.6559228e-39
1.3607743 1.1331295 -1.4068917 1.4726133e-39
1.3570092 1.1388203 -1.4013252 1.4733266e-39
1.3552991 1.1435716 -1.3961401 1.4726133e-39
1.3535888 1.1483229 -1.3909549 2.2098211e-39
1.35255 1.1504934 -1.388683 4.3270807e-39
1.3467803 1.1554921 -1.3847165 1.8399553e-39
1.3474319 1.1598159 -1.3791703 3.128204e-39
1.3403865 1.1663917 -1.3737484 2.8533758e-39
1.3378416 1.1710269 -1.3690187 6.4286249e-40
1.3304338 1.1776942 -1.3636209 1.0101989e-39
1.3279047 1.1823009 -1.35892 2.0203879e-39
1.3253756 1.1869078 -1.3542192 3.6755835e-39
1.3228463 1.1915146 -1.3495184 5.9783008e-39
1.3251178 1.1942033 -1.3453697 6.8087649e-39
1.3225731 1.1988384 -1.3406399 7.2679676e-39
1.3200283 1.2034737 -1.3359103 8.1895512e-39
1.3218412 1.2064286 -1.331607 9.2948225e-39
1.3192822 1.21109 -1.3268508 1.0311868e-38
1.3167231 1.2157512 -1.3220943 9.2094512e-39
1.3184789 1.2188103 -1.3176849 9.3013119e-39
1.3856564 1.1004187 -1.4376736 5.7038845e-39
1.3705173 1.1112922 -1.430016 2.7604613e-39
1.3660398 1.1173331 -1.4242876 1.8410301e-39
1.3678305 1.1193517 -1.4211408 4.0508442e-39
1.3609427 1.1252471 -1.4164943 1.7495492e-39
1.3626838 1.1287264 -1.4115751 3.3143553e-39
1.3515168 1.1360316 -1.4068038 1.4715329e-39
1.349811 1.1407835 -1.4016163 1.3793317e-39
1.3481048 1.1455356 -1.3964292 2.0257773e-39
1.3463991 1.1502875 -1.3912418 1.8406742e-39
1.3453281 1.154135 -1.3869251 3.218215e-39
1.342769 1.1587964 -1.3821689 2.2987769e-39
1.3357497 1.1653779 -1.3767301 1.1038294e-39
1.3283547 1.1720796 -1.3712853 3.6734198e-40
1.3258256 1.1766864 -1.3665844 0
1.3188788 1.1831354 -1.3612809 1.3775324e-39
1.3163638 1.1877162 -1.3566067 2.1122248e-39
1.318238 1.1905069 -1.352482 3.8571105e-39
1.3157088 1.1951138 -1.3477811 5.4233516e-39
1.3131796 1.1997206 -1.3430803 6.7147994e-39
1.3106503 1.2043277 -1.3383796 7.5413273e-39
1.3081212 1.2089344 -1.3336787 9.1097124e-39
1.3103019 1.2117304 -1.3294326 1.0496943e-38
1.3077571 1.2163656 -1.3247029 8.1016869e-39
1.3137901 1.217785 -1.3207 7.4566581e-39
1.3758862 1.1018227 -1.439615 5.7056796e-39
1.3732973 1.1065383 -1.4348031 4.603648e-39
1.365715 1.1136392 -1.4289391 4.0522917e-39
1.3545444 1.121325 -1.4237026 1.8413903e-39
1.3528416 1.1260773 -1.4185137 1.6577179e-39
1.3511387 1.1308295 -1.413325 1.5644432e-39
1.3509015 1.1344706 -1.4089491 3.219294e-39
1.3417499 1.1415775 -1.4036654 1.5637286e-39
1.3400555 1.1463186 -1.3984873 1.7481198e-39
1.3383611 1.1510595 -1.3933089 1.5644432e-39
1.3386385 1.1549264 -1.3884629 1.2875018e-39
1.3381063 1.1577768 -1.3851675 2.1143856e-39
1.3311129 1.164364 -1.3797121 2.0221886e-39
1.3237463 1.1710719 -1.3742486 1.838505e-39
1.3212171 1.1756787 -1.369548 1.2856997e-39
1.3142965 1.1821336 -1.3642279 2.0232508e-39
1.3117815 1.1867143 -1.3595537 2.3891606e-39
1.3092667 1.1912951 -1.3548793 3.4901146e-39
1.3067517 1.195876 -1.3502052 5.0541963e-39
1.3085711 1.1987132 -1.3460439 6.162692e-39
1.306042 1.2033199 -1.3413432 6.8981117e-39
1.3035127 1.2079268 -1.3366424 8.1866953e-39
1.3056651 1.2107165 -1.3324144 1.0862832e-38
1.3031204 1.2153517 -1.3276846 8.2842229e-39
1.3048384 1.2183733 -1.3233352 4.2244328e-39
1.3111627 1.2197151 -1.3193184 4.8680296e-39
1.3645616 1.1032442 -1.4421183 2.6682657e-39
1.3635995 1.1079267 -1.4367373 3.3150742e-39
1.3610262 1.1126139 -1.4319544 3.037767e-39
1.3504603 1.1202621 -1.4265375 2.0247025e-39
1.3467667 1.1259676 -1.4209259 1.9332258e-39
1.3430858 1.1316504 -1.4153378 2.0254214e-39
1.3413944 1.1363916 -1.410158 2.1172611e-39
1.33569 1.1414695 -1.4060701 2.3909683e-39
1.3340005 1.1462113 -1.4008893 1.7484842e-39
1.3323113 1.1509527 -1.3957082 1.1038308e-39
1.3325675 1.1548245 -1.3908646 1.0116282e-39
1.3290209 1.1587149 -1.3874236 3.2185626e-39
1.3216671 1.1654575 -1.3819131 2.6679055e-39
1.3191378 1.1700642 -1.3772123 1.8381575e-39
1.3166087 1.1746712 -1.3725116 1.8381575e-39
1.3097141 1.1811315 -1.3671746 2.5731932e-39
1.3071992 1.1857123 -1.3625005 2.9423344e-39
1.3046843 1.1902932 -1.3578261 3.6755835e-39
1.3021694 1.1948739 -1.3531518 5.2425308e-39
1.2996545 1.1994548 -1.3484776 6.3474532e-39
1.3014336 1.2023122 -1.3443067 6.8077139e-39
1.2989044 1.2069191 -1.3396059 7.8186387e-39
1.2963752 1.2115259 -1.334905 1.0862129e-38
1.293846 1.2161328 -1.3302044 1.0495531e-38
1.2959387 1.2189732 -1.3259368 7.3532969e-39
1.3018389 1.2204219 -1.3219479 4.9591224e-39
1.3038565 1.2233994 -1.3175402 4.2251769e-39
1.362307 1.0972636 -1.4502974 1.8392407e-39
1.3714193 1.0973055 -1.446829 4.3220221e-39
1.3638628 1.1044755 -1.4408704 3.957578e-39
1.3563373 1.1115886 -1.4349697 3.5913192e-39
1.3537638 1.116276 -1.4301869 3.8682508e-39
1.346694 1.1231087 -1.424459 3.2221597e-39
1.3396528 1.1298895 -1.4187841 4.2352354e-39
1.337108 1.1345248 -1.4140545 4.0508442e-39
1.3297045 1.1414155 -1.4083807 3.4973075e-39
1.3233514 1.148169 -1.4024813 1.6544781e-39
1.3216771 1.152884 -1.3973274 1.6552039e-39
1.3200026 1.1575991 -1.3921734 1.9321468e-39
1.3195877 1.1598431 -1.3895775 3.0352503e-39
1.3170586 1.1644498 -1.3848767 3.1274459e-39
1.3145295 1.1690567 -1.3801759 2.1129605e-39
1.3076466 1.1755487 -1.3747957 2.2987769e-39
1.3051317 1.1801295 -1.3701215 3.1267397e-39
1.3026168 1.1847104 -1.3654473 3.1263922e-39
1.3001019 1.1892912 -1.360773 4.2273503e-39
1.2975869 1.1938721 -1.3560989 5.3369125e-39
1.2950721 1.1984529 -1.3514245 7.1790076e-39
1.2968252 1.2013046 -1.3472704 7.7325415e-39
1.2942959 1.2059114 -1.3425695 8.2835769e-39
1.2917668 1.2105182 -1.3378687 9.6672022e-39
1.2892376 1.2151251 -1.3331678 1.4828706e-38
1.291302 1.2179593 -1.3289186 1.5930747e-38
1.2971501 1.2193966 -1.3249632 1.0206056e-38
1.3563286 1.1027062 -1.4458649 2.9434148e-39
1.3456576 1.1102059 -1.4406695 3.2214394e-39
1.346704 1.113686 -1.4360099 3.3129344e-39
1.3403174 1.1206821 -1.4298258 2.7615501e-39
1.3366852 1.1263704 -1.4242122 2.9455854e-39
1.3350159 1.1288757 -1.4217662 5.6138539e-39
1.3324711 1.1335109 -1.4170363 3.9586471e-39
1.3230129 1.1430247 -1.4089165 2.2984111e-39
1.3172989 1.1480827 -1.4048564 1.9303727e-39
1.3156297 1.1527983 -1.3996999 1.931072e-39
1.3139603 1.1575141 -1.3945433 1.8388721e-39
1.3122909 1.1622298 -1.3893867 2.1154618e-39
1.3124503 1.1634421 -1.3878403 3.5877164e-39
1.309921 1.168049 -1.3831395 4.3281401e-39
1.3073919 1.1726558 -1.3784388 3.3168917e-39
1.3053584 1.1774174 -1.3733623 4.7855127e-39
1.3036902 1.1821533 -1.3681804 5.2443497e-39
1.300555 1.1861688 -1.3644321 5.7978808e-39
1.2972751 1.1910833 -1.3596355 6.7209301e-39
1.2904898 1.1974509 -1.3543713 7.2705012e-39
1.2879748 1.2020317 -1.3496971 8.8410513e-39
1.28546 1.2066126 -1.3450229 1.003958e-38
1.282945 1.2111933 -1.3403486 1.0221821e-38
1.2846292 1.2141175 -1.3361315 1.4829792e-38
1.2866652 1.2169453 -1.3319004 1.6484972e-38
1.2924613 1.2183714 -1.3279786 1.1322022e-38
1.3342147 1.1206003 -1.4322141 2.6700705e-39
1.3329238 1.1232265 -1.4294776 6.1666577e-39
1.325443 1.1286228 -1.4256656 2.9441435e-39
1.323766 1.1333659 -1.4204782 3.4991235e-39
1.3169657 1.1429445 -1.4112824 2.1161765e-39
1.3179586 1.1440071 -1.4096071 2.6653888e-39
1.3101503 1.1499803 -1.4052101 1.1949475e-39
1.308485 1.1546967 -1.4000514 1.3789842e-39
1.3068199 1.1594127 -1.3948923 2.0261374e-39
1.3078419 1.1624345 -1.3908038 4.6025942e-39
1.3053128 1.1670413 -1.386103 5.155768e-39
1.3027835 1.171648 -1.3814021 6.0809459e-39
1.3011436 1.1765218 -1.3760409 4.7848135e-39
1.2934521 1.1827064 -1.3713409 6.8188641e-39
1.2936844 1.1863624 -1.3667707 6.6283631e-39
1.2928152 1.1908284 -1.3616202 7.178646e-39
1.2859075 1.196449 -1.3573182 7.1779552e-39
1.2833925 1.2010297 -1.3526438 8.8381828e-39
1.2808777 1.2056106 -1.3479697 1.0681e-38
1.2783628 1.2101914 -1.3432955 1.0497699e-38
1.2800207 1.21311 -1.3390951 1.2616033e-38
1.2820283 1.2159317 -1.3348824 1.2339079e-38
1.2877723 1.2173463 -1.3309939 8.3754222e-39
1.3316772 1.114827 -1.4402449 2.8530213e-39
1.3299918 1.119593 -1.435033 2.393848e-39
1.3327055 1.1200501 -1.4334546 4.6962136e-39
1.3193377 1.1285353 -1.4280622 2.3009237e-39
1.3176657 1.133279 -1.4228719 2.2090994e-39
1.3139553 1.138994 -1.4172554 1.9325055e-39
1.3133502 1.1429994 -1.4125707 2.759755e-39
1.3065186 1.148801 -1.408018 1.2878563e-39
1.3048553 1.153533 -1.4028389 1.3797031e-39
1.303192 1.1582651 -1.3976603 2.39492e-39
1.3015288 1.162997 -1.3924811 2.5789567e-39
1.3007042 1.1660337 -1.3890667 5.5274274e-39
1.2967176 1.1716915 -1.3836236 3.9568661e-39
1.295053 1.1764404 -1.3784246 4.2309208e-39
1.2915862 1.1819743 -1.3729384 5.0603242e-39
1.2857862 1.1870583 -1.3688788 6.2559877e-39
1.2841295 1.1917965 -1.3636899 7.0867993e-39
1.2850676 1.1955009 -1.3587958 6.5321808e-39
1.2788101 1.2000278 -1.3555908 9.2062394e-39
1.2804707 1.2028886 -1.3514603 1.1693341e-38
1.2779416 1.2074953 -1.3467593 1.0312218e-38
1.2754123 1.2121022 -1.3420587 9.941994e-39
1.2773916 1.2149178 -1.337864 9.3877216e-39
1.3375818 1.1074876 -1.447031 4.6036662e-39
1.3350084 1.112175 -1.4422482 4.6036662e-39
1.3208799 1.1224447 -1.4349526 2.3931263e-39
1.3177603 1.1262825 -1.4314163 2.3023558e-39
1.314235 1.1319511 -1.4257869 2.209807e-39
1.3125644 1.136712 -1.420575 1.7470366e-39
1.306211 1.143646 -1.4144547 1.378617e-39
1.3030748 1.1475232 -1.4108762 1.9303503e-39
1.3014131 1.1522726 -1.4056754 1.6548508e-39
1.2997513 1.1570218 -1.4004745 2.3023684e-39
1.2980896 1.1617712 -1.395274 2.3949284e-39
1.2922649 1.1668702 -1.3912051 2.7615529e-39
1.2906052 1.1716199 -1.3860033 3.5884353e-39
1.2910376 1.1742398 -1.3826287 5.6178196e-39
1.2872857 1.1811192 -1.3755994 5.0588878e-39
1.2859792 1.1834534 -1.373227 5.8893702e-39
1.28345 1.1880603 -1.3685262 6.6262164e-39
1.2769789 1.1936518 -1.364096 6.808444e-39
1.2796589 1.1966177 -1.359454 7.9154698e-39
1.2758623 1.2018808 -1.3544239 1.151256e-38
1.2778443 1.2046334 -1.3503056 1.0127127e-38
1.2768614 1.2122561 -1.3413267 8.1887875e-39
1.3226405 1.1106056 -1.4488101 2.4842527e-39
1.3209609 1.115389 -1.4435741 3.58988e-39
1.3115871 1.1262156 -1.4338126 2.2090924e-39
1.3080921 1.1318805 -1.4281769 2.5764386e-39
1.3044441 1.1376033 -1.422527 1.931788e-39
1.3027855 1.1423531 -1.4173245 1.3793359e-39
1.3016043 1.1455909 -1.413797 3.1267397e-39
1.2952907 1.152204 -1.4080549 2.3906152e-39
1.2936339 1.1569544 -1.4028513 2.9448596e-39
1.2919772 1.1617045 -1.3976476 3.0374181e-39
1.2914875 1.1640183 -1.3949937 5.1586393e-39
1.2850765 1.1687329 -1.3916165 3.4069237e-39
1.2828207 1.1763092 -1.3831717 5.0624864e-39
1.2838999 1.1778389 -1.3808914 7.3648646e-39
1.2801101 1.1829838 -1.3760034 5.7968088e-39
1.2784549 1.1877342 -1.3707987 6.5322116e-39
1.2726061 1.1928356 -1.3667365 7.5485076e-39
1.273526 1.1965452 -1.3618425 9.3913173e-39
1.2757523 1.1989843 -1.3580171 1.151256e-38
1.3147622 1.1153327 -1.4459674 3.405472e-39
1.311272 1.1210285 -1.4402913 2.8515905e-39
1.3092871 1.1284416 -1.4319456 7.0897224e-39
1.3067423 1.1330768 -1.4272158 6.2592135e-39
1.296663 1.1422898 -1.4196979 2.3913298e-39
1.2950093 1.1470404 -1.4144926 2.8522996e-39
1.2891515 1.1521463 -1.4104278 3.4976746e-39
1.2874995 1.1568973 -1.4052212 3.9579423e-39
1.2858477 1.1616483 -1.4000148 3.8693312e-39
1.2868792 1.1630107 -1.3979574 5.6163874e-39
1.2843499 1.1676176 -1.3932565 6.0734083e-39
1.2755483 1.1742023 -1.388482 6.1688339e-39
1.2756333 1.1781681 -1.3835874 7.4591916e-39
1.2739828 1.1829193 -1.3783802 6.810595e-39
1.2742332 1.1860451 -1.3744533 7.2712298e-39
1.2690281 1.1917151 -1.3694519 8.0105647e-39
1.2691748 1.1952586 -1.3650517 1.280437e-38
1.2720386 1.1986364 -1.359836 1.2157228e-38
1.3071952 1.1227925 -1.4396572 5.5259743e-39
1.299975 1.1297551 -1.4338266 5.8943868e-39
1.3094128 1.1316042 -1.4280204 5.3376201e-39
1.2905236 1.1422371 -1.4220647 2.669716e-39
1.2888749 1.1469885 -1.4168563 2.4842626e-39
1.2898583 1.1481825 -1.4150233 4.6947899e-39
1.2873291 1.1527894 -1.4103224 5.0650045e-39
1.280308 1.1587502 -1.4056457 5.3437578e-39
1.2786605 1.1635017 -1.4004369 4.973176e-39
1.2796251 1.1671044 -1.3956574 5.4345017e-39
1.2737187 1.1722286 -1.3915886 7.1837145e-39
1.2694842 1.1781132 -1.3859605 8.1946155e-39
1.2678384 1.1828653 -1.3807504 7.0850169e-39
1.2687713 1.1865354 -1.3759001 7.9176516e-39
1.267459 1.1897053 -1.3725048 9.3899146e-39
1.2683532 1.1934564 -1.36757 1.2895498e-38
1.3025582 1.1217786 -1.442639 4.6947899e-39
1.2953666 1.1287473 -1.4367901 4.5129167e-39
1.2926303 1.1343545 -1.4309405 4.8788014e-39
1.2903082 1.137961 -1.4273885 4.7880589e-39
1.2902184 1.1404043 -1.4244263 6.7201748e-39
1.2799615 1.1496726 -1.4169071 4.237399e-39
1.2800435 1.1535887 -1.4120742 4.0526617e-39
1.2767576 1.1575112 -1.4084963 5.5259785e-39
1.2734077 1.163082 -1.4029211 5.3408711e-39
1.2734653 1.16705 -1.3980339 5.8022178e-39
1.2675371 1.1721791 -1.3939672 7.8287168e-39
1.2700747 1.174816 -1.3897822 1.2252623e-38
1.2677501 1.1801373 -1.3841286 8.1917274e-39
1.2660934 1.1849294 -1.3788735 1.1050516e-38
1.2969909 1.1233191 -1.4428376 3.8660858e-39
1.2907583 1.1277398 -1.4397538 4.6958633e-39
1.2873708 1.1328967 -1.4347003 2.6700677e-39
1.2874626 1.1344321 -1.4327829 5.2454315e-39
1.2856663 1.1393708 -1.4274006 6.9967715e-39
1.2781538 1.1475644 -1.4201699 5.1593637e-39
1.2748144 1.1531554 -1.4145659 4.8834901e-39
1.2705711 1.1574655 -1.410872 5.5259841e-39
1.2672503 1.163033 -1.4052898 6.1724227e-39
1.2672882 1.1670063 -1.4004035 6.9081842e-39
1.2619572 1.1692353 -1.3996689 7.550325e-39
1.2642833 1.1748605 -1.3918989 9.5771687e-39
1.2844771 1.1233081 -1.4475434 2.9437792e-39
1.2828368 1.1280786 -1.4423084 2.8530269e-39
1.2811965 1.1328492 -1.4370736 2.8519507e-39
1.2769125 1.1380441 -1.4323096 4.052642e-39
1.2773938 1.1401443 -1.4295539 6.4436047e-39
1.2702891 1.148351 -1.4221545 4.7902197e-39
1.2686566 1.1531112 -1.4169292 4.3303093e-39
1.2668527 1.1563675 -1.4136126 5.9883999e-39
1.2627308 1.1622018 -1.408004 6.6315875e-39
1.2765876 1.1241471 -1.4494727 3.9568549e-39
1.2766403 1.1280407 -1.4446785 3.3114911e-39
1.2733285 1.133669 -1.4390185 3.0363405e-39
1.278932 1.1345632 -1.4358209 5.1521499e-39
1.2690817 1.1409703 -1.4316576 5.1528631e-39
1.2626059 1.1490642 -1.4241607 5.0660737e-39
1.2624818 1.1530776 -1.4192859 4.3288786e-39
1.2565093 1.1582053 -1.4152375 4.6036564e-39
1.2628882 1.1591923 -1.411635 9.2062226e-39
1.2665406 1.144407 -1.4283959 6.3503147e-39
1.2627351 1.1503462 -1.4225402 6.3485266e-39
1.3036329 1.1282696 -1.4342766 3.6817015e-39
1.3031746 1.137086 -1.4236374 7.9107937e-39
1.2689686 1.1553884 -1.4140202 8.5597882e-39
1.2653774 1.1538239 -1.4172847 1.0857444e-38
1.2519851 1.1467762 -1.4309486 7.2726395e-39
1.2470175 1.1520779 -1.4263101 9.3016328e-39
1.2476269 1.1560667 -1.4211903 1.2065722e-38
1.2421809 1.1512071 -1.4291915 1.0406582e-38
1.4049352 1.1245793 -1.4008175 0
1.4038892 1.1295214 -1.3951498 1.0369609e-43
1.4028428 1.1004792 -1.431155 5.5101298e-40
1.3840019 1.1222004 -1.411584 1.838505e-39
1.3849607 1.1394925 -1.3900203 0
1.3925313 1.0935812 -1.4434798 1.3778912e-39
1.3914912 1.0984945 -1.4378452 3.0348804e-39
1.371673 1.147066 -1.3857155 0
1.3808262 1.0918757 -1.4499602 2.6686118e-39
1.3747548 1.0991307 -1.4433405 2.1150919e-39
1.3737274 1.103984 -1.4377742 1.3775366e-39
1.3777258 1.1065222 -1.4331627 1.6544739e-39
1.3634535 1.1525182 -1.3821119 0
1.3746252 1.0875958 -1.4575336 2.0225361e-39
1.3685901 1.0948759 -1.4508693 2.115445e-39
1.3675628 1.0997293 -1.4453031 1.8392211e-39
1.3665353 1.1045827 -1.4397367 1.3775366e-39
1.365508 1.109436 -1.4341705 8.279544e-40
1.3503116 1.1599948 -1.3778712 0
1.3492903 1.1648195 -1.3723378 0
1.3482691 1.1696441 -1.3668046 8.5479206e-44
1.3624254 1.0906212 -1.4583981 1.5619209e-39
1.3613981 1.0954746 -1.4528317 1.3775324e-39
1.3603708 1.1003278 -1.4472655 1.4700854e-39
1.3583159 1.1100348 -1.4361333 3.6734198e-40
1.3572886 1.1148882 -1.4305668 7.3576017e-40
1.3431622 1.1605899 -1.379822 3.6734198e-40
1.3421409 1.1654147 -1.3742888 1.5612118e-39
1.3411196 1.1702391 -1.3687555 1.8439126e-40
1.34496 1.173129 -1.363772 0
1.3439325 1.1779824 -1.3582059 1.7235971e-43
1.3562608 1.0863665 -1.4659268 2.7582935e-39
1.3552336 1.0912199 -1.4603605 2.0203809e-39
1.3542061 1.0960733 -1.4547944 6.4320721e-40
1.3462257 1.1129382 -1.437106 1.0101905e-39
1.3452044 1.1177629 -1.4315728 8.279544e-40
1.3360126 1.161185 -1.3817731 1.0101905e-39
1.3349913 1.1660097 -1.3762398 1.5612118e-39
1.3339701 1.1708343 -1.3707066 3.0363111e-39
1.337768 1.1737278 -1.3657346 3.4965774e-39
1.3367406 1.1785811 -1.3601685 0
1.3405201 1.1815605 -1.3550977 9.0370088e-39
1.3549883 1.0796382 -1.4746546 2.6679055e-39
1.3490689 1.0869651 -1.4678893 2.2998335e-39
1.3480414 1.0918188 -1.4623232 1.4697267e-39
1.3470141 1.0966719 -1.4567569 8.279544e-40
1.3459867 1.1015253 -1.4511907 1.1041783e-39
1.3400977 1.1087086 -1.4445903 1.6541151e-39
1.3349911 1.1328322 -1.4169239 4.5918589e-40
1.3288633 1.1617802 -1.3837241 1.6534075e-39
1.327842 1.1666049 -1.3781906 2.5731932e-39
1.3268207 1.1714295 -1.3726575 2.7582935e-39
1.3305759 1.1743262 -1.3676971 2.8501388e-39
1.3295486 1.1791797 -1.3621309 4.5064147e-39
1.3332857 1.1821628 -1.3570719 1.102026e-39
1.337407 1.1850498 -1.3519864 4.8767429e-39
1.3429043 1.0827104 -1.4754181 2.2072875e-39
1.3418769 1.087564 -1.469852 2.2072875e-39
1.3408495 1.0924172 -1.4642859 2.7582935e-39
1.3349909 1.0996544 -1.457608 2.2072875e-39
1.3339695 1.1044792 -1.4520745 2.3916788e-39
1.3329482 1.1093038 -1.4465413 1.8381575e-39
1.3319269 1.1141285 -1.441008 1.011631e-39
1.3309057 1.1189532 -1.4354748 8.2724394e-40
1.3278416 1.1334271 -1.4188747 2.1143856e-39
1.3268204 1.1382519 -1.4133415 2.1143856e-39
1.3173577 1.1642183 -1.3850485 2.5782561e-39
1.3206925 1.1672 -1.3801416 3.2199919e-39
1.3196713 1.1720246 -1.3746083 2.9426819e-39
1.323384 1.1749251 -1.3696597 3.9518144e-39
1.3223566 1.1797783 -1.3640935 4.9645188e-39
1.3311664 1.1807424 -1.3596081 5.796764e-39
1.3348422 1.1838175 -1.3544588 5.8864401e-39
1.333796 1.1887594 -1.3487911 5.8867988e-39
1.3357123 1.0833092 -1.4773809 2.7582935e-39
1.3346848 1.0881624 -1.4718145 3.0338238e-39
1.3288625 1.0954249 -1.4650921 2.2994831e-39
1.3278413 1.1002495 -1.4595588 1.841742e-39
1.32682 1.1050743 -1.4540255 2.1179828e-39
1.3257987 1.1098989 -1.4484922 2.1143856e-39
1.3247775 1.1147234 -1.442959 1.6534075e-39
1.313543 1.1677951 -1.3820926 2.2072875e-39
1.3125217 1.1726198 -1.3765594 3.5833878e-39
1.3161919 1.1755236 -1.3716223 5.2425308e-39
1.3151644 1.1803772 -1.3660561 5.2425308e-39
1.3188165 1.1833671 -1.3610202 6.4399754e-39
1.3228457 1.1862618 -1.3559599 6.440002e-39
1.3264728 1.1893691 -1.3507895 5.4240578e-39
1.3332847 1.0814449 -1.480577 2.4802773e-39
1.3274928 1.0887613 -1.4737772 1.3775324e-39
1.3264655 1.0936146 -1.4682109 1.3775324e-39
1.3206919 1.1008447 -1.4615099 7.3504691e-40
1.3196706 1.1056694 -1.4559766 4.5917748e-40
1.3186493 1.110494 -1.4504433 1.011631e-39
1.3176279 1.1153187 -1.44491 1.3804163e-39
1.3166066 1.1201434 -1.4393766 1.3811226e-39
1.3071996 1.1462086 -1.4109416 6.4320721e-40
1.3031367 1.1654021 -1.3889291 0
1.3063936 1.1683903 -1.3840437 1.2856997e-39
1.3053724 1.1732149 -1.3785104 2.5731932e-39
1.311582 1.1839694 -1.3629944 6.4385587e-39
1.315565 1.1868678 -1.3579466 6.5314563e-39
1.3191495 1.1899788 -1.3527879 5.5158807e-39
1.3181034 1.1949207 -1.3471202 5.1525058e-39
1.3250167 1.0869292 -1.4769521 2.3891606e-39
1.3192735 1.0942132 -1.4701735 2.0225361e-39
1.3182461 1.0990666 -1.4646072 2.2072875e-39
1.3172187 1.1039201 -1.459041 1.8381575e-39
1.3161914 1.1087734 -1.4534748 7.3504691e-40
1.3038627 1.1670145 -1.3866799 0
1.3028355 1.1718676 -1.3811136 2.0203851e-39
1.3082844 1.1874738 -1.3599335 7.3601632e-39
1.3118263 1.1905884 -1.3547863 6.4392789e-39
1.3107803 1.1955302 -1.3491184 6.4385699e-39
1.3188156 1.0826494 -1.4845254 2.6653888e-39
1.317782 1.0875316 -1.4789263 2.7608088e-39
1.3167486 1.0924135 -1.473327 3.130313e-39
1.3110541 1.0996653 -1.4665698 4.4199854e-39
1.3100268 1.1045187 -1.4610035 3.4051104e-39
1.3089993 1.1093723 -1.4554374 3.0338238e-39
1.307972 1.1142255 -1.4498712 3.0352503e-39
1.2966707 1.1676129 -1.3886424 9.1835496e-40
1.3105476 1.0881338 -1.4809004 2.8533758e-39
1.309514 1.0930159 -1.4753013 3.4973075e-39
1.3084806 1.0978979 -1.469702 3.4973075e-39
1.3074472 1.10278 -1.464103 3.0370608e-39
1.3018074 1.1099708 -1.4574 4.0490715e-39
1.3053802 1.1125442 -1.4529045 3.7738845e-39
1.3043468 1.1174264 -1.4473053 2.4845806e-39
1.3033133 1.1223085 -1.4417062 7.3576017e-40
1.3022798 1.1271907 -1.436107 3.6734198e-40
1.2966704 1.1342376 -1.4295686 9.1835496e-41
1.2956431 1.1390911 -1.4240024 4.5917748e-40
1.287424 1.1779184 -1.3794726 3.3979302e-39
1.3022795 1.093618 -1.4772755 3.772828e-39
1.3012462 1.0985 -1.4716761 3.3150644e-39
1.3002126 1.1033822 -1.4660771 3.1299627e-39
1.2991792 1.1082642 -1.4604778 2.8526695e-39
1.2981458 1.1131464 -1.4548787 2.1143856e-39
1.2971122 1.1180286 -1.4492795 1.3811226e-39
1.2960788 1.1229106 -1.4436804 7.3576017e-40
1.2950453 1.1277928 -1.4380813 3.6734198e-40
1.2884511 1.1396898 -1.4259651 1.4697267e-39
1.2989227 1.0965468 -1.4749428 2.2987769e-39
1.292978 1.1039844 -1.4680513 2.3020139e-39
1.2919446 1.1088667 -1.4624522 1.8413945e-39
1.2909111 1.1137487 -1.4568529 1.6544739e-39
1.2888441 1.1235131 -1.4456546 7.3576017e-40
1.289562 1.1069793 -1.4656599 2.1143856e-39
1.2836766 1.1143508 -1.458827 2.8533758e-39
1.2888095 1.095407 -1.4801325 2.2065813e-39
1.2833213 1.102672 -1.4732814 3.3143553e-39
1.2822813 1.1075853 -1.4676466 3.3143553e-39
1.2764419 1.1149532 -1.4608014 4.1430258e-39
1.2754085 1.1198353 -1.4552021 5.0650045e-39
1.2750006 1.1081913 -1.4696332 3.7760551e-39
1.2692075 1.1155553 -1.4627753 3.9604464e-39
1.2681741 1.1204375 -1.4571762 4.3281401e-39
1.2671405 1.1253196 -1.4515772 3.4076286e-39
1.2661071 1.1302017 -1.4459779 3.22251e-39
1.2666799 1.1137106 -1.4659853 2.6711551e-39
1.2609394 1.1210397 -1.4591506 3.8682508e-39
1.2604395 1.1431899 -1.4321761 4.1419706e-39
1.2593992 1.1143167 -1.4679722 3.2218122e-39
1.2583591 1.11923 -1.4623373 3.8682508e-39
1.2573191 1.1241431 -1.4567022 3.7757048e-39
1.2562791 1.1290563 -1.4510674 4.6969128e-39
1.2464705 1.1558168 -1.4219306 5.6113357e-39
1.2500387 1.1585357 -1.4172583 7.8218603e-39
1.2489986 1.163449 -1.4116236 9.0236474e-39
1.252194 1.1664231 -1.4067785 7.455261e-39
1.2510786 1.1198361 -1.464324 3.3150644e-39
1.2500385 1.1247492 -1.458689 3.1289061e-39
1.2489984 1.1296624 -1.4530542 4.7884092e-39
1.2396399 1.1577584 -1.4221108 1.6305656e-38
1.3692782 1.0915239 -1.4547218 5.4290927e-39
1.3596061 1.0929811 -1.4565612 5.5212883e-39
1.3570172 1.0976969 -1.4517496 5.8900708e-39
1.3586078 1.0992281 -1.4492755 3.4029524e-39
1.3577437 1.1035963 -1.4442428 2.3927662e-39
1.3571823 1.0941926 -1.4559846 5.5216583e-39
1.3497109 1.1013811 -1.4499712 5.982635e-39
1.3475826 1.0956339 -1.4578167 5.982635e-39
1.3449936 1.1003497 -1.4530048 5.6163874e-39
1.3428653 1.0946025 -1.4608502 4.7884092e-39
1.3402764 1.0993183 -1.4560384 4.0497736e-39
1.3303581 1.1143584 -1.4413142 3.2196416e-39
1.3189688 1.1203556 -1.438231 4.6897452e-39
1.3235152 1.104412 -1.4560771 4.6958633e-39
1.3248634 1.108398 -1.4506836 3.9539724e-39
1.3178217 1.1158015 -1.4442453 4.5986187e-39
1.3169558 1.1062051 -1.4563376 4.6911703e-39
1.311865 1.1152544 -1.4471498 5.703167e-39
1.3027523 1.1123147 -1.4541712 4.1401573e-39
1.2952597 1.1127337 -1.4564672 4.3277926e-39
1.3234177 1.1301968 -1.424495 9.6600275e-39
1.3099166 1.1373414 -1.4207963 7.3565269e-39
1.2720736 1.1328602 -1.4404808 3.9528822e-39
1.2831426 1.1002207 -1.4763542 4.6929752e-39
1.2611638 1.135604 -1.4412069 4.3202466e-39
1.2596145 1.1406304 -1.4356242 5.6995699e-39
1.2602639 1.1320791 -1.4458668 5.3368914e-39
1.2477417 1.1399002 -1.4409714 7.1829901e-39
1.2461919 1.1449406 -1.435372 7.3655694e-39
1.3923807 1.0819306 -1.4578229 0
1.3515799 1.0707624 -1.4868165 2.3909725e-39
1.3494246 1.0686727 -1.4901869 2.2072875e-39
1.3322055 1.0744697 -1.4895352 2.6653888e-39
1.3311656 1.0793829 -1.4839002 2.3891606e-39
1.3249248 1.0750759 -1.4915218 4.04401e-39
1.3222871 1.0732007 -1.49481 3.773537e-39
1.316604 1.080595 -1.4878738 2.7575844e-39
1.321 1.0661535 -1.5039345 4.6958633e-39
1.3149638 1.0738103 -1.4968085 3.9586471e-39
1.3139176 1.0787523 -1.4911406 3.2196416e-39
1.3082833 1.0861143 -1.4842257 3.1299627e-39
1.3136308 1.0667667 -1.5059453 4.5136202e-39
1.3125781 1.0717398 -1.5002418 3.8657326e-39
1.3065944 1.0793619 -1.493139 2.759755e-39
1.3010026 1.0867203 -1.4862125 3.037767e-39
1.2999626 1.0916336 -1.4805776 3.037767e-39
1.3107827 1.0648812 -1.5093254 4.6036662e-39
1.3052088 1.0723534 -1.5022528 3.4966012e-39
1.3041559 1.0773265 -1.4965494 2.8526695e-39
1.298225 1.0849136 -1.4894696 2.4835269e-39
1.297179 1.0898554 -1.4838018 1.841742e-39
1.2961329 1.0947974 -1.478134 1.6544739e-39
1.290602 1.102066 -1.4712948 1.841742e-39
1.2978394 1.0729668 -1.5042639 4.9738627e-39
1.2909018 1.0855231 -1.4914681 2.0232508e-39
1.2898556 1.0904651 -1.4858001 2.0257829e-39
1.2904701 1.0735803 -1.5062748 5.7114277e-39
1.2835786 1.0861326 -1.4934664 3.219294e-39
1.2825325 1.0910746 -1.4877985 3.7764013e-39
1.2862593 1.0934724 -1.4834608 3.4998242e-39
1.2804402 1.1009585 -1.4764631 3.5913136e-39
1.282048 1.0791667 -1.5025822 4.3277898e-39
1.2809952 1.0841399 -1.4968787 4.0508442e-39
1.2731169 1.1015681 -1.4784614 3.3150742e-39
1.2790176 1.0773528 -1.5059429 3.9518144e-39
1.273626 1.0847534 -1.4988897 4.3281401e-39
1.2657938 1.1021779 -1.4804598 3.6809827e-39
1.2647476 1.1071197 -1.474792 3.2189129e-39
1.265204 1.0903397 -1.4951972 3.2218122e-39
1.2641513 1.0953128 -1.4894937 3.6809827e-39
1.2563783 1.1126713 -1.4711225 4.0508442e-39
1.249055 1.1132808 -1.4731209 4.1430398e-39
1.411538 1.1172421 -1.4073393 0
