# .PCD v0.7 - Point Cloud Data file format
VERSION 0.7
FIELDS x y z rgb
SIZE 4 4 4 4
TYPE F F F F
COUNT 1 1 1 1
WIDTH 597
HEIGHT 1
VIEWPOINT 0 0 0 1 0 0 0
POINTS 597
DATA ascii
-1.6429073 1.5804855 -0.22259796 7.3540424e-40
-1.7040282 1.5270404 -0.20837185 6.4356594e-40
-1.6988013 1.5332124 -0.20565403 0
-1.6927992 1.5583246 -0.15825281 0
-1.6887736 1.5203001 -0.26124924 0
-1.6355479 1.5845972 -0.23001856 0
-1.7066059 1.5184959 -0.22322649 1.7495464e-39
-1.6958483 1.5567809 -0.15478553 0
-1.6917934 1.5281883 -0.2346815 8.2939633e-40
-1.7155073 1.5206817 -0.19666299 6.4392467e-40
-1.6789598 1.5297288 -0.26145217 0
-1.6784725 1.5356574 -0.24804801 1.1045371e-39
-1.6936647 1.5210396 -0.24778852 1.6577025e-39
-1.7128333 1.5190299 -0.2070878 1.0123429e-39
-1.5809833 1.6434247 -0.21541089 4.9814507e-39
-1.5771871 1.6482331 -0.21263683 5.9956096e-39
-1.6210368 1.5986767 -0.22997898 5.0700352e-39
-1.5850924 1.6419464 -0.20925955 5.8104925e-39
-1.5812005 1.6466662 -0.20693095 5.4427932e-39
-1.5786859 1.6502478 -0.20411858 5.2576915e-39
-1.5950378 1.6339153 -0.2053102 3.2297337e-39
-1.5908678 1.6386288 -0.20365895 5.5357035e-39
-1.5869186 1.6433632 -0.20143092 5.4424302e-39
-1.582953 1.6480625 -0.19932753 5.3484395e-39
-1.6357203 1.5894153 -0.21777102 9.1841101e-41
-1.598092 1.6332124 -0.19976559 5.8108624e-39
-1.5919491 1.6406138 -0.19620797 4.523369e-39
-1.5903304 1.6428176 -0.19464849 5.1647686e-39
-1.6000586 1.6339725 -0.19321577 5.3506116e-39
-1.5964901 1.6380943 -0.19158554 4.8889215e-39
-1.594347 1.6412563 -0.1889205 5.2562537e-39
-1.607182 1.6258042 -0.19632266 6.3629432e-39
-1.6029574 1.6309921 -0.19363643 5.1662077e-39
-1.6007775 1.6355132 -0.18771921 5.1655014e-39
-1.5983597 1.6397011 -0.18318796 5.6264782e-39
-1.6158525 1.6200132 -0.18990569 6.5462527e-39
-1.6114326 1.6243293 -0.18982564 5.902335e-39
-1.6082323 1.6285925 -0.18697229 3.9698449e-39
-1.6043456 1.6333489 -0.1845412 4.7970734e-39
-1.596074 1.6454868 -0.17441626 5.8115883e-39
-1.6196086 1.6165822 -0.18939105 6.5451793e-39
-1.6164352 1.6218823 -0.1839269 4.8889215e-39
-1.6125852 1.6263227 -0.18218458 5.1665636e-39
-1.6090276 1.6309184 -0.17936471 6.1785561e-39
-1.6056076 1.6361647 -0.17461857 5.994532e-39
-1.593275 1.6568375 -0.15319535 4.3368296e-39
-1.5869281 1.6647961 -0.14875498 4.8867453e-39
-1.6305698 1.6042204 -0.19366372 2.8588072e-39
-1.6210023 1.6193483 -0.17927788 4.98112e-39
-1.6172234 1.6238872 -0.17712456 6.0863591e-39
-1.6143913 1.626701 -0.17695494 5.9041273e-39
-1.612896 1.6310197 -0.16990541 5.810138e-39
-1.6086261 1.6352216 -0.1697489 5.8097764e-39
-1.5951457 1.6587701 -0.1439943 4.0602399e-39
-1.6275803 1.6139992 -0.17675796 5.9945278e-39
-1.6228945 1.6213033 -0.16997056 5.3506158e-39
-1.6209375 1.6241246 -0.1676987 5.8094177e-39
-1.6173692 1.6289346 -0.1643783 5.4406324e-39
-1.5996608 1.6562653 -0.1393984 3.9687435e-39
-1.641979 1.5991757 -0.1788923 7.7433847e-39
-1.6330837 1.6085773 -0.17697495 6.3625873e-39
-1.6286312 1.6171106 -0.16661187 5.8104925e-39
-1.6209141 1.627444 -0.15959968 5.0707681e-39
-1.6077782 1.6497567 -0.13606045 2.8624029e-39
-1.6045355 1.6528389 -0.13620861 3.6903419e-39
-1.6401289 1.6029881 -0.17393161 5.9023266e-39
-1.6373789 1.607258 -0.16998912 5.4410121e-39
-1.6347039 1.6117468 -0.16533071 4.8900034e-39
-1.6321838 1.6138638 -0.16612956 5.9030469e-39
-1.6263746 1.6221559 -0.15959007 5.1636853e-39
-1.6256181 1.6249217 -0.15459651 3.5052542e-39
-1.6233169 1.6290179 -0.15001254 3.8732997e-39
-1.613543 1.6448746 -0.13432887 3.4119516e-39
-1.6100316 1.6499387 -0.13024889 2.5832769e-39
-1.6466095 1.603476 -0.15730393 2.2116259e-39
-1.6375344 1.6091344 -0.16501015 3.2319113e-39
-1.6348687 1.6134225 -0.16082188 5.3487927e-39
-1.6303985 1.6187142 -0.15846488 4.795256e-39
-1.6277908 1.6234194 -0.15311486 4.2413675e-39
-1.6138537 1.6483096 -0.12515095 3.3211965e-39
-1.6411988 1.6074995 -0.16030127 4.8899683e-39
-1.6384798 1.6112175 -0.15764055 5.0722058e-39
-1.635211 1.616334 -0.1528537 4.9785724e-39
-1.6335876 1.6196206 -0.14864521 3.9680414e-39
-1.6312828 1.6221399 -0.14794384 4.610143e-39
-1.6277161 1.6271414 -0.14414886 4.3346351e-39
-1.6178761 1.6467804 -0.1193309 4.2424353e-39
-1.6423053 1.6107025 -0.14979826 5.3480808e-39
-1.6440964 1.6116046 -0.14331806 5.8079702e-39
-1.6392614 1.616202 -0.14353552 5.1636769e-39
-1.6350478 1.621012 -0.14175071 5.1629623e-39
-1.6319989 1.6253545 -0.13834158 4.4268364e-39
-1.6214771 1.646072 -0.11249724 4.1502495e-39
-1.643696 1.6149303 -0.13610111 6.0834865e-39
-1.6395527 1.6190431 -0.13586244 5.5306686e-39
-1.6353345 1.6247153 -0.13197045 5.163328e-39
-1.6311815 1.6297368 -0.12952216 4.7945427e-39
-1.6221541 1.6461012 -0.11081385 4.4257616e-39
-1.6483238 1.6123247 -0.13148397 4.2453374e-39
-1.6460162 1.6164427 -0.12686169 5.9920083e-39
-1.6407888 1.6207352 -0.12876226 4.611243e-39
-1.6388036 1.6241033 -0.12521462 5.0711352e-39
-1.635468 1.6286139 -0.12207565 5.0711296e-39
-1.6498978 1.613167 -0.12566717 5.4391974e-39
-1.6452801 1.6182435 -0.12419041 4.8878383e-39
-1.6439521 1.6207467 -0.12120196 5.5313833e-39
-1.6402949 1.6263547 -0.11613286 4.9789326e-39
-1.6363951 1.6305898 -0.11501381 5.0707681e-39
-1.6468546 1.6187109 -0.11929289 5.1640413e-39
-1.6431636 1.6237094 -0.1158014 4.4286469e-39
-1.6506369 1.6187884 -0.11009809 5.348071e-39
-1.6454129 1.6231694 -0.1117726 5.5313917e-39
-1.6490427 1.6230792 -0.10335252 5.5317476e-39
-1.6652725 1.6135619 -0.088091597 4.5186761e-39
-1.6617647 1.6175959 -0.086533189 4.5175999e-39
-1.6644356 1.6191521 -0.07635121 4.1498992e-39
-1.6638527 1.6225399 -0.069416575 4.150981e-39
-1.6584717 1.6271501 -0.070902765 5.1640525e-39
-1.6742265 1.6140473 -0.065581307 3.2279373e-39
-1.4770979 1.7485379 -0.2045221 1.4012985e-45
-1.4733635 1.7532264 -0.20189519 5.6051939e-45
-1.4903818 1.7349467 -0.20628412 2.8576918e-39
-1.4865479 1.7396008 -0.20397824 3.2275519e-39
-1.4828352 1.7448118 -0.20001647 2.8591267e-39
-1.4790365 1.7494141 -0.19775453 2.6743711e-39
-1.4753355 1.7546078 -0.19380707 2.6747242e-39
-1.4715434 1.7608241 -0.18756442 2.6747298e-39
-1.49433 1.7336158 -0.2001534 2.8569855e-39
-1.4904815 1.7382774 -0.19786467 3.2264939e-39
-1.4867684 1.7434882 -0.19390409 3.2268498e-39
-1.4829547 1.7480978 -0.19165921 3.1346514e-39
-1.4792534 1.7532916 -0.18771292 3.4105096e-39
-1.4760038 1.7589704 -0.18149906 3.1350017e-39
-1.4723536 1.7629452 -0.18042442 3.1350017e-39
-1.4617263 1.7759023 -0.17389587 3.4115886e-39
-1.5018387 1.7265357 -0.19966909 2.6736733e-39
-1.4979753 1.7312047 -0.19739765 2.6736733e-39
-1.4942733 1.7363981 -0.19345319 2.9502644e-39
-1.4905715 1.7415913 -0.1895086 3.226847e-39
-1.4868697 1.7467847 -0.18556377 3.1346514e-39
-1.4830143 1.7508441 -0.18477045 3.1346528e-39
-1.4802921 1.7559402 -0.17873268 3.4097964e-39
-1.4767863 1.7611029 -0.17439662 3.1346514e-39
-1.4731619 1.7651206 -0.17315555 3.1346514e-39
-1.4660277 1.7728777 -0.17108482 3.226847e-39
-1.4625838 1.777949 -0.1668255 3.226847e-39
-1.4980335 1.7345368 -0.18907307 2.8580645e-39
-1.4944839 1.7402815 -0.18341179 3.1346514e-39
-1.4907113 1.7449663 -0.18088511 3.226847e-39
-1.4869021 1.7495422 -0.17871247 3.6863931e-39
-1.4847248 1.7540981 -0.17270491 3.226847e-39
-1.4810549 1.7581559 -0.17147349 3.1346514e-39
-1.4775691 1.7632891 -0.16716234 3.1346514e-39
-1.4739493 1.7671608 -0.16626851 3.0421027e-39
-1.470382 1.7710681 -0.16516374 2.8580645e-39
-1.5000695 1.7359749 -0.18069284 2.5821895e-39
-1.4962866 1.7406557 -0.17820071 3.0424558e-39
-1.4926053 1.7458179 -0.17428337 2.8591463e-39
-1.4889243 1.75098 -0.17036596 3.226847e-39
-1.4854621 1.7563242 -0.16548033 3.4097908e-39
-1.4819764 1.7614574 -0.16116919 3.1346514e-39
-1.4783289 1.7653407 -0.16031288 3.0424558e-39
-1.474736 1.7692584 -0.15924264 3.0424558e-39
-1.4711744 1.7730159 -0.15849216 3.3172448e-39
-1.5000263 1.73883 -0.17378123 2.7658689e-39
-1.49649 1.7445173 -0.16822961 2.5829168e-39
-1.4926059 1.7485989 -0.16744983 3.0424558e-39
-1.4898692 1.7544928 -0.15948722 3.0424558e-39
-1.4863833 1.7596257 -0.15517601 3.0424558e-39
-1.4827085 1.7635205 -0.15435722 2.8580645e-39
-1.4790901 1.7674489 -0.15332168 2.5814776e-39
-1.4755008 1.7712177 -0.15260866 2.9491685e-39
-1.5038954 1.7375398 -0.16773997 2.8573457e-39
-1.5002238 1.742686 -0.16383843 2.8569855e-39
-1.4981024 1.747507 -0.1570463 2.4889275e-39
-1.4942764 1.752661 -0.15349391 2.5814776e-39
-1.4907906 1.757794 -0.14918274 2.5814776e-39
-1.4870882 1.7617004 -0.14840141 2.6736733e-39
-1.4834443 1.7656394 -0.14740044 2.5814776e-39
-1.4798274 1.7694196 -0.14672491 3.2253953e-39
-1.4997523 1.7472229 -0.153816 2.5821895e-39
-1.4946861 1.753687 -0.14999786 2.1219246e-39
-1.4912422 1.7587583 -0.1457386 2.5814776e-39
-1.4877985 1.7638296 -0.14147928 2.5821839e-39
-1.4841541 1.7676214 -0.14084136 2.8569729e-39
-1.4987466 1.7507055 -0.14765461 2.5814776e-39
-1.4953246 1.7557447 -0.14342232 2.5814776e-39
-1.4919027 1.7607841 -0.13918999 2.6718614e-39
-1.4884807 1.7658234 -0.13495778 2.5814776e-39
-1.5030732 1.7489074 -0.14177102 3.0424558e-39
-1.4996511 1.7539465 -0.1375387 2.9484623e-39
-1.4962292 1.7589859 -0.13330637 2.3963773e-39
-1.4928073 1.7640251 -0.1290741 2.9473833e-39
-1.5871837 1.6361108 -0.21861686 0
-1.5910784 1.6348175 -0.21252029 0
-1.6034425 1.6274273 -0.20123845 1.8439294e-39
-1.6161813 1.6205852 -0.18771821 5.9920041e-39
-1.6252378 1.6146326 -0.18077941 6.2693253e-39
-1.6214899 1.6198735 -0.17682718 6.4529906e-39
-1.6329637 1.6079756 -0.17873807 7.006149e-39
-1.629436 1.6131705 -0.1743751 6.5458925e-39
-1.6251401 1.6182079 -0.1722285 6.2700287e-39
-1.6327759 1.6110419 -0.17165281 6.1785491e-39
-1.6311973 1.6263708 -0.13775331 5.3462745e-39
-1.6278434 1.6456695 -0.098328501 4.9782109e-39
-1.627486 1.649398 -0.09002009 4.7938196e-39
-1.6321417 1.6474662 -0.083681516 4.7019771e-39
-1.6587322 1.6344002 -0.052471466 5.4388261e-39
-1.5806105 1.6395601 -0.22579193 3.976885e-42
-1.6306 1.6487902 -0.084099635 5.0704065e-39
-1.6339531 1.6480858 -0.077846445 5.2544475e-39
-1.6456773 1.6418515 -0.065248214 5.8061723e-39
-1.645053 1.646462 -0.055408228 5.2547978e-39
-1.719291 1.589591 -0.018369429 3.6734198e-40
-1.7077613 1.6013867 -0.016842518 7.3504691e-40
-1.6973097 1.5111434 -0.26342139 1.7542015e-39
-1.6945645 1.515829 -0.25844666 0
-1.6905415 1.520786 -0.25584698 3.5873241e-43
-1.7043784 1.5064003 -0.25824377 0
-1.6990675 1.5116265 -0.25804964 9.6140285e-41
-1.6963323 1.5163146 -0.25304443 0
-1.703539 1.5115529 -0.24758434 3.7021184e-40
-1.6994911 1.5165406 -0.24496858 7.3899016e-40
-1.6515919 1.5767716 -0.21104395 7.3576017e-40
-1.7016356 1.5177721 -0.2368377 7.3863003e-40
-1.7142733 1.5077456 -0.23138058 0
-1.7088749 1.5130192 -0.23127781 1.8582339e-40
-1.7034034 1.5182577 -0.23143543 1.4736727e-39
-1.7007794 1.5229948 -0.2260464 1.4736727e-39
-1.7119914 1.5132527 -0.22328414 1.1967313e-39
-1.6593795 1.5973173 -0.14202932 6.2711007e-39
-1.6631877 1.5982211 -0.13074261 6.4565485e-39
-1.6578289 1.6028947 -0.13201964 6.0863395e-39
-1.6606389 1.6036265 -0.12353199 5.901221e-39
-1.6546612 1.6079587 -0.12712103 5.9930663e-39
-1.6684613 1.5996702 -0.11462742 7.0068679e-39
-1.6623776 1.604104 -0.11821862 5.534965e-39
-1.6702188 1.6001531 -0.10925566 6.2710951e-39
-1.6652175 1.604844 -0.10963953 5.4427694e-39
-1.659081 1.6091676 -0.11362851 5.350215e-39
-1.6709459 1.600421 -0.10686713 6.2711007e-39
-1.6669663 1.6053246 -0.10429553 5.0736267e-39
-1.6608098 1.6096426 -0.10834561 5.0732764e-39
-1.6726946 1.6009015 -0.10152313 5.350924e-39
-1.6687151 1.6058052 -0.098951533 4.9789143e-39
-1.6636369 1.6104133 -0.09972135 4.6122996e-39
-1.6586043 1.6149652 -0.10052048 5.350215e-39
-1.671492 1.6065313 -0.090555578 4.5175859e-39
-1.6682328 1.6116699 -0.085691936 4.5175859e-39
-1.6648962 1.6167222 -0.081224009 4.6122996e-39
-1.6728764 1.619027 -0.056562439 3.5985064e-39
-1.6757907 1.6198558 -0.047587723 3.3215608e-39
-1.6693931 1.624102 -0.052388147 4.61265e-39
-1.6642801 1.6286632 -0.053357109 5.0736267e-39
-1.6723861 1.6249923 -0.043075707 3.8743815e-39
-1.679368 1.6208389 -0.036655575 3.4148158e-39
-1.6741645 1.6254809 -0.037640143 3.7800208e-39
-1.6811568 1.6213305 -0.031189607 4.6108353e-39
-1.6203837 1.6100461 -0.20360306 0
-1.6552041 1.5488147 -0.27112421 1.4736727e-39
-1.6523032 1.5536318 -0.26619685 1.0155785e-39
-1.667024 1.5393707 -0.26618266 0
-1.6619556 1.5443581 -0.26599735 6.464358e-40
-1.6579988 1.5492338 -0.26344043 0
-1.6540419 1.5541096 -0.26088345 0
-1.6737927 1.5348229 -0.26123992 4.5917748e-40
-1.6687729 1.5398514 -0.26083869 7.3576017e-40
-1.6636945 1.5448362 -0.26068386 7.361189e-40
-1.6597375 1.5497117 -0.25812691 0
-1.6557807 1.5545874 -0.25557002 0
-1.6755506 1.535306 -0.25586823 1.3818372e-39
-1.6715503 1.5402352 -0.25328329 7.361189e-40
-1.6665418 1.5452354 -0.25292307 9.1835496e-41
-1.6614763 1.5501895 -0.25281346 0
-1.6824955 1.5307003 -0.25064763 1.8428084e-39
-1.673308 1.5407182 -0.24791156 8.2867186e-40
-1.6682907 1.5457162 -0.24757916 0
-1.663215 1.5506673 -0.24749994 0
-1.6842632 1.531186 -0.24524538 1.6584199e-39
-1.6649537 1.551145 -0.24218664 1.4349296e-42
-1.6913344 1.5331292 -0.22363649 0
-1.7074277 1.5242672 -0.20709123 7.361189e-40
-1.7100427 1.5306001 -0.18530788 1.7552777e-39
-1.7174097 1.5258511 -0.17943385 0
-1.6330199 1.602041 -0.19318362 3.7822265e-39
-1.5080502 1.71621 -0.21024716 2.7658773e-39
-1.5168387 1.7073472 -0.21109609 2.6751152e-39
-1.5133775 1.7123899 -0.20694804 2.3992486e-39
-1.5170928 1.7100073 -0.20395607 2.583644e-39
-1.5002495 1.7234839 -0.21095051 2.4914288e-39
-1.5055525 1.7213252 -0.2036279 2.4910771e-39
-1.5111258 1.7170706 -0.20081051 2.5825566e-39
-1.5074222 1.7222644 -0.196869 2.3981668e-39
-1.5035553 1.7269257 -0.19462453 2.6736733e-39
-1.5111463 1.7204454 -0.19247103 3.225768e-39
-1.507454 1.7256221 -0.18854506 2.5829168e-39
-1.5037618 1.7307985 -0.18461907 2.7658689e-39
-1.5147113 1.7182446 -0.18939003 3.0435376e-39
-1.51104 1.7233909 -0.18548805 3.225768e-39
-1.5073687 1.7285373 -0.18158603 2.8591449e-39
-1.5036976 1.7336838 -0.17768368 2.6736733e-39
-1.5184286 1.716517 -0.18478331 3.2279331e-39
-1.51491 1.7221009 -0.17944328 3.4112411e-39
-1.5109125 1.7262536 -0.17875834 3.7782216e-39
-1.5075669 1.7323935 -0.17164132 3.59348e-39
-1.5072852 1.7346929 -0.16666219 3.223603e-39
-1.5036464 1.7397922 -0.16279919 3.0406467e-39
-1.5015738 1.7435442 -0.15851647 2.6736733e-39
-1.5053831 1.7401311 -0.15783159 2.7654976e-39
-1.5033125 1.7448747 -0.1511087 2.7665836e-39
-1.4494648 1.7872807 -0.17513591 2.6736733e-39
-1.4680157 1.7660187 -0.18320136 2.3984891e-39
-1.4644151 1.7699503 -0.18211627 1.7484898e-39
-1.460909 1.775113 -0.17778018 3.0431522e-39
-1.457376 1.7790502 -0.17651977 3.5044933e-39
-1.4538903 1.7841833 -0.17220865 3.5034339e-39
-1.4688476 1.768108 -0.17608835 3.1350017e-39
-1.4652692 1.7720853 -0.17483768 3.4115886e-39
-1.4582622 1.7810034 -0.16961162 3.226847e-39
-1.4696763 1.7702537 -0.16884443 3.6867364e-39
-1.4669381 1.7761394 -0.16090442 3.0424558e-39
-1.4404495 1.7937535 -0.18069887 6.4536941e-40
-1.4449847 1.7905056 -0.17787986 1.1981929e-39
-1.456524 1.7795693 -0.17727321 2.9491461e-39
-1.4529725 1.783457 -0.17617752 2.3970864e-39
-1.6891258 1.5390825 -0.21426973 1.8367099e-40
-1.6917422 1.5397937 -0.20629302 9.1845305e-41
-1.6966944 1.5382664 -0.19825508 1.5651733e-39
-1.7016411 1.5348332 -0.19491115 0
-1.6987588 1.5386044 -0.19250929 1.935402e-39
-1.7080306 1.531873 -0.18697155 1.8367239e-40
-1.7087299 1.5308433 -0.18783616 2.7550649e-40
-1.7079861 1.5348159 -0.17984754 8.3082425e-40
-1.7158093 1.5252445 -0.18473507 5.5101298e-40
-1.6799195 1.5417506 -0.22963412 0
-1.682886 1.541411 -0.22340488 0
-1.7029536 1.532454 -0.19763207 0
-1.7022926 1.5373336 -0.18721756 3.2253827e-39
-1.6502756 1.5585026 -0.25905856 1.2917954e-39
-1.6843973 1.5475639 -0.20469201 0
-1.6912292 1.5445497 -0.19583094 1.6573759e-39
-1.6991845 1.5478114 -0.16887774 0
-1.7068812 1.5408262 -0.16771314 9.1835496e-41
-1.6753014 1.5491774 -0.22238421 0
-1.7122314 1.5388047 -0.15994097 5.5137171e-40
-1.7032462 1.5405768 -0.17698047 1.4700854e-39
-1.6547495 1.561298 -0.24153949 1.3804149e-39
-1.6518239 1.5594631 -0.25301316 9.1835496e-41
-1.647867 1.5643387 -0.25045609 1.8367099e-40
-1.6404334 1.5800415 -0.22957784 4.5917748e-40
-1.6845882 1.5429454 -0.21558365 0
-1.6596676 1.559752 -0.23362815 1.1967313e-39
-1.6439102 1.5692145 -0.24789923 0
-1.6409156 1.5741769 -0.24283735 0
-1.6456487 1.569692 -0.2425857 3.6734198e-40
-1.6426643 1.5746573 -0.23749347 0
-1.644413 1.575138 -0.23214944 4.5917748e-40
-1.6528219 1.571259 -0.22165832 9.3987891e-41
-1.6381842 1.5919145 -0.20576553 0
-1.6446198 1.5878139 -0.20051698 7.1004704e-39
-1.6463114 1.5882787 -0.19534782 6.9153715e-39
-1.6514781 1.5484568 -0.28087425 1.7495464e-39
-1.5154886 1.7005479 -0.23101416 2.1194009e-39
-1.4977275 1.7217838 -0.221131 0
-1.4960465 1.7237544 -0.22029217 0
-1.4926249 1.7295347 -0.21423896 7.3468397e-40
-1.5120122 1.7037348 -0.23146182 0
-1.5080013 1.7078286 -0.23095378 4.2038954e-45
-1.5043267 1.7127146 -0.22770007 9.220684e-41
-1.5006849 1.7174978 -0.22461919 9.2087309e-40
-1.4982616 1.7222215 -0.21878435 1.1056217e-39
-1.4956102 1.7250518 -0.21814442 5.5102559e-40
-1.5003947 1.7219198 -0.21444686 2.304525e-39
-1.5899817 1.619671 -0.25234142 6.3625859e-39
-1.6057298 1.6073729 -0.24505909 5.3469878e-39
-1.6020573 1.6127132 -0.24068411 6.5480505e-39
-1.6059458 1.6067462 -0.24608451 4.6130395e-39
-1.6031247 1.6117747 -0.24044792 4.8946725e-39
-1.6005335 1.616382 -0.23529921 4.8888907e-39
-1.6099386 1.6042905 -0.24261068 6.4580269e-39
-1.6078224 1.6091684 -0.23566616 4.80283e-39
-1.6052859 1.6129504 -0.2324141 4.0587783e-39
-1.6143154 1.6031734 -0.23493478 6.6413238e-39
-1.613559 1.6067581 -0.227929 4.7102756e-39
-1.6261352 1.5948054 -0.22735079 3.7807327e-39
-1.6166995 1.6037024 -0.22795926 5.260197e-39
-1.6144661 1.6085728 -0.22131117 3.9658736e-39
-1.6219152 1.6013498 -0.22132072 5.2609158e-39
-1.6191636 1.6059667 -0.21652938 4.0584224e-39
-1.6170651 1.6096722 -0.21242297 2.2105357e-39
-1.6381885 1.587484 -0.21663925 9.2016124e-40
-1.6285827 1.597708 -0.2143928 5.9026811e-39
-1.6248428 1.6024184 -0.21172546 3.9626366e-39
-1.6223071 1.6073216 -0.20571649 1.8439126e-40
-1.631513 1.5962398 -0.21102302 5.0743666e-39
-1.6285589 1.6007543 -0.2069658 4.7012737e-39
-1.6251762 1.6055343 -0.20327716 0
-1.6305419 1.5996045 -0.20506926 1.751361e-39
-1.6301498 1.6034484 -0.19655932 0
-1.6347411 1.5974168 -0.20044613 1.2921836e-39
-1.6317531 1.600758 -0.19935188 0
-1.6290852 1.6057756 -0.19337703 0
-1.6242476 1.6123723 -0.18868986 4.5193949e-39
-1.6367363 1.5967082 -0.19743618 6.0838396e-39
-1.6334757 1.6017088 -0.19291478 1.4012985e-45
-1.6292169 1.6125237 -0.17648627 5.6268397e-39
-1.6311189 1.6144887 -0.16713059 4.984343e-39
-1.4811114 1.7433482 -0.20771602 5.5101298e-40
-1.4770395 1.7458805 -0.21118954 2.7550649e-40
-1.4735968 1.7524108 -0.20334384 9.1835496e-41
-1.4698888 1.7564573 -0.20223095 0
-1.4872625 1.7363951 -0.21015191 4.5917748e-40
-1.4866161 1.7373956 -0.20923334 9.1943817e-40
-1.4809043 1.743911 -0.2068262 4.6026209e-40
-1.470722 1.7586613 -0.19483314 7.0064923e-45
-1.4942492 1.7302994 -0.20849311 1.9350278e-39
-1.4980547 1.7283878 -0.20412828 3.0413768e-39
-1.6001239 1.6102167 -0.25141954 3.0428257e-39
-1.6069188 1.6106962 -0.23406473 5.5346133e-39
-1.6117765 1.6082387 -0.22853616 4.6119465e-39
-1.6081085 1.6132568 -0.22494167 4.3335421e-39
-1.6163491 1.6063383 -0.22231789 4.1513271e-39
-1.6126297 1.6112168 -0.21918818 3.6888916e-39
-1.6199073 1.6042111 -0.21907251 4.0584224e-39
-1.59953 1.6287218 -0.20737343 0
-1.6124376 1.6209815 -0.19565758 2.9516951e-39
-1.6258438 1.6077448 -0.19625682 0
-1.6180664 1.6150533 -0.19681972 0
-1.6369836 1.5996858 -0.18953264 5.6243104e-39
-1.5955824 1.6130346 -0.25530982 0
-1.5975382 1.6166431 -0.24178836 5.9927159e-39
-1.6084505 1.608893 -0.23484734 4.797044e-39
-1.6284014 1.6017631 -0.20486251 5.5352971e-40
-1.6129501 1.6173697 -0.20331043 0
-1.6089531 1.6226885 -0.19975966 1.5414283e-44
-1.6338413 1.5959073 -0.20629627 2.5818266e-39
-1.5950222 1.6146733 -0.25261775 1.1210388e-44
-1.5911936 1.6193911 -0.25014362 1.11283e-39
-1.6560978 1.5442111 -0.28030539 1.5687382e-39
-1.6043624 1.6057001 -0.25242463 0
-1.6005335 1.610418 -0.24995042 3.1367562e-39
-1.5967048 1.6151358 -0.24747635 6.3643319e-39
-1.6355169 1.5847968 -0.22960143 1.8367099e-40
-1.6396992 1.5916532 -0.2028003 6.1799967e-39
-1.6401293 1.594004 -0.19600058 6.0849172e-39
-1.6372855 1.5981691 -0.19254023 2.9535168e-39
-1.6409284 1.5886462 -0.20726085 6.4554962e-39
-1.6367515 1.5948849 -0.20187958 6.729876e-39
-1.6106154 1.6016738 -0.24742773 0
-1.6178478 1.5978601 -0.23957698 7.7444175e-39
-1.6187495 1.5981138 -0.23680717 6.8239157e-39
-1.6363088 1.5851235 -0.22691391 1.8368781e-40
-1.6306101 1.5896292 -0.22941265 5.2557941e-39
-1.6258998 1.5942351 -0.22931224 6.917877e-39
-1.6276004 1.5947024 -0.22411531 5.9952187e-39
-1.6229224 1.5992548 -0.22406945 4.2442262e-39
-1.6344029 1.5965716 -0.20332766 0
-1.6564562 1.5550876 -0.25273326 0
-1.6581848 1.5555626 -0.24745025 7.361189e-40
-1.5219771 1.6915568 -0.23765351 9.1835496e-41
-1.518558 1.6962701 -0.23421477 3.6735039e-40
-1.5117168 1.7050468 -0.22894175 2.7673024e-39
-1.5084455 1.7092344 -0.22644295 2.2152048e-39
-1.506037 1.7129602 -0.22302414 2.7658577e-39
-1.5048596 1.7153823 -0.21987753 2.9506105e-39
-1.5182928 1.6987116 -0.22884844 2.6740208e-39
-1.5146959 1.7035198 -0.22560026 2.765513e-39
-1.5112104 1.7086034 -0.22140986 2.9499028e-39
-1.5080426 1.7141308 -0.21537344 3.0424572e-39
-1.5041524 1.7184272 -0.21408051 2.6736747e-39
-1.515087 1.7062881 -0.21786852 2.7676724e-39
-1.5116167 1.7113485 -0.21369903 2.5832853e-39
-1.4664073 1.7629981 -0.19445181 0
-1.4672616 1.7650992 -0.18725666 8.4077908e-45
-1.4636903 1.7703582 -0.1828398 1.4012985e-45
-1.4601189 1.7756172 -0.17842279 4.5918589e-40
-1.452028 1.7841728 -0.17666781 3.5873241e-43
-1.4484611 1.7880121 -0.17572916 8.2724394e-40
-1.455641 1.7801656 -0.17791091 0
-1.6485877 1.5647829 -0.24764878 4.5917748e-40
-1.6503165 1.5652579 -0.24236576 4.5917748e-40
-1.6340042 1.5906979 -0.21870613 4.52442e-39
-1.6491262 1.5706477 -0.23195888 6.4392467e-40
-1.6451694 1.5755234 -0.22940199 6.4392467e-40
-1.6429513 1.5808768 -0.22153157 6.4284847e-40
-1.6428006 1.5811089 -0.22131956 9.1835496e-41
-1.6525218 1.5599352 -0.250191 6.4392467e-40
-1.6435207 1.5814501 -0.21876714 4.6107876e-39
-1.6443125 1.581798 -0.21602716 7.0997641e-39
-1.6370413 1.5856322 -0.2239202 7.5596661e-39
-1.6961743 1.556733 -0.15412766 3.6734198e-40
-1.6924249 1.5621212 -0.14981769 0
-1.6894081 1.5665857 -0.14603224 0
-1.6742252 1.5896555 -0.12550674 0
-1.6982095 1.5574389 -0.14754757 0
-1.6888454 1.5732805 -0.13092515 3.6770212e-40
-1.6792512 1.5920764 -0.10759259 0
-1.6912035 1.5787065 -0.11198175 0
-1.6884054 1.5640123 -0.15474129 0
-1.6778779 1.5874822 -0.12214924 0
-1.6823151 1.584882 -0.11797199 1.102026e-39
-1.6616396 1.597527 -0.13613355 0
-1.6987298 1.575788 -0.10123196 0
-1.7019048 1.5829753 -0.076016255 0
-1.7226421 1.5686712 -0.061783072 1.1031204e-39
-1.728267 1.5702169 -0.044594176 0
-1.7301418 1.5707321 -0.038864501 0
-1.7244021 1.5758908 -0.03985735 0
-1.7629682 1.5399903 -0.036230866 1.8392211e-39
-1.7338916 1.5717626 -0.027405221 1.8367099e-40
-1.6599804 1.602208 -0.12858424 5.351322e-39
-1.6574368 1.6060349 -0.12523876 6.0867178e-39
-1.6697992 1.5973206 -0.1172142 5.5282345e-40
-1.6674807 1.5998911 -0.11641837 1.3865498e-39
-1.6607608 1.6070312 -0.1148773 6.1767625e-39
-1.6998999 1.5540788 -0.1517777 9.1835496e-41
-1.6952312 1.561488 -0.1446916 5.5101298e-40
-1.6915119 1.5668423 -0.14039283 6.4284847e-40
-1.6772933 1.5900536 -0.11722387 0
-1.6745251 1.5946984 -0.1124034 0
-1.6993707 1.5565991 -0.1468461 7.350427e-40
-1.6986822 1.5588572 -0.14293848 1.8367099e-40
-1.6952257 1.5637091 -0.13924803 0
-1.6633067 1.6097769 -0.10207041 5.3484353e-39
-1.6971252 1.5286578 -0.22083394 1.8367099e-40
-1.7122424 1.5206869 -0.20442426 6.4392467e-40
-1.7082194 1.5256438 -0.20182461 3.6734198e-40
-1.6885846 1.567883 -0.14480616 0
-1.6844913 1.5729266 -0.14216109 0
-1.6891729 1.5683249 -0.14231987 0
-1.6851023 1.5733407 -0.13968945 0
-1.6810318 1.5783561 -0.13705908 0
-1.675819 1.5832355 -0.13748294 0
-1.6717714 1.5882232 -0.13486734 0
-1.6816454 1.5787367 -0.13466309 0
-1.6886796 1.5743235 -0.1287573 4.5917748e-40
-1.6678075 1.5994158 -0.11680925 6.3636495e-39
-1.6855549 1.5914117 -0.094217598 0
-1.726266 1.576403 -0.034160942 0
-1.689666 1.5623262 -0.15588228 0
-1.6914545 1.5628177 -0.15041618 0
-1.7040577 1.5532115 -0.1440089 4.5917748e-40
-1.6931021 1.5336149 -0.21823426 0
-1.7020676 1.5294487 -0.20712404 0
-1.7018944 1.5463361 -0.16605018 9.1835496e-41
-1.6995906 1.551404 -0.15908487 3.6734198e-40
-1.7009375 1.5461481 -0.16878951 0
-1.7095953 1.5480721 -0.14345023 3.6734198e-40
-1.7001268 1.542334 -0.18008992 0
-1.7083875 1.5359844 -0.17602113 2.7550649e-40
-1.7151014 1.5314229 -0.17124285 9.1835496e-41
-1.7057948 1.5442173 -0.16196801 6.4284847e-40
-1.702965 1.5484424 -0.15832648 1.8367099e-40
-1.7032329 1.5490026 -0.15631194 9.1835496e-41
-1.6960183 1.5518032 -0.16660908 0
-1.6937366 1.5573105 -0.15851268 0
-1.7069131 1.5368803 -0.17733063 0
-1.7077368 1.5427549 -0.1609377 4.5917748e-40
-1.5483583 1.6681316 -0.23239052 3.4119642e-39
-1.544663 1.6726774 -0.23002146 3.1368178e-39
-1.5481333 1.6717756 -0.22397386 3.7807481e-39
-1.5456727 1.676476 -0.21828556 3.6885567e-39
-1.5475711 1.6776785 -0.21081154 4.3328583e-39
-1.5441399 1.6844932 -0.20223927 3.4115984e-39
-1.5552844 1.6749443 -0.19916382 2.2108973e-39
-1.5526401 1.6793818 -0.19455881 6.4431283e-40
-1.5146939 1.7148443 -0.19778442 2.9502602e-39
-1.5145637 1.7244946 -0.17438787 2.9466588e-39
-1.5108051 1.7291539 -0.1718895 2.6682839e-39
-1.5366036 1.6764157 -0.2400258 3.1324766e-39
-1.5570678 1.6530234 -0.24877036 3.692137e-39
-1.5543101 1.656608 -0.2465291 3.6889042e-39
-1.5484864 1.6652645 -0.23912956 2.7687402e-39
-1.564678 1.6463139 -0.24713361 3.8765479e-39
-1.561182 1.6504968 -0.24518198 3.4155711e-39
-1.5584306 1.6551138 -0.24039061 3.873678e-39
-1.554299 1.6602763 -0.23754421 3.9654911e-39
-1.5694041 1.6436919 -0.24232283 4.4268504e-39
-1.5658793 1.6478906 -0.24040014 3.6003211e-39
-1.563128 1.6525075 -0.23560882 3.597803e-39
-1.5609963 1.6544594 -0.23588935 3.7810998e-39
-1.5741302 1.64107 -0.23751213 5.3491612e-39
-1.5678256 1.6499012 -0.23082697 3.5056073e-39
-1.5796864 1.6388347 -0.22977483 4.332138e-39
-1.5939853 1.6285691 -0.22094946 2.4871338e-39
-1.5978994 1.6267722 -0.21604568 1.7484926e-39
-1.6041994 1.6215686 -0.21382964 1.7510037e-39
-1.609058 1.6198468 -0.20649122 7.3612871e-40
-1.5549631 1.6511854 -0.25829634 9.1836897e-41
-1.5643579 1.6418209 -0.25893366 1.1210388e-44
-1.5575939 1.6551985 -0.24217412 4.1484474e-39
-1.5697663 1.6438706 -0.24102175 5.5302945e-39
-1.6048355 1.6239047 -0.20657592 1.5719752e-39
-1.6112961 1.6198821 -0.20107606 4.649228e-40
-1.6147735 1.6208378 -0.19044918 3.5873241e-43
-1.5276725 1.6850002 -0.24020115 6.4285128e-40
-1.6717571 1.5993434 -0.10758319 2.7551209e-40
