# .PCD v0.7 - Point Cloud Data file format
VERSION 0.7
FIELDS x y z rgb
SIZE 4 4 4 4
TYPE F F F F
COUNT 1 1 1 1
WIDTH 918
HEIGHT 1
VIEWPOINT 0 0 0 1 0 0 0
POINTS 918
DATA ascii
-1.4470345 -0.36459345 2.506685 1.5011697e-38
-1.4426974 -0.36898139 2.5083237 1.8305152e-38
-1.4425446 -0.36444053 2.5075722 1.5363521e-38
-1.4423916 -0.3598997 2.5068207 1.5461835e-38
-1.4383605 -0.37336931 2.5099621 2.1246036e-38
-1.4312904 -0.36273018 2.5095665 1.876613e-38
-1.4311386 -0.35822353 2.5088208 1.6378033e-38
-1.4309869 -0.35371688 2.5080748 1.6015009e-38
-1.4308351 -0.34921029 2.507329 1.4822209e-38
-1.4338704 -0.37321639 2.5108492 2.1696192e-38
-1.4268345 -0.36257839 2.510447 2.1424319e-38
-1.4266827 -0.3580718 2.509701 2.0599574e-38
-1.426531 -0.35356513 2.5089552 2.1064865e-38
-1.4263792 -0.34905857 2.5082092 2.0606045e-38
-1.4365392 -0.38834384 2.5129137 2.3448594e-38
-1.436385 -0.38376883 2.5121565 2.2337601e-38
-1.4225299 -0.36693329 2.512073 2.1973139e-38
-1.4158894 -0.35665154 2.511652 2.1239568e-38
-1.4157387 -0.35217732 2.5109112 2.0230793e-38
-1.4091014 -0.34199271 2.5105062 2.1064865e-38
-1.4154375 -0.34322891 2.5094302 2.1066664e-38
-1.4320154 -0.38818979 2.5138075 2.3448631e-38
-1.4250435 -0.37745142 2.5133748 2.345115e-38
-1.4180739 -0.3667815 2.5129535 2.3451145e-38
-1.4114653 -0.35650092 2.5125258 2.2622079e-38
-1.4174669 -0.34875506 2.5099702 2.3285106e-38
-1.4173151 -0.34424844 2.5092242 1.9319269e-38
-1.4274918 -0.38803577 2.5147011 2.3451873e-38
-1.4205537 -0.3772985 2.514262 2.3451872e-38
-1.4136178 -0.36662975 2.513834 2.3452584e-38
-1.4134661 -0.36212319 2.513088 2.3267448e-38
-1.4133143 -0.35761657 2.512342 2.3178843e-38
-1.413011 -0.34860337 2.5108502 2.3476701e-38
-1.4128592 -0.34409672 2.5101044 2.1163182e-38
-1.4060135 -0.34505418 2.5116618 2.3479536e-38
-1.4058605 -0.34051332 2.5109103 2.3487085e-38
-1.4057077 -0.33597252 2.5101585 2.3494347e-38
-1.3956972 -0.23097607 2.4940977 7.4752659e-39
-1.3955455 -0.22646947 2.4933517 9.3080438e-39
-1.3885919 -0.33337662 2.5131931 2.3479176e-38
-1.3884412 -0.32890233 2.5124528 2.2561167e-38
-1.4012179 -0.33581957 2.5110459 2.1548875e-38
-1.401065 -0.3312788 2.5102942 2.0174636e-38
-1.3852776 -0.234944 2.496901 1.9736542e-38
-1.3851269 -0.23046984 2.4961605 1.6042914e-38
-1.3849763 -0.22599564 2.4954197 9.6879274e-39
-1.3848257 -0.22152136 2.4946797 1.170513e-38
-1.3841679 -0.33322594 2.5140674 1.9156807e-38
-1.3840172 -0.32875171 2.5133266 1.9703476e-38
-1.3901234 -0.32981822 2.5122683 1.9243907e-38
-1.3899716 -0.3253116 2.5115223 1.8697587e-38
-1.38982 -0.32080492 2.5107765 1.9535664e-38
-1.3896682 -0.31629837 2.5100305 2.3500051e-38
-1.3895165 -0.31179178 2.5092845 2.3495064e-38
-1.3893647 -0.30728504 2.5085387 2.349108e-38
-1.3767122 -0.29208598 2.5084929 2.3490727e-38
-1.3887577 -0.28925866 2.5055552 2.1627977e-38
-1.3951991 -0.29025844 2.5044169 2.236302e-38
-1.3950461 -0.28571764 2.5036654 2.2548494e-38
-1.3948933 -0.28117684 2.5029137 2.2365898e-38
-1.3947403 -0.27663597 2.5021622 2.3494296e-38
-1.3813056 -0.24821605 2.4999967 2.3509886e-38
-1.3811549 -0.24374181 2.4992564 2.3509886e-38
-1.3810042 -0.23926762 2.4985158 2.3509788e-38
-1.3746184 -0.22990079 2.4982002 2.3504063e-38
-1.3744688 -0.22545902 2.4974651 2.1473939e-38
-1.3867851 -0.2306726 2.4958582 1.8711377e-38
-1.3804016 -0.22137076 2.4955535 1.8342949e-38
-1.380251 -0.21689659 2.4948127 1.5487421e-38
-1.3861226 -0.34318629 2.5153863 2.3478862e-38
-1.3859708 -0.33867964 2.5146406 2.2199264e-38
-1.3858191 -0.33417305 2.5138946 2.1916531e-38
-1.3853638 -0.3206532 2.5116568 1.6585763e-38
-1.3852121 -0.31614661 2.510911 2.3126226e-38
-1.3850603 -0.31163999 2.510165 2.3493984e-38
-1.3849086 -0.30713326 2.5094192 2.3492521e-38
-1.3723201 -0.29193643 2.5093606 2.3491807e-38
-1.3721704 -0.28749463 2.5086253 2.3489634e-38
-1.3782372 -0.28833321 2.5075357 2.3483066e-38
-1.3843017 -0.28910691 2.5064354 2.1167364e-38
-1.3907092 -0.29010555 2.5053041 2.1533271e-38
-1.3905562 -0.28556475 2.5045524 2.0336181e-38
-1.3904034 -0.28102392 2.5038009 2.0337616e-38
-1.3968062 -0.28188571 2.5026469 2.3490695e-38
-1.3830878 -0.25305402 2.500468 2.3509869e-38
-1.3767308 -0.2435912 2.5001302 2.350988e-38
-1.3765801 -0.23911697 2.4993896 2.3509781e-38
-1.3702263 -0.22975121 2.499068 2.3505505e-38
-1.3700767 -0.22530949 2.4983327 2.1843082e-38
-1.382329 -0.23052083 2.4967387 1.9356747e-38
-1.3821772 -0.22601427 2.4959927 1.8711372e-38
-1.3820255 -0.22150767 2.4952466 1.5487421e-38
-1.3816665 -0.34303454 2.5162668 2.3509886e-38
-1.3815148 -0.33852792 2.5155208 2.3509886e-38
-1.381363 -0.33402133 2.5147748 2.3509886e-38
-1.3812113 -0.32951477 2.5140288 2.0262219e-38
-1.3810595 -0.32500812 2.513283 1.2512586e-38
-1.3809078 -0.32050148 2.512537 1.2153864e-38
-1.3806043 -0.31148824 2.5110455 1.6210183e-38
-1.3804526 -0.30698153 2.5102994 2.0906828e-38
-1.3741145 -0.29713094 2.5098908 2.348969e-38
-1.3739638 -0.29265678 2.50915 2.3494693e-38
-1.3738133 -0.28818256 2.5084097 2.3493663e-38
-1.3798456 -0.28895515 2.5073159 2.3213399e-38
-1.3862193 -0.2899527 2.506191 2.3487843e-38
-1.3925905 -0.29088175 2.5050552 2.2934657e-38
-1.3924365 -0.28630668 2.504298 2.3025797e-38
-1.3922825 -0.28173167 2.5035408 2.3505815e-38
-1.3921283 -0.27715665 2.5027835 2.3505146e-38
-1.385149 -0.25816688 2.5009303 2.3494646e-38
-1.37848 -0.24839565 2.5006025 2.3492853e-38
-1.372156 -0.23896632 2.5002637 2.3491401e-38
-1.3658344 -0.22960168 2.4999356 2.3492874e-38
-1.3718548 -0.23001784 2.4987826 2.082172e-38
-1.3778729 -0.23036906 2.4976192 1.9715408e-38
-1.3777212 -0.22586255 2.4968729 1.5016674e-38
-1.3775696 -0.2213559 2.4961271 1.1708419e-38
-1.3911477 -0.3822284 2.5210934 2.171133e-38
-1.3909937 -0.37765336 2.5203362 2.3476687e-38
-1.3770586 -0.33837616 2.5164013 2.3509527e-38
-1.3769068 -0.33386964 2.515655 2.3509886e-38
-1.3767551 -0.32936299 2.5149093 2.1368567e-38
-1.3831053 -0.33066723 2.5138423 1.0760896e-38
-1.3829525 -0.3261264 2.5130906 1.0125581e-38
-1.3696904 -0.29698026 2.5107651 1.8050149e-38
-1.3695399 -0.2925061 2.5100243 2.1093645e-38
-1.3693892 -0.28803191 2.5092838 2.2290797e-38
-1.3753895 -0.28880343 2.5081961 2.2568029e-38
-1.3817292 -0.28979978 2.5070782 2.3488203e-38
-1.3877587 -0.28157762 2.5044343 2.3506894e-38
-1.3876047 -0.27700263 2.5036771 2.3507307e-38
-1.3874507 -0.27242759 2.5029197 2.3501143e-38
-1.380659 -0.25801399 2.5018172 2.3493565e-38
-1.3805062 -0.25347319 2.5010657 2.3488891e-38
-1.367732 -0.23881567 2.5011377 2.2752396e-38
-1.3614423 -0.2294521 2.5008035 2.1925547e-38
-1.3674307 -0.22986719 2.4996567 2.082172e-38
-1.3734169 -0.23021738 2.4984992 1.98998e-38
-1.3797417 -0.23076901 2.4973078 1.4186914e-38
-1.3795887 -0.22622821 2.496556 8.2049837e-39
-1.3794359 -0.22168741 2.4958045 3.1331688e-39
-1.386624 -0.3820743 2.5219874 2.2549057e-38
-1.3799915 -0.3713817 2.5214934 2.3106942e-38
-1.3789213 -0.33959594 2.5162325 2.3505001e-38
-1.3786155 -0.33051434 2.5147293 9.1982576e-39
-1.3784626 -0.32597348 2.513978 1.0953177e-38
-1.3709333 -0.28865167 2.5090766 9.8515514e-39
-1.3827728 -0.26769847 2.5030565 2.3494693e-38
-1.3826188 -0.26312351 2.5022991 2.3497179e-38
-1.3760163 -0.25332034 2.5019524 2.3493975e-38
-1.3758634 -0.24877949 2.5012009 2.0266045e-38
-1.3692642 -0.23907886 2.5008714 2.063266e-38
-1.3691125 -0.23457223 2.5001256 2.118868e-38
-1.3754047 -0.23515695 2.4989462 2.118944e-38
-1.3756543 -0.37576956 2.5231323 1.8861591e-38
-1.3744313 -0.33944303 2.5171196 2.3400561e-38
-1.3742783 -0.33490223 2.5163679 1.2700562e-38
-1.3739725 -0.3258206 2.5148649 1.169073e-38
-1.3729023 -0.29403475 2.509604 1.0496921e-38
-1.3654513 -0.33913726 2.5188937 1.6752537e-38
-1.3652984 -0.33459643 2.5181422 1.77728e-38
-1.3612673 -0.34806603 2.5212836 2.1087113e-38
-1.3611144 -0.34352523 2.5205321 2.1176813e-38
-1.3609616 -0.33898437 2.5197806 1.9520179e-38
-1.3608086 -0.33444357 2.5190289 1.8695464e-38
-1.3669885 -0.33570784 2.5179899 1.8327375e-38
-1.3659103 -0.30368257 2.5126889 1.6948804e-38
-1.3569301 -0.35245395 2.5229223 1.9339387e-38
-1.3567772 -0.34791312 2.522171 2.0349548e-38
-1.3629268 -0.34927887 2.5211554 2.1084259e-38
-1.3564714 -0.33883145 2.5206678 1.8782614e-38
-1.3563186 -0.33429065 2.5199163 1.7496561e-38
-1.351523 -0.32505614 2.5193 1.5280295e-38
-1.3049449 -0.23762953 2.5137057 2.3473054e-38
-1.2959548 -0.28992522 2.5245488 1.7850646e-38
-1.2919949 -0.30994689 2.5288053 1.8402362e-38
-1.2832566 -0.29551774 2.528096 1.8918112e-38
-1.2831038 -0.29097697 2.5273442 1.8826277e-38
-1.2829509 -0.28643614 2.5265927 1.8734441e-38
-1.2883903 -0.28276363 2.5248535 1.8647628e-38
-1.2888743 -0.27745539 2.52384 1.675043e-38
-1.2880821 -0.27361363 2.5233388 1.386716e-38
-1.2879281 -0.26903859 2.5225816 2.3509632e-38
-1.2877741 -0.26446354 2.5218244 2.3509809e-38
-1.2870039 -0.24158835 2.5180383 2.3477347e-38
-1.2906642 -0.32028237 2.5308576 1.2493625e-38
-1.2797619 -0.30769268 2.5309055 1.3169533e-38
-1.2732027 -0.29432657 2.5299358 1.0572203e-38
-1.2725956 -0.27630013 2.5269523 1.3412646e-38
-1.2781553 -0.27720159 2.5259767 1.2676886e-38
-1.2780025 -0.27266076 2.5252249 1.1203931e-38
-1.2778496 -0.26811996 2.5244734 1.1112095e-38
-1.2850795 -0.27650681 2.5244482 1.8353355e-38
-1.2876605 -0.26825291 2.5225008 2.1208931e-38
-1.2830963 -0.25973454 2.5219607 2.3495716e-38
-1.2827883 -0.25058445 2.5204463 2.3474082e-38
-1.2826343 -0.24600933 2.5196891 2.3475904e-38
-1.284982 -0.32326669 2.5325279 1.5464726e-38
-1.2745826 -0.30429357 2.5313733 1.7484745e-38
-1.2687466 -0.29417482 2.5308163 1.8040049e-38
-1.2735125 -0.27250785 2.5261121 1.0285576e-38
-1.2733595 -0.26796705 2.5253606 1.0010069e-38
-1.2813305 -0.27206263 2.5244448 1.9367506e-38
-1.2787267 -0.26415545 2.5236118 2.3509841e-38
-1.2799219 -0.26263946 2.5231073 1.9818745e-38
-1.2784187 -0.25500542 2.5220973 2.3474061e-38
-1.2782645 -0.25043041 2.5213399 2.3474443e-38
-1.2818594 -0.32919055 2.5341842 2.2588242e-38
-1.2760514 -0.31890184 2.5335922 2.3509886e-38
-1.2702457 -0.30868155 2.5330117 2.3509886e-38
-1.2644423 -0.29852968 2.5324426 2.3509886e-38
-1.2642906 -0.29402307 2.5316968 2.3509886e-38
-1.2641388 -0.28951645 2.5309508 2.3509886e-38
-1.2690226 -0.27235493 2.5269992 2.0098841e-38
-1.2688696 -0.26781419 2.5262475 1.908545e-38
-1.2687168 -0.26327333 2.525496 2.3509874e-38
-1.2685639 -0.2587325 2.5247445 2.3509835e-38
-1.2740488 -0.25942644 2.5237482 2.1932695e-38
-1.2738947 -0.25485137 2.5229912 2.0815448e-38
-1.2737406 -0.25027633 2.522234 2.2282392e-38
-1.2734326 -0.24112622 2.5207193 2.3477357e-38
-1.2776123 -0.3382538 2.5366104 1.9574593e-38
-1.2801646 -0.33687454 2.5358534 1.9431228e-38
-1.2716817 -0.32332286 2.5352433 2.3509869e-38
-1.2715276 -0.31874779 2.5344861 2.3509886e-38
-1.2657558 -0.30852863 2.5338988 2.3509886e-38
-1.2599862 -0.29837796 2.5333228 2.3509886e-38
-1.2598344 -0.29387137 2.5325768 2.3509886e-38
-1.2596827 -0.2893647 2.5318313 2.3509886e-38
-1.2645327 -0.27220207 2.5278862 2.3509751e-38
-1.2643797 -0.26766127 2.5271347 2.2404494e-38
-1.2642269 -0.26312044 2.5263829 2.350988e-38
-1.264074 -0.25857964 2.5256314 2.3509834e-38
-1.263921 -0.25403881 2.5248799 2.2301479e-38
-1.2637682 -0.24949799 2.5241282 2.1737031e-38
-1.2636153 -0.24495713 2.5233767 2.3020315e-38
-1.2634624 -0.24041629 2.522625 2.338695e-38
-1.2689089 -0.24097221 2.5216129 2.3475557e-38
-1.2680823 -0.35061893 2.5406806 1.6994397e-38
-1.2679282 -0.34604394 2.5399232 1.3703656e-38
-1.2733651 -0.3473171 2.5390365 1.5832806e-38
-1.2732099 -0.3427079 2.5382736 1.8699856e-38
-1.2674662 -0.33231884 2.5376515 2.350987e-38
-1.267312 -0.32774383 2.5368943 2.3509886e-38
-1.2615716 -0.31745744 2.536289 2.3509886e-38
-1.2672621 -0.31799886 2.5352247 1.8625679e-38
-1.2612659 -0.30837575 2.5347857 2.3509886e-38
-1.2611129 -0.30383492 2.5340343 2.3509886e-38
-1.2609601 -0.29929411 2.5332825 2.3509886e-38
-1.2552266 -0.289213 2.5327113 2.3509886e-38
-1.2550749 -0.28470641 2.5319657 2.3509886e-38
-1.2549231 -0.28019977 2.5312197 2.3509886e-38
-1.2598898 -0.26750839 2.5280216 2.3509886e-38
-1.259737 -0.26296753 2.5272701 2.3509886e-38
-1.2595841 -0.25842673 2.5265186 2.3509886e-38
-1.2594311 -0.25388592 2.5257668 2.3509886e-38
-1.2592783 -0.24934508 2.5250154 2.3509886e-38
-1.2591254 -0.24480428 2.5242636 2.3509844e-38
-1.2588196 -0.23572259 2.5227606 2.2304763e-38
-1.2640772 -0.23166807 2.5209923 2.2470096e-38
-1.2635585 -0.35046494 2.541574 1.8469526e-38
-1.2634044 -0.3458899 2.5408168 2.3479274e-38
-1.2632504 -0.34131488 2.5400596 2.3485043e-38
-1.2630963 -0.33673984 2.5393023 2.3309637e-38
-1.2629423 -0.33216482 2.5385451 2.3509886e-38
-1.2572346 -0.32184538 2.5379276 2.3509886e-38
-1.2570816 -0.31730458 2.5371759 2.3509886e-38
-1.2569288 -0.31276375 2.5364244 2.3509886e-38
-1.2567759 -0.30822283 2.5356729 2.3509886e-38
-1.256623 -0.30368206 2.5349212 2.3509886e-38
-1.2564701 -0.2991412 2.5341697 2.3509886e-38
-1.2507704 -0.28906125 2.5335917 2.3509886e-38
-1.2553998 -0.2673555 2.5289087 2.3509886e-38
-1.255247 -0.26281464 2.5281572 2.3509886e-38
-1.2550941 -0.25827384 2.5274055 2.3509886e-38
-1.2549412 -0.25373301 2.526654 2.3509886e-38
-1.2547883 -0.24919221 2.5259023 2.3509886e-38
-1.2543297 -0.23556972 2.5236475 2.3509795e-38
-1.2590348 -0.35031086 2.5424678 2.3509886e-38
-1.2588806 -0.34573582 2.5417109 2.3509886e-38
-1.2587266 -0.3411608 2.5409534 2.3509886e-38
-1.2585726 -0.33658579 2.5401962 2.3509886e-38
-1.2528976 -0.32623336 2.539566 2.3509886e-38
-1.2527447 -0.32169247 2.5388148 2.3509886e-38
-1.2525917 -0.31715167 2.538063 2.3509886e-38
-1.2524389 -0.31261083 2.5373116 2.3509886e-38
-1.252286 -0.30806994 2.5365598 2.3509886e-38
-1.2521331 -0.30352914 2.5358083 2.3509886e-38
-1.2519802 -0.29898831 2.5350566 2.2866998e-38
-1.2518274 -0.29444748 2.5343051 1.9095609e-38
-1.2516744 -0.28990668 2.5335536 1.0723832e-38
-1.2515216 -0.28536588 2.5328019 1.017886e-38
-1.2513686 -0.28082505 2.5320504 2.0018639e-38
-1.2510628 -0.27174345 2.5305471 2.3509886e-38
-1.2509099 -0.26720262 2.5297956 2.3509886e-38
-1.250757 -0.26266181 2.5290439 2.3509886e-38
-1.2506042 -0.25812095 2.5282924 2.3509886e-38
-1.2504513 -0.25358012 2.5275409 2.3509886e-38
-1.2502984 -0.24903929 2.5267894 2.3509886e-38
-1.2548755 -0.22678494 2.5220225 2.3509886e-38
-1.2547215 -0.22220992 2.5212653 2.3509823e-38
-1.254511 -0.35015684 2.5433614 2.3509886e-38
-1.2543569 -0.34558183 2.5426042 2.3509886e-38
-1.2542028 -0.34100679 2.541847 2.3509886e-38
-1.2540488 -0.33643177 2.5410898 2.3509886e-38
-1.2484076 -0.32608044 2.5404532 2.3509886e-38
-1.2482548 -0.32153964 2.5397015 2.3509886e-38
-1.2481018 -0.31699878 2.53895 2.3509886e-38
-1.247949 -0.31245798 2.5381982 2.3509886e-38
-1.2477961 -0.30791712 2.5374467 2.3509886e-38
-1.2476431 -0.30337626 2.5366952 2.2958854e-38
-1.2474903 -0.29883543 2.5359437 2.3050672e-38
-1.2473373 -0.2942946 2.5351923 1.9280002e-38
-1.2471845 -0.28975376 2.5344408 8.142354e-39
-1.2470316 -0.28521293 2.5336893 6.0304165e-39
-1.2468786 -0.28067213 2.5329375 1.9742052e-38
-1.2467258 -0.2761313 2.532186 2.2775183e-38
-1.246573 -0.27159047 2.5314345 2.3509886e-38
-1.24642 -0.2670497 2.5306828 2.3509886e-38
-1.2462671 -0.26250884 2.5299313 2.3509886e-38
-1.2461143 -0.25796807 2.5291796 2.3509886e-38
-1.2459613 -0.25342724 2.5284281 2.3509886e-38
-1.2499872 -0.3500028 2.5442553 2.3509886e-38
-1.2498332 -0.34542775 2.543498 2.3509886e-38
-1.2496791 -0.34085274 2.5427408 2.3509886e-38
-1.2495251 -0.33627769 2.5419836 2.3509886e-38
-1.2439177 -0.32592753 2.5413404 2.3509886e-38
-1.2437649 -0.32138669 2.5405889 2.3509883e-38
-1.2436119 -0.31684586 2.5398371 2.3509862e-38
-1.243459 -0.31230503 2.5390856 2.3509842e-38
-1.2433062 -0.3077642 2.5383339 2.1856798e-38
-1.2431532 -0.30322334 2.5375824 2.2040476e-38
-1.2430004 -0.29868251 2.5368309 2.2224145e-38
-1.2428474 -0.29414171 2.5360792 1.9926809e-38
-1.2426945 -0.28960088 2.5353277 1.3287963e-38
-1.2425417 -0.28506008 2.5345759 1.3745688e-38
-1.2423887 -0.28051925 2.5338244 2.1488361e-38
-1.2422359 -0.27597842 2.5330729 2.093843e-38
-1.242083 -0.27143764 2.5323212 1.8637869e-38
-1.2419301 -0.26689678 2.53157 1.9375434e-38
-1.2417772 -0.26235595 2.5308182 2.3509886e-38
-1.2416244 -0.25781515 2.5300667 2.3509886e-38
-1.2508876 -0.35575959 2.5450644 2.3509886e-38
-1.2453095 -0.34527373 2.5443916 2.3509886e-38
-1.2451553 -0.34069866 2.5436347 2.3509886e-38
-1.2450013 -0.33612365 2.5428774 2.3509886e-38
-1.2448473 -0.33154863 2.54212 2.3509886e-38
-1.2446933 -0.32697362 2.5413628 2.3509874e-38
-1.2445393 -0.32239857 2.5406055 2.3234326e-38
-1.2443851 -0.3178235 2.5398486 2.1763147e-38
-1.2442311 -0.3132484 2.5390913 2.0937352e-38
-1.2386633 -0.30307043 2.5384696 2.0936999e-38
-1.2385104 -0.29852962 2.5377178 2.1673124e-38
-1.2383575 -0.29398879 2.5369663 1.9373635e-38
-1.2382046 -0.28944802 2.5362146 1.3380158e-38
-1.2380518 -0.28490719 2.5354631 1.4575449e-38
-1.2378988 -0.28036633 2.5347116 2.2132296e-38
-1.2377459 -0.27582556 2.5339599 2.0846593e-38
-1.2375931 -0.27128473 2.5332084 1.6148946e-38
-1.2374401 -0.26674393 2.5324566 1.6333337e-38
-1.2414583 -0.23089781 2.525461 2.3509886e-38
-1.2413043 -0.22632279 2.5247037 2.3509886e-38
-1.2407857 -0.34511966 2.5452855 2.3509886e-38
-1.2406317 -0.34054467 2.544528 2.3496488e-38
-1.2404777 -0.33596963 2.5437708 2.3492819e-38
-1.2403235 -0.33139458 2.5430138 2.3499714e-38
-1.2401695 -0.32681954 2.5422566 2.3504411e-38
-1.2400155 -0.32224452 2.5414994 2.1940007e-38
-1.2398615 -0.31766948 2.5407419 1.9272012e-38
-1.2397074 -0.31309441 2.5399847 1.6979325e-38
-1.2341733 -0.3029176 2.5393562 1.8079271e-38
-1.2340205 -0.29837671 2.538605 1.8453519e-38
-1.2338676 -0.29383591 2.5378532 1.753153e-38
-1.2337147 -0.28929511 2.5371017 1.1720309e-38
-1.2335619 -0.28475428 2.5363503 1.6138494e-38
-1.2334089 -0.28021345 2.5355985 2.2867016e-38
-1.233103 -0.27113187 2.5340953 1.2646209e-38
-1.2329502 -0.26659101 2.5333438 1.4578728e-38
-1.2326444 -0.25750938 2.5318406 1.9376141e-38
-1.2323387 -0.24842776 2.5303373 1.7532171e-38
-1.2320328 -0.23934607 2.5288341 1.5599751e-38
-1.2370887 -0.23531881 2.5271118 2.2316024e-38
-1.2369345 -0.23074383 2.5263543 2.3509884e-38
-1.2413069 -0.34162149 2.5445764 2.2932083e-38
-1.2411517 -0.33701223 2.5438135 2.3504755e-38
-1.2356458 -0.32666552 2.5431502 2.3509453e-38
-1.2354918 -0.32209048 2.542393 2.0095734e-38
-1.2353377 -0.31751543 2.5416358 1.8626644e-38
-1.2351836 -0.31294033 2.5408785 1.4490043e-38
-1.2350296 -0.30836529 2.5401216 1.5036815e-38
-1.2348756 -0.3037903 2.5393641 1.5503619e-38
-1.2293777 -0.29368305 2.5387402 1.5042248e-38
-1.2292248 -0.28914222 2.5379887 1.2457874e-38
-1.229072 -0.28460142 2.5372369 1.6876059e-38
-1.2342594 -0.28549021 2.536335 2.130256e-38
-1.2341053 -0.28091514 2.5355778 1.8637156e-38
-1.2339512 -0.27634013 2.5348206 1.3383775e-38
-1.2337973 -0.27176502 2.5340636 1.4854955e-38
-1.2336433 -0.26718998 2.5333064 2.0476395e-38
-1.2334892 -0.262615 2.5325489 1.8822967e-38
-1.2333351 -0.25804001 2.5317917 1.6796771e-38
-1.233181 -0.25346497 2.5310345 1.6794606e-38
-1.233027 -0.24888992 2.5302773 1.2742352e-38
-1.232873 -0.24431485 2.5295198 1.3018274e-38
-1.2327189 -0.23973984 2.5287626 1.955522e-38
-1.2365941 -0.33685705 2.544714 2.3509758e-38
-1.2364389 -0.33224779 2.5439513 2.3509825e-38
-1.230968 -0.32193643 2.5432868 2.0273567e-38
-1.230814 -0.31736135 2.5425296 1.1159875e-38
-1.23066 -0.31278631 2.5417721 9.3488888e-40
-1.2305059 -0.30821127 2.5410149 4.348253e-39
-1.2303518 -0.30363625 2.5402577 1.4668816e-38
-1.2248877 -0.29353014 2.5396273 1.3566367e-38
-1.2247348 -0.28898934 2.5388756 1.3376575e-38
-1.224582 -0.2844485 2.5381243 1.7520712e-38
-1.2297356 -0.28533614 2.5372288 2.1117449e-38
-1.2295816 -0.28076109 2.5364716 1.8634258e-38
-1.2294276 -0.27618605 2.5357144 1.5037872e-38
-1.2292736 -0.27161109 2.5349569 1.7154075e-38
-1.2291194 -0.26703599 2.5341997 2.0659689e-38
-1.2289654 -0.26246098 2.5334425 1.8731124e-38
-1.2288114 -0.25788596 2.5326853 1.9373583e-38
-1.2286574 -0.25331095 2.5319281 1.9003723e-38
-1.2285033 -0.2487359 2.5311708 1.6051668e-38
-1.2283492 -0.24416079 2.5304136 1.642002e-38
-1.2281952 -0.23958577 2.5296564 1.7620772e-38
-1.2280412 -0.23501073 2.5288992 1.8451661e-38
-1.2278872 -0.23043574 2.5281417 1.8820118e-38
-1.2277331 -0.22586071 2.5273845 1.7810651e-38
-1.227425 -0.21671064 2.5258701 1.9005576e-38
-1.2371644 -0.33782777 2.5447652 2.3509823e-38
-1.2317261 -0.32748345 2.5440884 1.9812229e-38
-1.231571 -0.3228741 2.5433257 1.0790734e-38
-1.2261362 -0.31263226 2.542666 2.1334307e-39
-1.2259821 -0.30805722 2.5419087 4.0716647e-39
-1.2258281 -0.30348223 2.5411513 1.1995143e-38
-1.225674 -0.29890716 2.5403943 1.0800498e-38
-1.22552 -0.29433215 2.5396371 1.4390367e-38
-1.225366 -0.2897571 2.5388799 1.8350113e-38
-1.2252119 -0.28518209 2.5381227 1.8904755e-38
-1.2250578 -0.28060704 2.5373652 1.6790347e-38
-1.2249038 -0.27603203 2.536608 1.6143861e-38
-1.2247497 -0.27145705 2.5358508 1.7706889e-38
-1.2245957 -0.26688197 2.5350935 1.8908331e-38
-1.2244416 -0.26230693 2.5343363 1.670282e-38
-1.2242876 -0.25773191 2.5335791 1.8912607e-38
-1.2241336 -0.2531569 2.5328219 1.9372864e-38
-1.2239795 -0.24858183 2.5320647 1.6604842e-38
-1.2238255 -0.24400671 2.5313075 1.5037086e-38
-1.2236714 -0.23943174 2.53055 1.6606621e-38
-1.2235174 -0.23485669 2.5297928 1.7160922e-38
-1.2233634 -0.23028167 2.5290356 1.7529379e-38
-1.228467 -0.23068923 2.5280676 1.5782347e-38
-1.2268583 -0.31810963 2.543463 7.2682773e-39
-1.2214584 -0.3079032 2.5428023 1.0322525e-38
-1.2213044 -0.30332816 2.5420451 1.5856146e-38
-1.2211503 -0.29875314 2.5412879 1.4753392e-38
-1.2209963 -0.2941781 2.5405307 1.7612159e-38
-1.2208421 -0.28960314 2.5397732 1.8351539e-38
-1.2206881 -0.28502807 2.539016 1.9181649e-38
-1.2205341 -0.28045303 2.5382588 1.7801239e-38
-1.2203801 -0.27587795 2.5375018 1.7156223e-38
-1.220226 -0.271303 2.5367444 1.7709763e-38
-1.220072 -0.26672792 2.5359871 1.9185599e-38
-1.2199179 -0.26215291 2.5352299 1.8724635e-38
-1.2197639 -0.25757787 2.5344727 1.9645868e-38
-1.2196099 -0.25300285 2.5337155 1.9737713e-38
-1.2194558 -0.24842785 2.532958 1.9001205e-38
-1.2193018 -0.24385273 2.5322008 1.8078233e-38
-1.2191477 -0.23927768 2.5314438 2.0841229e-38
-1.2242199 -0.23975252 2.5304937 2.0380622e-38
-1.2240647 -0.23514324 2.5297308 1.8907272e-38
-1.2239095 -0.230534 2.5289681 1.7250994e-38
-1.2221454 -0.31334519 2.5436006 1.1428856e-38
-1.2167805 -0.30317414 2.5429387 1.6040537e-38
-1.2166264 -0.29859909 2.5421815 1.5306565e-38
-1.2164724 -0.29402408 2.5414243 1.7888388e-38
-1.2163184 -0.28944901 2.5406673 1.8074952e-38
-1.2161642 -0.28487399 2.5399101 1.7983107e-38
-1.2160102 -0.28029898 2.5391526 1.7339901e-38
-1.2158562 -0.27572393 2.5383954 1.7616843e-38
-1.2157022 -0.27114895 2.5376382 1.7894154e-38
-1.2155482 -0.26657388 2.536881 1.8448034e-38
-1.215394 -0.26199886 2.5361238 1.8264016e-38
-1.21524 -0.25742385 2.5353665 1.9000499e-38
-1.215086 -0.2528488 2.5346093 1.9092344e-38
-1.214932 -0.24827373 2.5338521 1.8909009e-38
-1.2147779 -0.24369861 2.5330949 1.8539212e-38
-1.2146238 -0.23912364 2.5323374 2.1394403e-38
-1.2196623 -0.23959729 2.5313942 2.0933796e-38
-1.2195071 -0.23498806 2.5306313 1.9276054e-38
-1.2193519 -0.23037882 2.5298684 1.6974406e-38
-1.2191967 -0.22576953 2.5291057 1.6788572e-38
-1.2226084 -0.31414145 2.5436435 1.9351957e-38
-1.2172775 -0.30397153 2.5429752 1.8158459e-38
-1.2171223 -0.2993623 2.5422122 1.8250314e-38
-1.2117947 -0.28929502 2.5415606 1.7976971e-38
-1.2116406 -0.28472 2.5408034 1.7426693e-38
-1.2114866 -0.28014493 2.5400462 1.7428121e-38
-1.2165016 -0.28092533 2.5391607 1.724445e-38
-1.2163464 -0.27631605 2.5383978 1.7612157e-38
-1.2161912 -0.27170685 2.5376348 1.7337031e-38
-1.216036 -0.26709762 2.5368719 1.7154423e-38
-1.2158808 -0.26248837 2.536109 1.7614327e-38
-1.2157255 -0.25787911 2.5353463 1.8167498e-38
-1.2155703 -0.25326985 2.5345833 1.8259694e-38
-1.2154152 -0.24866055 2.5338204 1.8997265e-38
-1.21526 -0.2440514 2.5330572 1.945824e-38
-1.2170789 -0.28612438 2.5399394 1.5861516e-38
-1.2169226 -0.28148094 2.539171 1.6137027e-38
-1.2167662 -0.2768375 2.5384023 1.5954096e-38
-1.2166098 -0.27219406 2.5376337 1.6232465e-38
-1.2164536 -0.26755056 2.5368652 1.6599815e-38
-1.2111679 -0.25772393 2.5362465 1.6968955e-38
-1.2110126 -0.2531147 2.5354836 1.7245541e-38
-1.2108575 -0.24850532 2.5347209 1.7245187e-38
-1.2107023 -0.24389614 2.533958 1.7429936e-38
-1.2112367 -0.24882039 2.534698 1.7604578e-38
-1.2066453 -0.24866407 2.535605 1.631384e-38
-1.4220763 -0.26842514 2.4951859 1.9519107e-38
-1.4049186 -0.24641132 2.4948821 1.9703478e-38
-1.4021615 -0.23672573 2.4937735 1.7496236e-38
-1.4136691 -0.23888899 2.4918056 1.5290375e-38
-1.4244894 -0.31092098 2.5020201 1.9154681e-38
-1.4291973 -0.30778399 2.5005219 1.9709654e-38
-1.423545 -0.28792661 2.4982488 1.5468675e-38
-1.4207188 -0.27799788 2.4971123 2.1923746e-38
-1.410477 -0.26169404 2.4963853 2.0997493e-38
-1.3065832 -0.30254784 2.5245626 2.0459891e-38
-1.3038262 -0.29286215 2.523454 2.2495361e-38
-1.3018311 -0.27003297 2.5199249 2.1208926e-38
-1.3006861 -0.31529713 2.5279598 2.3509886e-38
-1.2979292 -0.30561155 2.5268512 2.2589706e-38
-1.286135 -0.33111042 2.5336454 2.3509781e-38
-1.277864 -0.30205348 2.5303195 9.3243815e-39
-1.2751069 -0.29236779 2.529211 1.3378035e-38
-1.3884157 -0.2219931 2.4940307 2.8469004e-39
-1.3882629 -0.21745235 2.493279 3.6734198e-40
-1.3839259 -0.22184028 2.4949174 3.6770072e-40
-1.383773 -0.21729948 2.4941659 2.1122164e-39
-1.3791301 -0.21260574 2.4943013 3.3143287e-39
-1.3481637 -0.13205105 2.486716 2.1169267e-38
-1.3439503 -0.13631374 2.4883077 2.1445131e-38
-1.358737 -0.19045453 2.4946318 2.0621461e-38
-1.3508378 -0.17831568 2.4941463 2.0896618e-38
-1.3512731 -0.18444347 2.4951141 2.0987009e-38
-1.3263547 -0.13130842 2.4910245 2.2550744e-38
-1.3469362 -0.18883142 2.4967527 2.3475526e-38
-1.3467833 -0.18429056 2.4960012 2.3474461e-38
-1.3424462 -0.1886785 2.4976399 2.3479487e-38
-1.3397025 -0.17959116 2.4966316 2.1724197e-38
-1.3381093 -0.19306639 2.4992783 2.3483485e-38
-1.3403646 -0.2159867 2.5027702 2.3490671e-38
-1.3337723 -0.19745433 2.500917 2.3488507e-38
-1.3336194 -0.19291356 2.5001652 2.3484926e-38
-1.3334665 -0.18837275 2.4994137 2.3485636e-38
-1.3356869 -0.21125764 2.5029066 2.3492126e-38
-1.3292823 -0.19730146 2.5018039 2.3491055e-38
-1.3291293 -0.19276065 2.5010524 2.3491431e-38
-1.331163 -0.21110356 2.5038004 2.3492126e-38
-1.3249453 -0.20168942 2.5034423 2.3492116e-38
-1.3247924 -0.19714859 2.5026908 2.3492135e-38
-1.3206331 -0.18904865 2.5021408 2.2098415e-38
-1.324869 -0.20997238 2.5048857 2.2375336e-38
-1.3264853 -0.20637453 2.5039368 2.3489586e-38
-1.3263313 -0.20179948 2.5031796 2.349103e-38
-1.3115056 -0.19027285 2.5042088 2.209551e-38
-1.3121836 -0.20418857 2.5064695 2.2001154e-38
-1.3047909 -0.2330545 2.5129485 2.347053e-38
-1.3040206 -0.21017928 2.5091627 2.3478808e-38
-1.2996509 -0.21460031 2.5108135 2.3480251e-38
-1.2994969 -0.21002527 2.5100563 2.3480257e-38
-1.2952812 -0.21902122 2.5124648 2.3479891e-38
-1.2951272 -0.21444623 2.5117073 2.3479891e-38
-1.2949731 -0.2098712 2.5109501 2.3480257e-38
-1.2907574 -0.21886724 2.5133581 2.347988e-38
-1.2848418 -0.20939502 2.5129287 2.3480236e-38
-1.2858373 -0.2266531 2.5157013 2.2940433e-38
-1.2799547 -0.20764649 2.513622 2.0633018e-38
-1.2773403 -0.22298017 2.5167966 2.3480594e-38
-1.2771863 -0.21840513 2.5160394 2.3479161e-38
-1.2726624 -0.21825105 2.5169332 2.347883e-38
-1.2682927 -0.22267208 2.518584 2.3479518e-38
-1.2681386 -0.21809703 2.5178268 2.3480269e-38
-1.263769 -0.22251801 2.5194778 2.3477715e-38
-1.263615 -0.21794301 2.5187204 2.3479861e-38
-1.263461 -0.21336798 2.5179632 2.3470497e-38
-1.2595533 -0.23151404 2.5218859 2.3484249e-38
-1.2593992 -0.22693904 2.5211284 2.2931711e-38
-1.2592453 -0.22236398 2.5203714 2.3479515e-38
-1.2589371 -0.21321391 2.518857 2.3281784e-38
-1.258629 -0.20406389 2.5173423 2.3473414e-38
-1.257724 -0.22327183 2.5208373 1.8902556e-38
-1.2544134 -0.21305989 2.5197506 1.9805735e-38
-1.2542593 -0.20848484 2.5189934 2.0633698e-38
-1.2500436 -0.21748088 2.5214014 2.3509802e-38
-1.2498896 -0.21290581 2.5206444 2.100392e-38
-1.2497356 -0.20833077 2.5198872 2.183224e-38
-1.2495816 -0.2037558 2.5191298 2.3496118e-38
-1.2492734 -0.19460572 2.5176153 2.3492868e-38
-1.24552 -0.21732678 2.5222955 2.3509886e-38
-1.2453659 -0.21275179 2.521538 1.9271312e-38
-1.2411503 -0.22174785 2.523946 2.3509886e-38
-1.2408421 -0.21259773 2.5224319 1.9179115e-38
-1.2239026 -0.16688178 2.517998 2.3503683e-38
-1.2367805 -0.2261688 2.5255971 2.341805e-38
-1.2363185 -0.21244369 2.5233254 1.4760929e-38
-1.2361643 -0.20786865 2.5225682 1.7975548e-38
-1.2194786 -0.16673113 2.518872 2.3500103e-38
-1.2317947 -0.21228963 2.5242193 1.494532e-38
-1.2316406 -0.20771459 2.5234621 1.769896e-38
-1.2366509 -0.20334418 2.5216894 2.3499746e-38
-1.232559 -0.2170167 2.5248785 1.3837151e-38
-1.2324038 -0.21240743 2.5241156 1.6591518e-38
-1.2106304 -0.16642983 2.5206199 2.3491453e-38
-1.2283119 -0.22607999 2.5273046 1.8081124e-38
-1.2281567 -0.22147071 2.5265419 1.7346414e-38
-1.2280015 -0.21686149 2.525779 1.4114098e-38
-1.2278463 -0.21225221 2.5250161 1.6868464e-38
-1.2273806 -0.19842452 2.5227275 2.2480535e-38
-1.2237543 -0.2259248 2.5282049 1.8540287e-38
-1.2235991 -0.22131559 2.527442 1.7528631e-38
-1.2229784 -0.20287861 2.5243905 2.1742952e-38
-1.2140183 -0.20717743 2.5269542 2.1742955e-38
-1.2138633 -0.2025682 2.5261912 2.238545e-38
-1.1929342 -0.16582723 2.524116 2.3485663e-38
-1.2096159 -0.21163146 2.5286176 1.9438067e-38
-1.2094609 -0.20702219 2.5278549 2.1742955e-38
-1.1886607 -0.17015082 2.5257306 2.348602e-38
-1.1885102 -0.16567658 2.5249901 2.3485663e-38
-1.2052134 -0.21608552 2.5302808 1.9435505e-38
-1.2050583 -0.2114763 2.5295179 2.1365521e-38
-1.1861814 -0.17266938 2.5266693 2.1726028e-38
-1.1840862 -0.16552593 2.5258641 2.3484221e-38
-1.2011214 -0.22975804 2.5334702 1.8882715e-38
-1.1798128 -0.16984951 2.5274787 2.3483849e-38
-1.1796622 -0.16537528 2.5267382 2.348242e-38
-1.196564 -0.2296029 2.5343702 2.3471255e-38
-1.1802872 -0.17862637 2.5288951 2.3481337e-38
-1.1753887 -0.16969882 2.5283527 2.3480262e-38
-1.1799634 -0.18109816 2.5293872 2.1814619e-38
-1.1627665 -0.1870327 2.5339081 2.347341e-38
-1.1584619 -0.19138759 2.5355344 2.3472685e-38
-1.1581584 -0.18237431 2.5340426 2.347018e-38
-1.1492463 -0.18207084 2.5358033 2.3468721e-38
-1.3792607 -0.18604529 2.4896967 2.0251614e-38
-1.369628 -0.17078416 2.4890258 2.0434576e-38
-1.3609024 -0.17387314 2.4913335 2.1632336e-38
-1.3022188 -0.18681458 2.505502 2.0054641e-38
-1.1618288 -0.15840998 2.5291655 2.2272728e-38
-1.1591794 -0.14910285 2.5281 2.1348992e-38
-1.4498023 -0.37965593 2.508718 2.1430786e-38
-1.4454328 -0.38407683 2.5103693 2.1793783e-38
-1.440909 -0.38392285 2.5112629 2.1323451e-38
-1.4023739 -0.39314568 2.5206919 2.1344679e-38
-1.3932587 -0.39283529 2.5224926 2.347063e-38
-1.2681396 -0.27614838 2.5278327 1.6639085e-38
-1.267988 -0.27164179 2.5270865 1.3598828e-38
-1.2636836 -0.27599666 2.528713 2.350987e-38
-1.2635318 -0.27149004 2.527967 2.3509852e-38
-1.2592274 -0.2758449 2.5295935 2.350988e-38
-1.2590758 -0.27133831 2.5288472 2.3509859e-38
-1.2547715 -0.27569312 2.5304739 2.3509886e-38
-1.2546197 -0.27118656 2.5297277 2.3509886e-38
-1.254468 -0.26667994 2.5289817 2.3509886e-38
-1.2589724 -0.24026337 2.5235121 2.3509824e-38
-1.2506187 -0.28455469 2.5328457 2.3509884e-38
-1.2504669 -0.28004801 2.5321 2.2316013e-38
-1.2503152 -0.27554142 2.5313542 2.3509886e-38
-1.2501634 -0.27103481 2.5306082 2.3509886e-38
-1.2500117 -0.26652819 2.5298622 2.3509886e-38
-1.2546355 -0.24465135 2.5251508 2.3509856e-38
-1.2544825 -0.24011049 2.524399 2.3509846e-38
-1.2541767 -0.23102885 2.5228961 2.3504363e-38
-1.2457074 -0.27088311 2.5314882 2.3509886e-38
-1.2501456 -0.24449843 2.5260379 2.3509886e-38
-1.2499926 -0.23995757 2.5252862 2.3509886e-38
-1.2498398 -0.23541676 2.5245349 2.3509886e-38
-1.2496868 -0.23087594 2.5237832 2.3509886e-38
-1.2458085 -0.24888642 2.5276763 2.3509886e-38
-1.2456555 -0.24434556 2.5269248 2.3509886e-38
-1.2455026 -0.23980466 2.5261734 2.3509886e-38
-1.2453498 -0.23526393 2.5254216 2.3509886e-38
-1.2451968 -0.23072307 2.5246701 2.3509886e-38
-1.245044 -0.22618228 2.5239184 2.3509886e-38
-1.244891 -0.22164144 2.5231669 2.3509886e-38
-1.2447382 -0.21710059 2.5224154 2.3509838e-38
-1.2414714 -0.25327432 2.5293152 2.3509886e-38
-1.2413186 -0.24873351 2.5285635 2.3509886e-38
-1.2411656 -0.24419264 2.527812 2.3509886e-38
-1.2410127 -0.23965178 2.5270603 2.3509886e-38
-1.2408599 -0.23511101 2.5263088 2.3326215e-38
-1.2407069 -0.2305702 2.525557 2.3509886e-38
-1.2405541 -0.22602937 2.5248055 2.3509886e-38
-1.2404011 -0.22148852 2.5240541 2.3509886e-38
-1.2402483 -0.21694773 2.5233023 2.3509886e-38
-1.2372873 -0.2622031 2.5317051 2.2867034e-38
-1.2371343 -0.25766227 2.5309536 2.3509886e-38
-1.2369815 -0.25312147 2.5302019 2.3509886e-38
-1.2368286 -0.24858059 2.5294507 2.3509886e-38
-1.2366757 -0.24403982 2.5286987 2.3509886e-38
-1.2365228 -0.23949891 2.5279474 2.2407857e-38
-1.23637 -0.23495813 2.5271957 2.1489477e-38
-1.236217 -0.23041727 2.5264442 2.3142538e-38
-1.233256 -0.27567264 2.534847 2.0203763e-38
-1.2327974 -0.26205018 2.5325923 2.2224166e-38
-1.2324916 -0.25296855 2.5310891 1.7165552e-38
-1.2321858 -0.2438869 2.5295858 1.5692612e-38
-1.2318798 -0.23480524 2.5280826 2.0661192e-38
-1.2325649 -0.23516475 2.5280056 2.167317e-38
-1.2324108 -0.23058972 2.5272484 2.1764982e-38
-1.2322568 -0.22601469 2.5264912 2.1581316e-38
-1.2319487 -0.21686466 2.5249765 2.0754421e-38
-1.227579 -0.22128569 2.5266273 1.9740645e-38
-1.1913891 -0.2200533 2.533777 2.0146053e-38
-1.1868652 -0.21989924 2.5346708 2.1712996e-38
-1.3719263 -0.14994846 2.4849668 1.8504229e-38
-1.3616942 -0.14573021 2.4863212 1.7951415e-38
-1.3615458 -0.14131902 2.4855912 1.9886054e-38
-1.3613971 -0.13690785 2.4848609 2.1078504e-38
-1.3573327 -0.14558162 2.4871831 1.840987e-38
-1.3571841 -0.14117047 2.4864528 1.9881387e-38
-1.3581836 -0.13733272 2.4855878 1.9417543e-38
-1.3529708 -0.14543313 2.4880447 1.840987e-38
-1.3528223 -0.14102197 2.4873145 1.9881387e-38
-1.3526738 -0.13661076 2.4865844 2.07072e-38
-1.3463936 -0.13647659 2.4878387 2.0063983e-38
-1.3398857 -0.14498752 2.4906299 1.9328932e-38
-1.3409303 -0.14223431 2.4899428 1.9881386e-38
-1.3395886 -0.13616516 2.4891696 2.1722426e-38
-1.3329667 -0.15283453 2.4933898 1.9237818e-38
-1.3352269 -0.13601665 2.4900312 2.1722426e-38
-1.3258064 -0.17482091 2.4986362 2.3488164e-38
-1.3213823 -0.17467026 2.4995103 2.3486724e-38
-1.3184866 -0.16886845 2.499099 2.1817853e-38
-1.3228823 -0.18348213 2.5007238 2.3492138e-38
-1.311186 -0.1700637 2.5007904 2.3491397e-38
-1.3126849 -0.1788432 2.5019987 2.3492138e-38
-1.3098533 -0.17247337 2.501477 2.2004757e-38
-1.3055321 -0.16104515 2.5003862 2.1814249e-38
-1.314122 -0.18768524 2.5032306 2.3491395e-38
-1.3025516 -0.17420636 2.5032611 2.3491398e-38
-1.3024021 -0.16976459 2.5025256 2.3490672e-38
-1.2981596 -0.17405678 2.5041287 2.3487797e-38
-1.2987721 -0.17361419 2.5039279 2.1903573e-38
-1.2951394 -0.18271473 2.5062356 2.3481663e-38
-1.2805064 -0.16073912 2.5054245 2.1809591e-38
-1.2820178 -0.186737 2.5095983 2.3477011e-38
-1.2832327 -0.19563632 2.5108848 2.3476654e-38
-1.2774432 -0.18211216 2.5097315 2.3474845e-38
-1.2772925 -0.17763804 2.5089908 2.347377e-38
-1.2771418 -0.17316376 2.5082505 2.3473044e-38
-1.2846889 -0.20485418 2.5121772 2.348096e-38
-1.2787765 -0.19548456 2.5117652 2.3476282e-38
-1.2786248 -0.19097795 2.5110192 2.3475222e-38
-1.278473 -0.18647133 2.5102732 2.3471626e-38
-1.2728685 -0.1774873 2.509865 2.347018e-38
-1.2727178 -0.17301311 2.5091245 2.3468741e-38
-1.2747757 -0.20885269 2.514883 2.3479518e-38
-1.2803518 -0.20924211 2.5138159 2.3479874e-38
-1.2744722 -0.19983937 2.5133915 2.348096e-38
-1.280046 -0.20016052 2.5123127 2.3476282e-38
-1.2741687 -0.19082618 2.5118997 2.3475222e-38
-1.274017 -0.18631956 2.5111537 2.3470904e-38
-1.2738652 -0.18181302 2.5104077 2.347018e-38
-1.2775284 -0.17999581 2.5093493 2.1632406e-38
-1.2681431 -0.16838822 2.509258 2.3469101e-38
-1.275862 -0.20908915 2.5147033 2.3478082e-38
-1.2698643 -0.19518112 2.5135257 2.3476636e-38
-1.2697126 -0.19067448 2.5127797 2.3474848e-38
-1.2695609 -0.18616779 2.5120342 2.347018e-38
-1.2694092 -0.1816612 2.5112882 2.3469461e-38
-1.2692574 -0.17715459 2.5105424 2.347053e-38
-1.2691057 -0.172648 2.5097964 2.347017e-38
-1.271372 -0.20893627 2.5155902 2.3476282e-38
-1.271219 -0.20439543 2.5148387 2.3475921e-38
-1.2710662 -0.19985469 2.514087 2.3476274e-38
-1.2652566 -0.19052273 2.5136602 2.3472688e-38
-1.270105 -0.19049542 2.5126693 2.1915839e-38
-1.2649531 -0.18150952 2.5121684 2.3468382e-38
-1.2648014 -0.17700286 2.5114226 2.3469451e-38
-1.2592951 -0.16808696 2.5110059 2.347017e-38
-1.2668821 -0.2087834 2.5164771 2.347091e-38
-1.2667291 -0.2042426 2.5157254 2.3470899e-38
-1.2665763 -0.19970182 2.5149739 2.3473059e-38
-1.2664235 -0.19516097 2.5142224 2.3472699e-38
-1.2606487 -0.18586436 2.5137947 2.3469811e-38
-1.260497 -0.18135776 2.5130486 2.346982e-38
-1.2603453 -0.17685115 2.5123029 2.3467666e-38
-1.2623166 -0.17190625 2.5110493 2.2003715e-38
-1.2600418 -0.16783777 2.5108113 2.3466227e-38
-1.2623922 -0.20863052 2.517364 2.347091e-38
-1.2622392 -0.20408967 2.5166125 2.3469817e-38
-1.2620864 -0.1995489 2.515861 2.347342e-38
-1.2619334 -0.1950081 2.5151093 2.347342e-38
-1.2617805 -0.19046724 2.5143578 2.3472332e-38
-1.2616277 -0.18592648 2.5136061 2.3472341e-38
-1.2558892 -0.17669943 2.5131831 2.3468748e-38
-1.2557374 -0.17219278 2.5124373 2.3466225e-38
-1.2555857 -0.16768609 2.5116913 2.3465867e-38
-1.2577493 -0.20393676 2.5174997 2.3470093e-38
-1.2575965 -0.19939603 2.516748 2.3473414e-38
-1.2572906 -0.19031437 2.5152447 2.3471616e-38
-1.2571378 -0.18577357 2.5144932 2.3470896e-38
-1.2569848 -0.18123271 2.5137417 2.3469441e-38
-1.2460228 -0.16763505 2.5136278 2.3466216e-38
-1.2458721 -0.16316074 2.5128875 2.3464789e-38
-1.2529536 -0.19470231 2.5168834 2.3472338e-38
-1.2528007 -0.19016145 2.5161319 2.3471255e-38
-1.2526479 -0.18562064 2.5153804 2.3470536e-38
-1.2469769 -0.17639589 2.5149441 2.347016e-38
-1.2415988 -0.16748436 2.514502 2.3467655e-38
-1.2414482 -0.16301014 2.5137613 2.3464069e-38
-1.2484637 -0.1945494 2.5177705 2.3488562e-38
-1.2483108 -0.19000854 2.517019 2.3487465e-38
-1.2481579 -0.18546776 2.5162673 2.3300184e-38
-1.2439737 -0.19439648 2.5186577 2.3495043e-38
-1.2449038 -0.19902669 2.5192664 2.3509109e-38
-1.2447498 -0.19445162 2.5185094 2.3508725e-38
-1.2284772 -0.17150663 2.5178645 2.3505114e-38
-1.2283266 -0.16703245 2.5171239 2.3502602e-38
-1.2409962 -0.2171728 2.5231888 2.3509886e-38
-1.2406881 -0.20802264 2.5216749 2.1473237e-38
-1.2405341 -0.20344763 2.5209177 2.3509817e-38
-1.24038 -0.19887263 2.5201602 2.350983e-38
-1.240226 -0.1942976 2.519403 2.3508005e-38
-1.2366265 -0.22159372 2.5248401 2.3509886e-38
-1.2364725 -0.21701868 2.5240829 2.2683355e-38
-1.2360103 -0.20329364 2.521811 2.3504765e-38
-1.2358563 -0.19871859 2.5210538 2.3504067e-38
-1.2357023 -0.19414358 2.5202966 2.3501887e-38
-1.2300453 -0.18031533 2.5190639 2.3500458e-38
-1.2321028 -0.2214397 2.5257337 2.2683348e-38
-1.2314866 -0.20313957 2.5227048 2.276648e-38
-1.2258612 -0.18924408 2.5214541 2.3498647e-38
-1.2265007 -0.1892605 2.5213265 2.3492173e-38
-1.2201691 -0.18945359 2.5226481 2.0171331e-38
-1.2113283 -0.17518198 2.5219867 2.3305261e-38
-1.2176073 -0.19352739 2.5238714 2.257055e-38
-1.2174532 -0.18895237 2.5231142 2.3028636e-38
-1.2086732 -0.17535304 2.5225563 2.0720162e-38
-1.2132375 -0.19794834 2.5255225 2.1374528e-38
-1.2130834 -0.19337335 2.524765 2.2293605e-38
-1.2129294 -0.18879834 2.5240078 2.2291071e-38
-1.2024159 -0.17487851 2.5237474 2.3209796e-38
-1.2093801 -0.1933267 2.5255105 2.0996388e-38
-1.2084057 -0.18864428 2.5249016 2.348711e-38
-1.1976483 -0.17414561 2.524591 2.1268652e-38
-1.2041901 -0.19764026 2.5273099 2.2477646e-38
-1.2040361 -0.19306527 2.5265524 2.3488188e-38
-1.203882 -0.18849024 2.5257952 2.3487832e-38
-1.1998203 -0.20206128 2.5289607 2.2933569e-38
-1.1996663 -0.19748624 2.5282035 2.3302702e-38
-1.197613 -0.19167934 2.5276206 2.1635632e-38
-1.1942788 -0.18363307 2.5269115 2.3486016e-38
-1.1954505 -0.20648226 2.5306115 2.1734303e-38
-1.1952965 -0.2019072 2.5298545 2.2472231e-38
-1.1951425 -0.19733216 2.5290973 2.247294e-38
-1.1899418 -0.18802097 2.5285501 2.3484573e-38
-1.1847433 -0.17877819 2.5280147 2.3484577e-38
-1.1912351 -0.21547821 2.53302 2.0244705e-38
-1.191081 -0.21090318 2.5322628 2.320078e-38
-1.1909269 -0.20632814 2.5315056 2.3476644e-38
-1.1857576 -0.19694966 2.5309408 2.3478443e-38
-1.1888925 -0.19537698 2.5300317 2.209227e-38
-1.1854519 -0.187868 2.5294375 2.3481689e-38
-1.1870192 -0.22447427 2.535428 2.3475936e-38
-1.1867112 -0.21532419 2.5339136 2.0705317e-38
-1.1865572 -0.21074921 2.5331562 2.3477366e-38
-1.1814206 -0.20133761 2.5325792 2.3476644e-38
-1.1812676 -0.19679683 2.5318274 2.3479162e-38
-1.1811148 -0.19225599 2.531076 2.3479881e-38
-1.1765219 -0.18496698 2.5307539 2.2924566e-38
-1.1824955 -0.22432025 2.5363219 2.3481364e-38
-1.1773895 -0.2148072 2.5357208 2.3462993e-38
-1.1772366 -0.2102664 2.5349693 2.3463312e-38
-1.1770836 -0.20572554 2.5342178 2.3473421e-38
-1.1769308 -0.20118473 2.5334661 2.3474852e-38
-1.1767778 -0.19664392 2.5327146 2.3476287e-38
-1.1716785 -0.18733613 2.5321476 2.3477006e-38
-1.1715268 -0.18282953 2.5314016 2.347665e-38
-1.1779717 -0.22416624 2.5372152 2.3479922e-38
-1.1728995 -0.21465433 2.5366077 2.3465153e-38
-1.1727465 -0.21011353 2.5358562 2.3465471e-38
-1.1725937 -0.20557271 2.5351045 2.3472341e-38
-1.1675259 -0.19619761 2.5345197 2.3474852e-38
-1.1722879 -0.19649105 2.5336015 2.3475205e-38
-1.1672225 -0.18718442 2.5330279 2.3475564e-38
-1.1732939 -0.21943717 2.5373518 2.3468738e-38
-1.1682566 -0.20996065 2.5367432 2.3470502e-38
-1.1681038 -0.20541979 2.5359917 2.3473406e-38
-1.1630698 -0.19604589 2.5353999 2.3473762e-38
-1.167798 -0.19633818 2.5344884 2.3472685e-38
-1.1736209 -0.22421761 2.5381095 2.3468738e-38
-1.1637667 -0.20980772 2.5376303 2.346978e-38
-1.1636138 -0.20526692 2.5368786 2.3471965e-38
-1.1586137 -0.19589414 2.5362804 2.3472321e-38
-1.1583102 -0.18688093 2.5347886 2.347377e-38
-1.1592768 -0.20965487 2.5385172 2.3478798e-38
-1.1591239 -0.20511396 2.537766 2.3479521e-38
-1.1589711 -0.20057316 2.5370142 2.3479531e-38
-1.1588181 -0.19603233 2.5362628 2.3476661e-38
-1.1586653 -0.1914915 2.5355113 2.3475924e-38
-1.1595687 -0.21439996 2.5392759 2.3482039e-38
-1.1594146 -0.20982493 2.5385187 2.3482042e-38
-1.1544811 -0.20042029 2.5379012 2.3481333e-38
-1.1543282 -0.19587946 2.5371497 2.3478101e-38
-1.1541753 -0.19133867 2.5363979 2.3474842e-38
-1.1596377 -0.21453349 2.5392849 2.3496116e-38
-1.1594826 -0.20992427 2.538522 2.3496478e-38
-1.1545829 -0.20052084 2.5378978 2.3489621e-38
-1.1591722 -0.20070584 2.5369961 2.3483848e-38
-1.159017 -0.19609657 2.5362334 2.3201457e-38
-1.3513864 -0.15874647 2.4906619 2.0155452e-38
-1.3184654 -0.14475645 2.4949474 1.9506494e-38
-1.3191856 -0.16273716 2.4979002 1.9687653e-38
-1.3020139 -0.1688163 2.5024414 1.9962796e-38
-1.169414 -0.17288159 2.5301168 2.2274543e-38
