# .PCD v0.7 - Point Cloud Data file format
VERSION 0.7
FIELDS x y z rgb
SIZE 4 4 4 4
TYPE F F F F
COUNT 1 1 1 1
WIDTH 1025
HEIGHT 1
VIEWPOINT 0 0 0 1 0 0 0
POINTS 1025
DATA ascii
-0.055366725 1.9290988 -1.3513123 1.6587815e-39
-0.054596882 1.9283196 -1.3487278 1.3822002e-39
-0.055854764 1.9257095 -1.3411222 1.565511e-39
-0.056066666 1.9165471 -1.3132704 2.2090812e-39
-0.056717124 1.9136432 -1.3046035 3.5891205e-39
-0.059585232 1.9135826 -1.3052042 2.4871044e-39
-0.057179 1.9117361 -1.2989209 3.3150644e-39
-0.062977299 1.9307531 -1.3584358 1.4754678e-39
-0.063898966 1.9277029 -1.3493971 1.8420909e-39
-0.063484132 1.9254321 -1.3423665 1.4736727e-39
-0.063897565 1.9216323 -1.3309052 8.2939073e-40
-0.062122442 1.9162098 -1.3139017 2.2094385e-39
-0.063685812 1.9096988 -1.2944971 3.3125463e-39
-0.06391535 1.908751 -1.2916727 3.22251e-39
-0.064733565 1.9112878 -1.2996241 3.3168679e-39
-0.065907456 1.9083394 -1.2909645 4.4206959e-39
-0.069871798 1.9242266 -1.3404438 2.395622e-39
-0.0705918 1.9287987 -1.354568 1.1992466e-39
-0.071116745 1.9251521 -1.343604 1.8420909e-39
-0.071096286 1.9192207 -1.3255308 1.0137778e-39
-0.070142411 1.9169878 -1.3184682 1.1974502e-39
-0.070519552 1.9099473 -1.2971256 2.1190365e-39
-0.070749111 1.9089994 -1.2943014 3.130313e-39
-0.070978694 1.9080517 -1.2914771 3.3150742e-39
-0.073839381 1.9086562 -1.2941023 4.236299e-39
-0.076854542 1.9282633 -1.3546525 1.6598548e-39
-0.07680925 1.9243847 -1.3428257 1.4743916e-39
-0.078569308 1.9170618 -1.3210015 1.1978075e-39
-0.077523246 1.9154731 -1.3158759 8.2938932e-40
-0.077353373 1.9101958 -1.2997541 1.4736727e-39
-0.080090515 1.9077885 -1.293171 7.3683917e-40
-0.077812515 1.9083002 -1.2941058 2.4871114e-39
-0.088007309 1.9224561 -1.3400179 1.1992452e-39
-0.08192876 1.9183414 -1.3258194 1.2907192e-39
-0.085711762 1.914299 -1.3145423 1.198169e-39
-0.082441539 1.9073354 -1.2924348 1.0130603e-39
-0.084154628 1.9062568 -1.2896185 6.464358e-40
-0.084382795 1.9053147 -1.2868114 1.8424496e-39
-0.083776109 1.9059767 -1.2886616 2.6707796e-39
-0.084839195 1.9034305 -1.2811967 4.0529924e-39
-0.090120241 1.9365417 -1.3835024 1.4751091e-39
-0.093836181 1.9203113 -1.3350815 1.4740315e-39
-0.093551025 1.9128237 -1.3121952 1.2900017e-39
-0.091650672 1.9068956 -1.2936175 1.1045399e-39
-0.090543233 1.9073758 -1.2947768 1.105972e-39
-0.090031333 1.9015356 -1.276847 1.0130603e-39
-0.092085317 1.9027973 -1.2812529 1.2896486e-39
-0.090757571 1.9035918 -1.2833092 2.3959864e-39
-0.091577098 1.8997852 -1.2719384 4.0537014e-39
-0.090986468 1.8965373 -1.2618831 4.0554937e-39
-0.10011492 1.9419719 -1.4027805 1.4733196e-39
-0.097789817 1.9390711 -1.3933076 1.7516931e-39
-0.097865954 1.9365147 -1.3855419 1.4747503e-39
-0.096667141 1.9328098 -1.3739283 1.4743916e-39
-0.098289959 1.9264215 -1.3549134 1.382196e-39
-0.097037584 1.9225243 -1.3426993 1.1992452e-39
-0.09708681 1.9172781 -1.3267319 1.198525e-39
-0.10097536 1.9123217 -1.3126997 1.2900017e-39
-0.09987276 1.9099668 -1.3052244 1.0141421e-39
-0.097719803 1.9048885 -1.2891659 1.3811268e-39
-0.09819033 1.9045722 -1.2883313 1.4740399e-39
-0.098483078 1.9009616 -1.2774134 7.3755383e-40
-0.098017439 1.9011691 -1.2779179 5.5424297e-40
-0.097656287 1.9002043 -1.2748798 2.5782238e-39
-0.097316585 1.8952142 -1.259587 2.9491643e-39
-0.098109923 1.8920076 -1.2500367 4.5143208e-39
-0.10206793 1.8923038 -1.2520227 4.1473348e-39
-0.096500538 1.8786062 -1.2087741 2.9484469e-39
-0.10775553 1.9432968 -1.4089091 1.5676718e-39
-0.10680047 1.9415215 -1.4032401 1.9350138e-39
-0.10597327 1.9401388 -1.3988017 2.3030677e-39
-0.10635933 1.9341122 -1.3805497 1.9346453e-39
-0.10670199 1.9296697 -1.3671114 1.4747517e-39
-0.10490923 1.9225212 -1.3448457 1.7506155e-39
-0.10466675 1.9192665 -1.3348647 1.290722e-39
-0.10404471 1.9169713 -1.3277032 1.198525e-39
-0.10598556 1.9106882 -1.3090962 1.1056133e-39
-0.10665772 1.9061025 -1.2953117 1.3829148e-39
-0.10583079 1.9051844 -1.2922885 1.1070482e-39
-0.1038602 1.9046748 -1.2901968 1.1063307e-39
-0.10587807 1.9014921 -1.2810546 1.1992424e-39
-0.1053791 1.8994087 -1.2745715 9.2230102e-40
-0.10486652 1.8972288 -1.2677916 1.8420965e-39
-0.1045863 1.894446 -1.2592379 2.7644101e-39
-0.10501021 1.8913245 -1.2498455 5.1578728e-39
-0.10801785 1.8858689 -1.2340513 2.4892498e-39
-0.10492943 1.8791652 -1.2127855 2.3952787e-39
-0.11261977 1.9423745 -1.4074318 2.4871114e-39
-0.11374646 1.9395254 -1.3990619 1.8442545e-39
-0.11281065 1.938612 -1.3960236 1.7520491e-39
-0.11294499 1.9347831 -1.384397 1.6591388e-39
-0.11432935 1.9289631 -1.3670481 1.5665872e-39
-0.11309028 1.9210761 -1.3426843 1.3829148e-39
-0.11196524 1.9190902 -1.3363268 1.382196e-39
-0.11072808 1.9159911 -1.3265479 1.2903605e-39
-0.10999716 1.9100496 -1.3082492 1.2903605e-39
-0.11234013 1.9054658 -1.294929 1.198169e-39
-0.11087894 1.9010493 -1.2810752 1.198169e-39
-0.1130954 1.9000121 -1.2785233 1.1063307e-39
-0.11204868 1.9000379 -1.2783151 1.2903605e-39
-0.11128862 1.8945504 -1.2613916 8.3046552e-40
-0.11211698 1.8946868 -1.2620342 1.0127044e-39
-0.11207515 1.8906305 -1.2496666 1.3814827e-39
-0.11058263 1.8884352 -1.2425708 2.8580323e-39
-0.1115093 1.8877078 -1.2406094 3.3154119e-39
-0.11180887 1.8796114 -1.2160288 9.1944377e-40
-0.11731896 1.9397966 -1.4008664 1.659143e-39
-0.11813414 1.9414468 -1.4061164 2.2112308e-39
-0.12020206 1.9378375 -1.3956885 1.6595031e-39
-0.12072427 1.932466 -1.37947 1.3821988e-39
-0.12206943 1.9290427 -1.3694103 1.6591374e-39
-0.12085968 1.922094 -1.3479128 1.3821974e-39
-0.11958908 1.9193912 -1.3393317 1.2903605e-39
-0.12045623 1.9145571 -1.3248446 1.1052545e-39
-0.11762436 1.9124357 -1.3176068 1.2900045e-39
-0.11699386 1.908102 -1.3042334 1.1992424e-39
-0.11834605 1.9065497 -1.2998751 1.7506141e-39
-0.1183703 1.896904 -1.2705003 1.1059748e-39
-0.11937547 1.8993522 -1.2782331 1.4743916e-39
-0.12039483 1.8923388 -1.2571491 1.2903605e-39
-0.11709969 1.8917224 -1.254369 1.105972e-39
-0.11770166 1.8897908 -1.2486498 1.6577025e-39
-0.11792469 1.88887 -1.2459062 1.841742e-39
-0.11814771 1.8879492 -1.2431628 2.7608088e-39
-0.12593421 1.9398533 -1.403399 1.9360872e-39
-0.12462022 1.9408789 -1.4061629 1.6602192e-39
-0.12777285 1.9332563 -1.3838074 1.1985264e-39
-0.12654138 1.9324282 -1.3809477 1.198525e-39
-0.12583885 1.9273196 -1.3651944 1.013419e-39
-0.12959689 1.9257698 -1.3615029 1.1992424e-39
-0.12774433 1.918319 -1.3382995 1.38184e-39
-0.12742113 1.9167598 -1.3334618 1.198169e-39
-0.12580188 1.9113307 -1.3164804 1.3814785e-39
-0.1243032 1.9066507 -1.3018144 1.1988837e-39
-0.12252614 1.9016721 -1.2861627 1.1066909e-39
-0.1245072 1.8979821 -1.2754656 1.1063321e-39
-0.12474845 1.893742 -1.2626157 1.1063307e-39
-0.12710957 1.8953367 -1.2681198 1.5673033e-39
-0.12698013 1.8897759 -1.2511457 1.2910793e-39
-0.12434004 1.8900321 -1.2512032 1.6573507e-39
-0.12456305 1.8891114 -1.2484597 1.6577025e-39
-0.12478607 1.8881906 -1.2457162 1.8428084e-39
-0.13334855 1.9393305 -1.4038368 1.6602206e-39
-0.13236569 1.9401531 -1.4060736 1.6598591e-39
-0.13388887 1.937611 -1.3987472 2.1190365e-39
-0.13397022 1.9361436 -1.3942997 1.3836337e-39
-0.13339002 1.9300723 -1.3756477 1.1063307e-39
-0.13588746 1.9235747 -1.3565391 1.1066895e-39
-0.13537657 1.9186289 -1.3413342 1.565867e-39
-0.13451906 1.9152175 -1.3307078 1.1063349e-39
-0.13283372 1.9098004 -1.3137454 1.1978089e-39
-0.13125473 1.9047693 -1.2979875 1.1066895e-39
-0.13065363 1.9010264 -1.2864217 1.014854e-39
-0.13083541 1.8983077 -1.2781904 1.1063335e-39
-0.12988058 1.8959489 -1.2707434 1.4736741e-39
-0.13154103 1.8901261 -1.2534617 1.014498e-39
-0.12957476 1.887005 -1.243416 1.198525e-39
-0.13051304 1.8875936 -1.245466 2.1190365e-39
-0.13224661 1.8861021 -1.2413974 1.475472e-39
-0.13109714 1.8796351 -1.2213837 1.2889325e-39
-0.13037854 1.8751096 -1.2074015 1.9342921e-39
-0.13035356 1.8699473 -1.1916702 3.8714808e-39
-0.14107546 1.9410914 -1.411317 1.9353739e-39
-0.13935333 1.9358394 -1.3948475 1.936083e-39
-0.14088532 1.9352551 -1.3934871 1.8442461e-39
-0.14154831 1.9345748 -1.391597 1.6591416e-39
-0.1398802 1.9270697 -1.3682787 1.1066909e-39
-0.13883972 1.9222734 -1.3533837 1.3832722e-39
-0.13972564 1.9157736 -1.3338277 9.2122482e-40
-0.14176537 1.9161496 -1.3355317 1.1988837e-39
-0.14121909 1.9128349 -1.3252852 1.3825575e-39
-0.14036083 1.907037 -1.3073893 1.014854e-39
-0.13854741 1.9045297 -1.2992549 1.107051e-39
-0.13767464 1.9007986 -1.2876506 1.2900017e-39
-0.13554558 1.8964921 -1.27395 1.1059748e-39
-0.13831683 1.8972858 -1.2771266 1.2910779e-39
-0.13684857 1.8924651 -1.2620404 1.2914395e-39
-0.13595495 1.8888755 -1.250861 1.9339334e-39
-0.13733897 1.8869178 -1.2452769 2.1190365e-39
-0.1375608 1.8860018 -1.2425476 2.1193911e-39
-0.13847817 1.8777746 -1.2177379 1.1066895e-39
-0.13679814 1.8750846 -1.2090842 8.3010679e-40
-0.13595994 1.8728019 -1.2019011 1.4747573e-39
-0.13747986 1.8698021 -1.1931797 2.6718698e-39
-0.13666257 1.8689253 -1.1902851 4.2399004e-39
-0.14877169 1.938265 -1.4048154 1.751703e-39
-0.1485018 1.9377975 -1.4033178 2.1201141e-39
-0.14575624 1.9341577 -1.3914788 1.7516931e-39
-0.14698783 1.9302952 -1.3800507 2.3037795e-39
-0.14820306 1.9282517 -1.3741585 1.2914395e-39
-0.14690131 1.9246055 -1.3626957 1.1988851e-39
-0.14555971 1.9208854 -1.3509965 1.3821974e-39
-0.14410587 1.9131508 -1.3270379 1.1056245e-39
-0.14569135 1.9126806 -1.3260401 1.7502554e-39
-0.14688338 1.9118924 -1.3239657 1.2903633e-39
-0.144164 1.9032811 -1.2969903 1.0137806e-39
-0.1465764 1.9015231 -1.2922956 1.1974488e-39
-0.14657938 1.8979272 -1.281343 1.1056161e-39
-0.14626609 1.8968762 -1.2780558 1.4740385e-39
-0.14504899 1.8939525 -1.2688168 1.3825575e-39
-0.14355092 1.8892752 -1.2541591 1.5669474e-39
-0.14336178 1.8875301 -1.2487915 1.9350138e-39
-0.14128515 1.8817194 -1.2305228 1.2907206e-39
-0.14519188 1.8763463 -1.2152265 1.6580654e-39
-0.14383249 1.8735212 -1.2062483 1.2900045e-39
-0.14291064 1.8715034 -1.1998494 1.1988865e-39
-0.14428146 1.8678327 -1.1890436 1.5662369e-39
-0.1425641 1.8666608 -1.1850038 3.1317577e-39
-0.15465511 1.9403476 -1.4127706 2.9484371e-39
-0.15452035 1.9348332 -1.3959363 2.1194009e-39
-0.15609862 1.9334435 -1.392136 1.5680236e-39
-0.15352254 1.9320287 -1.3871204 1.9353683e-39
-0.15560044 1.9261394 -1.3697501 1.4743916e-39
-0.15451053 1.9238786 -1.3625652 1.1985292e-39
-0.15347318 1.922174 -1.3570889 1.3818386e-39
-0.15200317 1.9178461 -1.3435031 1.3818386e-39
-0.15151636 1.9104986 -1.320989 1.382196e-39
-0.15098314 1.9087319 -1.3154616 1.2892843e-39
-0.15230942 1.9077846 -1.3129389 1.6577025e-39
-0.15357739 1.9022322 -1.2963731 1.2900017e-39
-0.15303956 1.8995016 -1.2879082 1.0141379e-39
-0.15378319 1.8952278 -1.2750936 1.0148554e-39
-0.15216325 1.8920391 -1.2649369 1.5665844e-39
-0.15093541 1.8891937 -1.2559333 1.7509827e-39
-0.14955132 1.8853061 -1.2437123 1.6587829e-39
-0.14795431 1.8797891 -1.2264701 1.2914409e-39
-0.14973317 1.8796936 -1.226666 2.7608088e-39
-0.14937966 1.8761234 -1.2156943 2.7608088e-39
-0.14921588 1.870966 -1.1999393 1.1066895e-39
-0.15008865 1.866051 -1.185207 1.2921541e-39
-0.1492665 1.8639811 -1.178677 1.1978103e-39
-0.1495212 1.865093 -1.1821336 1.7495506e-39
-0.14929137 1.8628968 -1.1753811 3.4101523e-39
-0.14842236 1.8619822 -1.1723572 4.7012428e-39
-0.1476557 1.8585933 -1.161824 5.1614937e-39
-0.16077298 1.946622 -1.4335588 2.6736466e-39
-0.16039084 1.9406757 -1.4153413 2.2126699e-39
-0.16365905 1.9336483 -1.3948305 1.5669488e-39
-0.16097777 1.9308039 -1.3854318 2.3030677e-39
-0.16300587 1.9240899 -1.365536 1.4740329e-39
-0.1616251 1.9204468 -1.3540603 1.1988851e-39
-0.16026159 1.9213469 -1.3564289 1.4736727e-39
-0.16004656 1.9155796 -1.3388022 1.0144966e-39
-0.15935892 1.9131776 -1.3312974 1.7502554e-39
-0.15809523 1.9126228 -1.3292612 1.1988851e-39
-0.16124178 1.9058032 -1.3093498 1.0137806e-39
-0.15925317 1.9010699 -1.2943873 1.014498e-39
-0.15948625 1.8992141 -1.2887983 1.1988851e-39
-0.16069947 1.8940777 -1.2734846 1.2900045e-39
-0.15984048 1.8898678 -1.2604256 1.2903647e-39
-0.15803127 1.8850304 -1.2451952 1.3825561e-39
-0.15643711 1.8812722 -1.2333106 1.3825561e-39
-0.15525107 1.8760517 -1.2170839 1.1978103e-39
-0.15451613 1.8771958 -1.2203677 1.4751091e-39
-0.15293385 1.8733915 -1.2083459 1.7509785e-39
-0.15662652 1.8725179 -1.2066965 1.8446034e-39
-0.154928 1.8678529 -1.1920214 1.6598548e-39
-0.15696296 1.8657281 -1.1861063 1.7516917e-39
-0.15470655 1.8646907 -1.1823283 1.1066993e-39
-0.15616822 1.8616164 -1.1733642 1.8424749e-39
-0.1550559 1.8595656 -1.1668124 3.7785747e-39
-0.15404581 1.8580698 -1.1619796 4.5164957e-39
-0.15336414 1.8529418 -1.1461725 5.0700198e-39
-0.15345363 1.8496292 -1.1361066 5.7125123e-39
-0.16962181 1.9444472 -1.4293574 3.0409914e-39
-0.16722654 1.9417764 -1.4205663 2.2123154e-39
-0.16853538 1.9313858 -1.3892739 1.3832848e-39
-0.16890721 1.9294097 -1.3833568 1.1978103e-39
-0.16739732 1.9275898 -1.3773992 1.4751133e-39
-0.16956283 1.9236683 -1.3660474 1.2907192e-39
-0.16908136 1.9187318 -1.350879 1.1070524e-39
-0.1678181 1.9158838 -1.3418574 1.0145009e-39
-0.16676542 1.9142047 -1.3364545 1.0141379e-39
-0.16559666 1.9118979 -1.3291076 1.0141379e-39
-0.1656689 1.9051484 -1.308568 8.3010679e-40
-0.16485889 1.8999013 -1.2923632 1.1981662e-39
-0.16468185 1.8977776 -1.2858455 1.3829134e-39
-0.16442202 1.8962871 -1.2812341 1.6577025e-39
-0.16650906 1.8936002 -1.2736212 1.7506141e-39
-0.16676372 1.8917074 -1.2679256 1.6594961e-39
-0.16508445 1.8844678 -1.2454134 1.198525e-39
-0.16321327 1.8796563 -1.2302445 1.2903605e-39
-0.16228141 1.8750985 -1.2161058 1.2917968e-39
-0.16069569 1.871765 -1.2055175 1.7509785e-39
-0.16018467 1.8674114 -1.1921161 1.3829134e-39
-0.15946899 1.8658456 -1.1871502 1.9367977e-39
-0.16188294 1.8676366 -1.1932671 1.4761853e-39
-0.16326243 1.8626797 -1.1785462 1.476544e-39
-0.1626665 1.8608091 -1.1726849 1.4751077e-39
-0.16194837 1.855901 -1.1575376 1.5658838e-39
-0.16107868 1.8561871 -1.1581709 3.2253981e-39
-0.16048428 1.8544726 -1.152786 3.7796593e-39
-0.15970446 1.8498565 -1.1385109 5.2540523e-39
-0.16031693 1.8444705 -1.1222728 3.6863664e-39
-0.17760588 1.9487097 -1.4445286 2.8573246e-39
-0.17502306 1.9410203 -1.4203984 2.1211987e-39
-0.17809398 1.9335245 -1.3984067 1.3822016e-39
-0.17649433 1.9340805 -1.399662 1.4758279e-39
-0.17516704 1.9274216 -1.3790151 1.1063349e-39
-0.17450796 1.9228618 -1.3649452 1.0137806e-39
-0.1769609 1.9193698 -1.3549802 1.1988865e-39
-0.17590919 1.9147279 -1.3405526 8.3046692e-40
-0.17432521 1.9116319 -1.3306879 1.0134205e-39
-0.17281768 1.9089845 -1.3222111 7.3827269e-40
-0.1714842 1.9068139 -1.3152338 1.1070496e-39
-0.17129846 1.9019703 -1.3004291 1.3811212e-39
-0.16991089 1.8950894 -1.2790892 1.0141365e-39
-0.1717798 1.8978236 -1.2879298 1.5669432e-39
-0.17086571 1.895782 -1.2814605 1.4754664e-39
-0.17370258 1.8918877 -1.2703751 1.7502554e-39
-0.17282365 1.8860643 -1.252396 1.1988837e-39
-0.17092612 1.8811054 -1.236771 1.3814785e-39
-0.1703162 1.8764386 -1.2223886 1.2914381e-39
-0.16832417 1.8712332 -1.205987 1.5673033e-39
-0.16705416 1.8694478 -1.2002009 1.6594961e-39
-0.16563459 1.8667547 -1.1916083 1.6598591e-39
-0.16591983 1.8636805 -1.1823223 1.937162e-39
-0.16678025 1.8615481 -1.1760625 2.1208302e-39
-0.16549064 1.8588836 -1.167593 1.8438902e-39
-0.16669054 1.8579643 -1.1651216 2.0271968e-39
-0.16621917 1.8544527 -1.1542959 2.2994831e-39
-0.16811335 1.8541616 -1.1539278 1.659157e-39
-0.16666666 1.8533478 -1.1510527 3.7800054e-39
-0.16595176 1.8437889 -1.1217396 3.778216e-39
-0.18501979 1.9483094 -1.4453396 2.7658479e-39
-0.18295038 1.9406536 -1.4214525 1.8460496e-39
-0.18399817 1.934811 -1.4039426 1.6598605e-39
-0.18179753 1.9276749 -1.3816025 1.1066923e-39
-0.18071508 1.9225051 -1.3655587 1.1066895e-39
-0.18075812 1.9173272 -1.3497981 8.2903059e-40
-0.18300058 1.916557 -1.3480662 1.2892843e-39
-0.18246524 1.9130489 -1.3372337 1.1063307e-39
-0.18086687 1.9084179 -1.3226897 8.3010819e-40
-0.17914155 1.9063277 -1.3158505 9.2265975e-40
-0.17766218 1.9048493 -1.3109417 1.2907206e-39
-0.17754366 1.9009738 -1.2991041 8.3082425e-40
-0.17843139 1.8952643 -1.2819556 1.0141393e-39
-0.17838059 1.8969879 -1.2871919 1.4747517e-39
-0.1777247 1.8935573 -1.2765626 1.5673019e-39
-0.17732941 1.8830855 -1.2445564 1.013419e-39
-0.1753858 1.87791 -1.2282591 1.1056147e-39
-0.17745768 1.8786041 -1.2309407 1.7513358e-39
-0.17566127 1.8727653 -1.2126632 1.6591416e-39
-0.17378528 1.8684999 -1.1991568 1.6605751e-39
-0.17291448 1.8675894 -1.1961448 1.8453237e-39
-0.17089151 1.8661022 -1.1910609 2.1219078e-39
-0.17382434 1.8617809 -1.1787008 2.1211945e-39
-0.17216799 1.8602716 -1.1736495 2.6743641e-39
-0.17086084 1.8561372 -1.1606982 1.6595003e-39
-0.16953167 1.8514719 -1.1461232 1.0144966e-39
-0.17422143 1.8508416 -1.1454881 1.0141365e-39
-0.17128976 1.8451811 -1.1274427 1.842821e-39
-0.17241628 1.849444 -1.1407363 4.052642e-39
-0.19654009 1.9501144 -1.453993 2.2137629e-39
-0.1942421 1.9485532 -1.4486082 2.674011e-39
-0.19123696 1.9442362 -1.4346348 2.6743795e-39
-0.19082543 1.9377381 -1.4147285 1.9371648e-39
-0.19102606 1.933302 -1.4012709 1.3836337e-39
-0.19066417 1.9298645 -1.3907009 1.4751119e-39
-0.18951391 1.9247754 -1.3748841 1.2917954e-39
-0.1873744 1.9217008 -1.3649325 1.4747489e-39
-0.18569843 1.9132918 -1.3388593 9.2194369e-40
-0.18753204 1.9097325 -1.3285195 7.3647763e-40
-0.18745585 1.9086932 -1.3253326 1.0137806e-39
-0.1869805 1.9052173 -1.3146145 1.0141365e-39
-0.18776953 1.9061792 -1.3177609 1.0144966e-39
-0.18567111 1.9009665 -1.301308 9.2265975e-40
-0.18437399 1.8997909 -1.2973717 1.2910779e-39
-0.1857781 1.8947352 -1.2823559 1.2903647e-39
-0.18429621 1.8928658 -1.2762562 1.5673019e-39
-0.18276398 1.8894579 -1.2654558 1.3832722e-39
-0.18078846 1.8822958 -1.2430984 1.5662299e-39
-0.18163322 1.8782048 -1.2308683 2.3959737e-39
-0.1833294 1.8751374 -1.2219894 2.0275598e-39
-0.18033004 1.8675815 -1.1981521 1.3825547e-39
-0.18064636 1.8678564 -1.1990758 1.7527721e-39
-0.17913125 1.8651954 -1.1905553 1.6602248e-39
-0.18164943 1.8619486 -1.181355 2.3055886e-39
-0.17971569 1.857519 -1.1673324 2.5814566e-39
-0.17835565 1.8550726 -1.159508 2.1211973e-39
-0.17651702 1.8510288 -1.1466868 1.3839938e-39
-0.17585738 1.850704 -1.1455166 1.1077699e-39
-0.18047795 1.8460473 -1.1325976 1.1056161e-39
-0.17791134 1.847048 -1.134943 2.3027201e-39
-0.17879653 1.8436389 -1.1248008 2.395999e-39
-0.19903013 1.9402744 -1.4247017 1.4769139e-39
-0.19836219 1.9444952 -1.4373754 2.5825314e-39
-0.19757816 1.9355276 -1.4098449 1.7527806e-39
-0.19724889 1.9306394 -1.3948647 1.383991e-39
-0.19677299 1.9253355 -1.3785784 1.3829134e-39
-0.19538285 1.9216775 -1.3670552 1.2903605e-39
-0.19450113 1.9209374 -1.3645593 1.1988879e-39
-0.19272678 1.9140618 -1.3431295 1.012703e-39
-0.19217792 1.9116577 -1.3356563 8.2975086e-40
-0.19132875 1.9078646 -1.3238695 8.2974946e-40
-0.19496003 1.9066223 -1.3210802 1.2896458e-39
-0.19242921 1.8988965 -1.2968533 1.014854e-39
-0.19195428 1.8967043 -1.2900459 1.1066895e-39
-0.19281837 1.8938178 -1.2814898 1.2903605e-39
-0.19178742 1.8927401 -1.277925 1.5669432e-39
-0.18960012 1.8868622 -1.2594212 1.4754664e-39
-0.18797849 1.8813746 -1.2422613 1.4747489e-39
-0.18644609 1.8785728 -1.2333075 1.4751091e-39
-0.18527 1.8711033 -1.2102326 1.2903647e-39
-0.18805133 1.8705508 -1.209311 1.2003284e-39
-0.18955868 1.8727804 -1.2165159 1.9378865e-39
-0.18766738 1.8664955 -1.1968535 1.7527778e-39
-0.18850972 1.8602878 -1.178175 2.0300863e-39
-0.18719071 1.8585321 -1.1724659 2.214479e-39
-0.18538815 1.8549705 -1.1611228 2.1222791e-39
-0.18310396 1.8501575 -1.1458368 2.1211973e-39
-0.18305887 1.8486016 -1.1410851 1.3836337e-39
-0.18430676 1.8483605 -1.1406928 1.3814855e-39
-0.18412803 1.8472741 -1.1373342 1.4754664e-39
-0.1838918 1.8413975 -1.1193688 1.6587899e-39
-0.18425021 1.8407397 -1.1174632 2.856617e-39
-0.20421092 1.9465175 -1.4451374 2.1226365e-39
-0.20265734 1.9441829 -1.4376005 2.3988604e-39
-0.20180626 1.934496 -1.4078606 1.7520561e-39
-0.20473963 1.9325581 -1.4027606 1.7531351e-39
-0.20285314 1.9267 -1.3843998 1.2917996e-39
-0.20150536 1.9238138 -1.3752394 1.5687382e-39
-0.20438606 1.9220355 -1.370611 1.198525e-39
-0.20224473 1.918775 -1.3600932 1.1981662e-39
-0.20173217 1.9165318 -1.3531199 8.2974946e-40
-0.19973566 1.9122924 -1.3396593 1.0137778e-39
-0.19808015 1.9103353 -1.3332446 1.1059734e-39
-0.20073693 1.905145 -1.3181626 1.2907234e-39
-0.19793329 1.8971255 -1.2929666 1.0141393e-39
-0.19896929 1.8976091 -1.294723 1.2910807e-39
-0.19943042 1.8913217 -1.2756977 1.1988837e-39
-0.19882771 1.8879703 -1.2653239 1.289643e-39
-0.1978588 1.8867477 -1.2613343 1.4751077e-39
-0.19544549 1.8824828 -1.247682 1.0155714e-39
-0.19451982 1.8787934 -1.2361904 1.4751091e-39
-0.19311073 1.8765653 -1.2290177 1.6591444e-39
-0.19406682 1.8778379 -1.2331558 2.2112322e-39
-0.19421266 1.86887 -1.2058789 1.8474873e-39
-0.19380254 1.8632265 -1.1885761 1.8460496e-39
-0.1945066 1.8631235 -1.1884551 2.5825356e-39
-0.19378991 1.8592279 -1.1763924 2.1219246e-39
-0.19278818 1.855293 -1.1641322 2.3985143e-39
-0.19104631 1.8518068 -1.1530361 2.1219218e-39
-0.19093391 1.8492373 -1.1451782 2.3988618e-39
-0.18909764 1.8453885 -1.1329515 2.0286444e-39
-0.18767908 1.8432032 -1.1259065 1.2914395e-39
-0.19075742 1.8420401 -1.1232069 1.0137792e-39
-0.19046147 1.8408433 -1.11948 1.566953e-39
-0.1906589 1.8389279 -1.1136997 2.0279395e-39
-0.21288294 1.9464188 -1.447212 2.3974255e-39
-0.2120482 1.9465703 -1.4474448 2.4903414e-39
-0.20988029 1.9411393 -1.4303082 2.2144776e-39
-0.20852832 1.9386888 -1.4224731 2.0300863e-39
-0.20994245 1.9325843 -1.4042659 2.1215533e-39
-0.20975277 1.9254184 -1.3823857 1.4751203e-39
-0.21072023 1.9272068 -1.3880982 1.5687438e-39
-0.21065663 1.9202083 -1.3667632 1.289643e-39
-0.21016288 1.9190323 -1.3630457 1.1066923e-39
-0.20947726 1.9161868 -1.3541902 1.1056175e-39
-0.20756298 1.912554 -1.3426003 1.19709e-39
-0.20572348 1.9088469 -1.3308039 1.1056161e-39
-0.20521547 1.9056249 -1.3208506 1.3814785e-39
-0.2037528 1.8979926 -1.2972016 1.1052545e-39
-0.20372227 1.8951006 -1.288384 1.2892843e-39
-0.20296571 1.8934615 -1.2831837 1.1063335e-39
-0.20610221 1.8912679 -1.2773613 1.0144952e-39
-0.20567553 1.8879999 -1.2672895 1.6591374e-39
-0.20372368 1.8834372 -1.2528566 1.660215e-39
-0.20190957 1.8784415 -1.2371424 1.5673047e-39
-0.2010635 1.8749446 -1.2262586 1.6594989e-39
-0.19928944 1.8741881 -1.2234689 2.0289975e-39
-0.20011151 1.8737206 -1.2222701 2.1215533e-39
-0.19935215 1.8670633 -1.2017833 2.5825314e-39
-0.19926524 1.8628807 -1.1890191 1.7538568e-39
-0.19707608 1.858749 -1.1758339 1.9382564e-39
-0.20041119 1.8583107 -1.1754123 2.3055984e-39
-0.19954355 1.8542343 -1.1627578 2.5829042e-39
-0.19885597 1.8504946 -1.1511779 2.3992332e-39
-0.19705532 1.8469621 -1.1399242 2.2155552e-39
-0.19513419 1.8431754 -1.1278639 2.3984961e-39
-0.19546607 1.8443383 -1.1314967 2.0293576e-39
-0.19458967 1.8417472 -1.1233642 1.1063307e-39
-0.19507812 1.8385792 -1.1138479 3.1328409e-39
-0.19518504 1.836126 -1.1064047 3.6867364e-39
-0.22007297 1.9441872 -1.4423835 2.3977856e-39
-0.21910313 1.9428229 -1.4379625 2.5821699e-39
-0.21543467 1.9314654 -1.4023615 2.2141216e-39
-0.21555181 1.926445 -1.3871017 1.4751147e-39
-0.21580012 1.9355435 -1.4148843 1.8460566e-39
-0.21688987 1.930482 -1.3997649 2.02865e-39
-0.21566249 1.9250787 -1.38297 1.6605751e-39
-0.21392104 1.9172361 -1.3586036 1.0141407e-39
-0.2159777 1.9152892 -1.3532364 1.0141365e-39
-0.21298683 1.9118917 -1.3420683 1.6577025e-39
-0.21336722 1.9084219 -1.3316033 1.1974488e-39
-0.21076508 1.9051212 -1.3208363 1.3832722e-39
-0.21183087 1.8977779 -1.2987602 1.3821974e-39
-0.21107019 1.8904864 -1.2763408 1.0141365e-39
-0.2093422 1.8882324 -1.269002 1.0144952e-39
-0.21235751 1.888114 -1.2694675 1.7498967e-39
-0.21035703 1.8820319 -1.2503927 1.9342935e-39
-0.21036969 1.8808837 -1.2468987 1.6598562e-39
-0.20601739 1.8722082 -1.2192807 2.3059431e-39
-0.20287347 1.8640552 -1.1935846 2.0293646e-39
-0.20524977 1.8640888 -1.1943378 2.6747326e-39
-0.2034843 1.8577842 -1.1746501 2.0304534e-39
-0.20570065 1.8560983 -1.1701219 1.5694697e-39
-0.20430197 1.8540738 -1.163572 1.5701928e-39
-0.20555262 1.8511211 -1.1549203 2.8605771e-39
-0.20367934 1.8461493 -1.1392629 2.3073977e-39
-0.20183115 1.8427048 -1.1282642 2.3992346e-39
-0.20235845 1.8440431 -1.1324854 2.7672814e-39
-0.2000351 1.8406683 -1.121569 1.4754762e-39
-0.19884335 1.8387842 -1.1155037 9.2266956e-40
-0.20155859 1.8315852 -1.0943183 9.2194229e-40
-0.19878595 1.8233867 -1.0685859 5.530649e-39
-0.22909616 1.9465406 -1.4520235 2.6743725e-39
-0.22538674 1.9393407 -1.4290764 2.4903358e-39
-0.22234611 1.9289796 -1.3966827 1.8453405e-39
-0.22359148 1.9347737 -1.4146732 1.8460496e-39
-0.22397996 1.927583 -1.392876 1.844972e-39
-0.22240356 1.9272119 -1.3913138 1.6605751e-39
-0.22237344 1.9215698 -1.3741195 1.3836337e-39
-0.22069977 1.9184285 -1.3640925 1.2917954e-39
-0.21805537 1.9077687 -1.3308977 6.442834e-40
-0.21934445 1.9046204 -1.3216608 7.3683636e-40
-0.22063713 1.9025382 -1.315672 9.2194229e-40
-0.21903171 1.8938866 -1.2888788 1.4740315e-39
-0.21743484 1.8914558 -1.2810374 1.1988837e-39
-0.216002 1.8868855 -1.2667235 1.1988893e-39
-0.2130862 1.8809386 -1.2478101 1.5662271e-39
-0.21410488 1.8793856 -1.2433586 1.7502554e-39
-0.21398579 1.8720083 -1.2208542 1.5676718e-39
-0.21221241 1.8676748 -1.2071685 1.9375235e-39
-0.2122819 1.8661838 -1.2026452 2.5825398e-39
-0.21226239 1.8620634 -1.1900893 1.9393312e-39
-0.21027049 1.8562346 -1.1717886 2.2148433e-39
-0.20834574 1.8527017 -1.1604997 2.4910715e-39
-0.2078135 1.8487647 -1.1483619 1.6616639e-39
-0.21014009 1.8448687 -1.1371312 2.3077494e-39
-0.20793727 1.8404733 -1.1231397 2.491426e-39
-0.20750795 1.8402606 -1.1223741 2.860926e-39
-0.20681687 1.8336009 -1.1018988 1.5680292e-39
-0.20602466 1.837239 -1.1127639 2.0290073e-39
-0.20756398 1.8332059 -1.1009004 1.4751119e-39
-0.20684427 1.8346093 -1.1049777 1.4740427e-39
-0.20512903 1.8310537 -1.0936778 2.303453e-39
-0.20507638 1.8226233 -1.0679833 2.4903568e-39
-0.20457834 1.8244359 -1.0733685 4.7934343e-39
-0.20393586 1.8212765 -1.0635689 5.4388037e-39
-0.231429 1.9398571 -1.4323044 2.9495189e-39
-0.23152365 1.9357511 -1.4198228 2.6740082e-39
-0.23052385 1.932261 -1.4089177 2.3041607e-39
-0.23290318 1.9347049 -1.4170138 2.3977884e-39
-0.22978315 1.9290957 -1.3990736 1.7542197e-39
-0.23145911 1.9261963 -1.3907007 2.0289975e-39
-0.22901328 1.9179313 -1.3648552 1.3839896e-39
-0.22844598 1.9192626 -1.368755 1.5665844e-39
-0.22789584 1.9183449 -1.3658084 1.290722e-39
-0.22680034 1.9114436 -1.3444867 1.3814785e-39
-0.22696292 1.9055332 -1.3265277 7.3683636e-40
-0.22909993 1.9080843 -1.3348837 1.2903633e-39
-0.2274594 1.9033281 -1.3199469 8.3046832e-40
-0.2258289 1.9016325 -1.3143352 1.3832722e-39
-0.22267604 1.8876399 -1.2708492 1.1988837e-39
-0.22158067 1.8816652 -1.2523499 1.7509729e-39
-0.21947777 1.8796393 -1.245603 1.2914367e-39
-0.22150846 1.8719795 -1.2228268 1.6609409e-39
-0.22035357 1.8678236 -1.2098513 1.9375291e-39
-0.21836443 1.8642666 -1.1984719 2.214116e-39
-0.21837071 1.8591914 -1.1830139 1.9389739e-39
-0.21763444 1.8563327 -1.1741045 2.1237253e-39
-0.21547408 1.8522806 -1.1611699 2.3992304e-39
-0.21355011 1.848824 -1.1501137 2.3992248e-39
-0.21521425 1.844188 -1.1364479 1.6616695e-39
-0.21340457 1.8408774 -1.1258681 1.7538652e-39
-0.21543293 1.84085 -1.1263399 3.1364325e-39
-0.2139851 1.8363825 -1.112335 2.4003052e-39
-0.21232322 1.8339256 -1.104396 2.3066676e-39
-0.21177058 1.8310963 -1.0956265 1.6605793e-39
-0.2125501 1.8307149 -1.0946783 1.2917968e-39
-0.21171041 1.8299925 -1.0922476 1.4736839e-39
-0.20982537 1.8259803 -1.0795097 2.210893e-39
-0.2097778 1.8233241 -1.0714059 3.4097922e-39
-0.20989877 1.8214934 -1.0658625 5.1622098e-39
-0.23962335 1.9434371 -1.4454533 3.0417145e-39
-0.2387048 1.9391369 -1.4321028 2.8569729e-39
-0.23768735 1.934572 -1.4179192 2.7647773e-39
-0.23873843 1.9339237 -1.4162325 2.3066662e-39
-0.23673846 1.9268503 -1.3941387 2.0293632e-39
-0.23774754 1.92498 -1.3887181 1.475472e-39
-0.23756211 1.917806 -1.3668147 1.2914465e-39
-0.23430113 1.9168588 -1.3630362 1.1996012e-39
-0.23111853 1.9009446 -1.3136888 9.2087029e-40
-0.23592122 1.9051939 -1.327948 1.014498e-39
-0.23090611 1.8871987 -1.2717593 1.4747531e-39
-0.22705843 1.8816543 -1.253817 1.6595017e-39
-0.22690737 1.8695881 -1.2170213 1.3854386e-39
-0.22681926 1.8659561 -1.2059336 2.0293688e-39
-0.22524282 1.863764 -1.1988248 2.0304478e-39
-0.22543736 1.8626133 -1.1953727 2.2155594e-39
-0.22369081 1.8535427 -1.1672645 2.307755e-39
-0.22206803 1.8534844 -1.1666423 3.2275519e-39
-0.22167251 1.8489707 -1.1527851 2.3073977e-39
-0.22015838 1.8478625 -1.1489948 2.3995919e-39
-0.21915828 1.8440694 -1.1371669 2.3999492e-39
-0.21839435 1.8372282 -1.1161189 1.8467726e-39
-0.21950231 1.8330634 -1.1037357 2.1226463e-39
-0.21704677 1.8291066 -1.0910103 2.306669e-39
-0.21648686 1.8261138 -1.0817411 1.8453279e-39
-0.21698889 1.8228781 -1.0720222 1.0159358e-39
-0.21675141 1.8225538 -1.0709692 1.107051e-39
-0.21566129 1.8225373 -1.0706205 1.841742e-39
-0.21583077 1.8219446 -1.0688616 2.7636969e-39
-0.21474621 1.8148518 -1.0469593 1.7484898e-39
-0.25011951 1.9505513 -1.4699984 2.4903484e-39
-0.24670395 1.9436945 -1.4481767 3.2261044e-39
-0.24468225 1.9348263 -1.4206097 2.8573232e-39
-0.24219285 1.9293206 -1.4031571 1.9368061e-39
-0.2434805 1.9236091 -1.3861122 1.569827e-39
-0.24208687 1.9227941 -1.383248 1.5680264e-39
-0.24418101 1.9188046 -1.3716694 1.4743958e-39
-0.24384175 1.9190296 -1.3722616 1.3832722e-39
-0.23992208 1.8986901 -1.3092325 5.5388284e-40
-0.23843855 1.896439 -1.3019689 8.2903059e-40
-0.23845352 1.8953841 -1.2987598 1.1988865e-39
-0.23977722 1.8910661 -1.2859694 1.4751091e-39
-0.23881878 1.8877637 -1.275648 1.1992424e-39
-0.23665535 1.8839372 -1.2633995 1.2910821e-39
-0.23453891 1.8800966 -1.2511208 1.3832764e-39
-0.23208281 1.875294 -1.2358191 1.3843568e-39
-0.23223135 1.8634015 -1.1996344 1.662387e-39
-0.23000054 1.8598927 -1.1883354 1.9386109e-39
-0.22933984 1.8571857 -1.1799089 2.0318828e-39
-0.23090844 1.8530403 -1.1677111 2.3999534e-39
-0.22812304 1.8485703 -1.1533322 2.491426e-39
-0.22632533 1.8463004 -1.1459254 2.3070389e-39
-0.22697328 1.8448368 -1.1416448 2.5839804e-39
-0.22468834 1.840436 -1.1276135 2.9527573e-39
-0.22258955 1.8366497 -1.1155053 2.5843377e-39
-0.2206531 1.8248101 -1.0789113 2.7669213e-39
-0.22331941 1.8228499 -1.0736703 2.1201281e-39
-0.22160639 1.8196399 -1.0634232 1.7516988e-39
-0.22305515 1.8204061 -1.0661536 1.4740357e-39
-0.22175114 1.8190207 -1.0615767 1.2882095e-39
-0.22168724 1.8211275 -1.0679767 2.7611745e-39
-0.21971124 1.8127478 -1.0419104 2.0221886e-39
-0.25797367 1.9501818 -1.4710243 2.2144734e-39
-0.25206947 1.9336734 -1.4191209 2.3974157e-39
-0.25061527 1.9269463 -1.3982316 1.4754734e-39
-0.24970558 1.9341048 -1.4197878 2.3066704e-39
-0.25151768 1.9273219 -1.3996229 2.5814524e-39
-0.24557525 1.8964217 -1.3038709 1.1988851e-39
-0.24405524 1.8904912 -1.2853903 1.1988851e-39
-0.24547343 1.8858384 -1.2716057 1.3825547e-39
-0.24340132 1.8827723 -1.2616986 1.1063321e-39
-0.23608567 1.8668991 -1.2113439 1.5698312e-39
-0.23730044 1.8645831 -1.2046219 2.1237239e-39
-0.23620962 1.8568782 -1.1808534 1.9386166e-39
-0.23490895 1.8575822 -1.182642 2.860926e-39
-0.23825067 1.8579823 -1.1847757 2.7680143e-39
-0.23487063 1.848395 -1.1546463 2.0308108e-39
-0.23442522 1.8463387 -1.1482608 3.1364381e-39
-0.23331657 1.8434843 -1.1392622 2.7676527e-39
-0.23075467 1.8392476 -1.1256551 3.5048605e-39
-0.23014213 1.8374952 -1.1201496 2.9527587e-39
-0.22944559 1.8358132 -1.1148355 3.0449599e-39
-0.22693442 1.8274796 -1.0887626 2.2148419e-39
-0.23019286 1.8242182 -1.0797209 3.1342731e-39
-0.22824375 1.817752 -1.0594903 3.2236044e-39
-0.22761428 1.8174807 -1.0584915 3.4998256e-39
-0.22777905 1.819298 -1.0640724 4.9734899e-39
-0.22741047 1.8184361 -1.0613464 4.7919881e-39
-0.22558488 1.8129615 -1.0441698 1.6530684e-39
-0.22578225 1.8121468 -1.0417423 2.6736733e-39
-0.2606158 1.9416896 -1.4458801 1.8453307e-39
-0.26021382 1.9359707 -1.4283494 1.662387e-39
-0.25890714 1.9343648 -1.4231 2.9484371e-39
-0.25920284 1.9282198 -1.4044627 2.1211959e-39
-0.2565037 1.9218299 -1.3842597 1.5683921e-39
-0.25824198 1.9174557 -1.3714113 1.6594975e-39
-0.25020728 1.8876376 -1.2783828 1.1066909e-39
-0.24801004 1.8846005 -1.2685297 1.1066909e-39
-0.25130382 1.8836735 -1.2666082 1.0144952e-39
-0.24330316 1.8659334 -1.2103791 1.4787146e-39
-0.24342076 1.8656371 -1.2095089 2.3077564e-39
-0.24246375 1.8582803 -1.1868374 2.1233651e-39
-0.24059203 1.8528228 -1.1697006 2.3073991e-39
-0.23968676 1.8490553 -1.1579767 2.307755e-39
-0.23857915 1.8438404 -1.1417882 2.0290073e-39
-0.23922251 1.8416119 -1.1351762 3.4122991e-39
-0.23720674 1.8410796 -1.1330026 3.6885244e-39
-0.23666339 1.8359047 -1.1170908 3.4122977e-39
-0.23595963 1.834231 -1.1118003 3.2282722e-39
-0.23288408 1.8171055 -1.0587921 5.0671373e-39
-0.23383026 1.8174769 -1.0601825 7.276573e-39
-0.23415771 1.8183186 -1.0628361 6.5397408e-39
-0.23037224 1.8119229 -1.0423176 6.6308154e-39
-0.26808754 1.9471811 -1.4646541 2.213037e-39
-0.27016616 1.9438778 -1.4551613 1.385077e-39
-0.26597822 1.9331713 -1.4214013 2.0297206e-39
-0.26555789 1.9316838 -1.4167552 1.7531435e-39
-0.2624172 1.9158528 -1.3676727 1.383282e-39
-0.2617408 1.9058681 -1.3370727 1.2910807e-39
-0.25596535 1.8944937 -1.3008437 1.4740357e-39
-0.25650099 1.8882285 -1.2819067 1.1988837e-39
-0.25433135 1.8847716 -1.2707819 1.4740357e-39
-0.25345474 1.8830113 -1.2651805 1.7513414e-39
-0.25067922 1.8664141 -1.2138634 1.6631059e-39
-0.24858853 1.8631409 -1.2033207 2.2141258e-39
-0.25025666 1.8608648 -1.1968441 2.7683758e-39
-0.24843206 1.85772 -1.1867654 2.9524111e-39
-0.24497205 1.8503157 -1.1632634 2.8609232e-39
-0.24279931 1.8461878 -1.1500945 3.2282666e-39
-0.24414128 1.8445243 -1.1453948 3.5048436e-39
-0.24434796 1.8436711 -1.1428525 3.8714682e-39
-0.24455464 1.8428178 -1.1403103 3.6870867e-39
-0.23377244 1.8175644 -1.0604333 5.8943882e-39
-0.23654324 1.8167026 -1.058567 7.277275e-39
-0.23557191 1.8159307 -1.0559497 7.0025042e-39
-0.24154818 1.8192261 -1.0676244 3.95828e-39
-0.27702287 1.9514225 -1.4800205 2.3063089e-39
-0.27547732 1.9421703 -1.4514147 1.3843582e-39
-0.27296698 1.9369744 -1.4348999 1.9371704e-39
-0.26935074 1.9242563 -1.3951691 1.9368145e-39
-0.26995403 1.914799 -1.3665265 1.199611e-39
-0.26576611 1.9106141 -1.3526324 1.4751077e-39
-0.262418 1.8821578 -1.2650354 1.2910793e-39
-0.26117316 1.8831028 -1.2675729 1.3825603e-39
-0.25980175 1.8817866 -1.2631879 1.383275e-39
-0.25806931 1.879458 -1.2556204 1.4758279e-39
-0.25867167 1.8679141 -1.2206216 1.5701886e-39
-0.25578827 1.8628408 -1.2043784 1.8467797e-39
-0.25510749 1.8575554 -1.1880922 2.3059515e-39
-0.25126424 1.8489844 -1.1609318 1.7534994e-39
-0.25190222 1.8508143 -1.1666805 3.4112159e-39
-0.24207722 1.8164948 -1.0594498 6.5361269e-39
-0.24250773 1.8170996 -1.0614098 5.9833244e-39
-0.2411401 1.8140916 -1.0518726 4.1433775e-39
-0.24300876 1.8144169 -1.0533752 2.8501388e-39
-0.24320605 1.8136022 -1.0509477 4.5917748e-40
-0.28098378 1.9389105 -1.4429932 2.1219162e-39
-0.27829826 1.9332118 -1.4248989 1.0162945e-39
-0.28001815 1.9296292 -1.4144572 1.753498e-39
-0.27791655 1.9271214 -1.4062427 1.6620241e-39
-0.27696633 1.9231656 -1.3939326 1.6620283e-39
-0.27413219 1.9101899 -1.3536315 1.2910821e-39
-0.26736397 1.886956 -1.2810053 1.3818386e-39
-0.26839501 1.8810147 -1.2631904 1.3836337e-39
-0.26351485 1.8649143 -1.2128105 2.7672968e-39
-0.24843483 1.8152633 -1.0574397 3.4951425e-39
-0.2480619 1.8186316 -1.0675977 3.6824036e-39
-0.24988373 1.8184302 -1.0674831 1.930702e-39
-0.24830391 1.810939 -1.0442315 7.3469798e-40
-0.28758454 1.9381516 -1.4424895 2.121919e-39
-0.28162771 1.9097785 -1.3544313 1.4743944e-39
-0.2770761 1.8995912 -1.3221537 1.1066909e-39
-0.27342564 1.8906966 -1.2940599 7.3683636e-40
-0.27702013 1.8903251 -1.2939129 1.1988851e-39
-0.27671635 1.8890309 -1.2898873 1.7513316e-39
-0.27142438 1.8817621 -1.2662969 2.3037795e-39
-0.27620822 1.8828311 -1.2708631 1.6594989e-39
-0.26667616 1.8655096 -1.21549 2.9506091e-39
-0.25356096 1.8135841 -1.0537287 1.1031204e-39
-0.25475615 1.814844 -1.0578939 7.3650846e-40
-0.25495347 1.8140293 -1.0554663 9.4734783e-41
-0.29405606 1.9161935 -1.3773756 1.5698228e-39
-0.28865951 1.9082683 -1.351757 1.3836337e-39
-0.2862578 1.9046581 -1.3401024 1.1992424e-39
-0.28528434 1.8974844 -1.3179839 7.3683636e-40
-0.28541648 1.9015967 -1.3305463 1.1992424e-39
-0.28466082 1.8914846 -1.2995374 1.2907206e-39
-0.27852997 1.8805758 -1.2646291 1.8453209e-39
-0.27792427 1.8749335 -1.2472762 9.2194369e-40
-0.27809888 1.8769922 -1.2535954 2.1190365e-39
-0.25940725 1.8137966 -1.0559776 2.207345e-39
-0.2606298 1.8150576 -1.0601531 3.0421027e-39
-0.26082712 1.8142428 -1.0577255 5.6253627e-39
-0.26102442 1.8134283 -1.055298 4.1520305e-39
0.048167288 1.9614155 -1.4213951 9.1835496e-41
0.048939131 1.9603677 -1.4179919 1.8367099e-40
0.038822629 1.9614168 -1.4239582 1.8367099e-40
0.033044051 1.9580112 -1.4151671 4.6097815e-40
0.024710588 1.9573568 -1.4154562 1.3829344e-39
0.015146576 1.9539 -1.4075458 3.0370608e-39
0.014464648 1.9518564 -1.4015079 2.1194247e-39
-0.040097836 1.9305222 -1.3514662 1.4733196e-39
-0.037856724 1.9274796 -1.3415847 2.2994831e-39
-0.045230597 1.9223225 -1.3278949 2.7608088e-39
-0.064861633 1.9336474 -1.3677682 1.1074125e-39
-0.075007677 1.9419128 -1.3957242 1.7502554e-39
-0.072856218 1.9368771 -1.3797959 1.4751105e-39
-0.07158386 1.9354829 -1.3752004 1.1999627e-39
-0.068811052 1.9144027 -1.3102293 1.4765496e-39
-0.067604244 1.910199 -1.2970937 2.2126755e-39
-0.083230905 1.941267 -1.3960094 1.8424496e-39
-0.08244241 1.9409878 -1.3949429 1.1070482e-39
-0.082473785 1.9329107 -1.3703479 1.1070482e-39
-0.080906622 1.9252126 -1.3464698 1.1981662e-39
-0.075800061 1.9126531 -1.3068137 4.6169141e-40
-0.075177491 1.909222 -1.2961922 1.9357299e-39
-0.091128565 1.9417056 -1.3995082 1.3825575e-39
-0.089689553 1.93478 -1.3780181 1.1996012e-39
-0.084981114 1.9096096 -1.3000575 3.6949438e-40
-0.08371941 1.9064137 -1.2899771 8.2975226e-40
-0.091951132 1.9055862 -1.2897112 5.5424157e-40
-0.090318866 1.9072617 -1.2943678 8.3118579e-40
-0.1079012 1.93933 -1.3968656 1.8424496e-39
-0.11612458 1.9386842 -1.397151 1.5687382e-39
-0.12418908 1.9346536 -1.3870826 1.014854e-39
-0.11914599 1.8911053 -1.2530495 4.6132988e-40
-0.11747655 1.8843 -1.2318629 1.1077685e-39
-0.11589339 1.881053 -1.2215384 1.1052573e-39
-0.11327566 1.8743124 -1.2002892 3.1353507e-39
-0.1133706 1.8680139 -1.1811297 4.1480649e-39
-0.12602569 1.8864533 -1.2407632 7.3863283e-40
-0.12438206 1.8831116 -1.2301341 7.3863003e-40
-0.12283416 1.8804283 -1.2215371 1.2892871e-39
-0.12162872 1.8752167 -1.2053317 2.6714928e-39
-0.12035768 1.8729174 -1.1979799 3.8707563e-39
-0.12081236 1.8674295 -1.1813879 3.8729171e-39
-0.1497798 1.9371355 -1.4016508 1.5687382e-39
-0.14901815 1.9361014 -1.3982925 1.2917954e-39
-0.13494065 1.8830533 -1.2328486 1.1052545e-39
-0.13244335 1.8796155 -1.2216928 1.1059748e-39
-0.1281375 1.870847 -1.1938041 2.5814594e-39
-0.19013259 1.9521769 -1.4585207 1.9364586e-39
-0.18846619 1.9281104 -1.3847556 1.1996012e-39
-0.15947236 1.8499647 -1.1387775 4.6086829e-39
-0.20877203 1.9586145 -1.4832349 9.219563e-40
-0.20719589 1.9526938 -1.4647685 2.2137559e-39
-0.20591152 1.9517136 -1.4614308 2.5825328e-39
-0.16746312 1.8503101 -1.1420177 3.4094278e-39
-0.16678573 1.8493905 -1.1390312 4.1502327e-39
-0.21817376 1.9583825 -1.4851035 1.9350222e-39
-0.2153635 1.9528583 -1.4675065 2.5825342e-39
-0.17407794 1.8503647 -1.143996 2.1194135e-39
-0.17209093 1.8431103 -1.1213545 3.1349989e-39
-0.22317553 1.9501417 -1.4613713 2.0297234e-39
-0.21807356 1.9419317 -1.4349656 1.9382466e-39
-0.23288229 1.9517339 -1.4688798 2.214479e-39
-0.26065493 1.9529152 -1.4800845 2.2144734e-39
-0.24104331 1.828788 -1.0966127 3.7760551e-39
-0.24144524 1.8304691 -1.1018435 5.0671429e-39
-0.29875371 1.9279605 -1.4145054 1.845695e-39
-0.24493426 1.8250204 -1.086202 7.0032245e-39
-0.30080062 1.9192283 -1.3884673 1.7542141e-39
-0.30181623 1.9132454 -1.3705212 1.4783475e-39
-0.29942426 1.9103683 -1.3611022 1.6605793e-39
-0.29806507 1.9063364 -1.3484486 1.3839966e-39
-0.29433063 1.901684 -1.3332539 1.1996012e-39
-0.31104913 1.9137825 -1.3746855 1.9371676e-39
-0.30931389 1.9091179 -1.3600018 1.7527806e-39
-0.29777658 1.8943083 -1.3117306 1.2907248e-39
-0.25696802 1.8170029 -1.0650759 1.1960251e-39
-0.31729671 1.9091805 -1.3623791 1.9371718e-39
-0.30517009 1.8922193 -1.3073926 2.1183289e-39
-0.26347816 1.8183022 -1.0708165 1.9368341e-39
-0.26395479 1.8164544 -1.0653183 2.577512e-39
-0.27094144 1.8159057 -1.0655608 7.7361134e-39
-0.2795347 1.8187013 -1.07643 6.1724002e-39
-0.28097394 1.8212104 -1.0844671 5.5255917e-39
-0.29015619 1.8210421 -1.0864693 6.4475368e-39
-0.28850579 1.8195919 -1.0816 6.2624267e-39
-0.28738001 1.8202741 -1.0833696 6.3549824e-39
-0.28681302 1.8212118 -1.0860708 6.2627854e-39
-0.29825899 1.8237598 -1.0969669 7.5520809e-39
-0.29640102 1.82149 -1.0895439 7.1840186e-39
-0.29570305 1.8199947 -1.0847979 6.2620679e-39
-0.29656094 1.8225389 -1.0927826 6.9070688e-39
-0.29590291 1.8216455 -1.0898814 6.9056297e-39
-0.30404976 1.8200362 -1.0872104 5.6177775e-39
-0.30292627 1.8211571 -1.090317 7.275494e-39
-0.30245909 1.8204664 -1.0880852 5.342627e-39
-0.3030071 1.8210877 -1.0901279 7.0900209e-39
-0.30106544 1.817894 -1.0798676 6.1713339e-39
-0.30798218 1.8165787 -1.0777558 7.0900209e-39
-0.30878744 1.8182276 -1.0829991 7.0893119e-39
-0.30668047 1.8148116 -1.0720164 5.6177999e-39
-0.31500942 1.8160269 -1.0779997 6.7226873e-39
-0.31585506 1.8176727 -1.0832443 6.4453802e-39
-0.31370771 1.8142598 -1.0722603 5.1589896e-39
-0.32411262 1.8179207 -1.0862615 5.5259476e-39
-0.32357708 1.8180064 -1.0863758 7.1818606e-39
-0.32292253 1.8171177 -1.0834897 6.2642483e-39
-0.33151281 1.8223771 -1.1018629 7.6453611e-39
-0.33401275 1.8208117 -1.0977794 6.3557013e-39
-0.3327398 1.8206429 -1.0969166 7.090744e-39
-0.33208182 1.8197496 -1.0940152 7.2744248e-39
-0.32999 1.8165628 -1.083735 6.1720527e-39
-0.34888411 1.8333588 -1.1400716 7.7371854e-39
-0.34590498 1.8289906 -1.1259499 7.1858165e-39
-0.34345424 1.8253101 -1.1140677 7.2769331e-39
-0.34116 1.8218716 -1.1029655 7.4595251e-39
-0.34049356 1.8188829 -1.0936791 6.4475438e-39
-0.33883834 1.8185763 -1.0922918 5.8018213e-39
-0.33771208 1.8168964 -1.0868664 7.0914685e-39
-0.33543992 1.813488 -1.0758616 5.1596902e-39
-0.35192212 1.8265458 -1.1201509 7.6442863e-39
-0.35126039 1.8256475 -1.1172333 7.6442863e-39
-0.34892204 1.8222071 -1.1061132 7.3684099e-39
-0.34826407 1.8213139 -1.103212 7.3673295e-39
-0.34581453 1.8201022 -1.0988504 6.4478969e-39
-0.34694892 1.8175803 -1.0914794 7.55352e-39
-0.34723178 1.8181019 -1.0931454 4.6976415e-39
-0.34246692 1.8129363 -1.0761055 9.2552961e-41
-0.34181604 1.8120526 -1.0732358 1.474526e-38
-0.35519505 1.8221982 -1.1078041 6.8170396e-39
-0.35602632 1.8216493 -1.1063597 7.552441e-39
-0.35536832 1.820756 -1.1034586 7.1851074e-39
-0.35315624 1.8175639 -1.0931294 7.3684099e-39
-0.35250166 1.8166752 -1.0902431 7.2744248e-39
-0.35351908 1.8158325 -1.087955 4.054077e-39
-0.34949416 1.8123845 -1.0763494 1.0104049e-39
-0.34884331 1.8115008 -1.0734795 2.3509886e-38
-0.36415988 1.8232504 -1.1134648 7.9226627e-39
-0.36313054 1.8210914 -1.1066064 7.6460842e-39
-0.36301771 1.8203552 -1.1043329 6.6326539e-39
-0.36325485 1.8214266 -1.1076615 6.5397394e-39
-0.36049855 1.8175184 -1.0950015 5.5284812e-39
-0.35652128 1.8118327 -1.0765932 5.0446745e-44
-0.36979029 1.8208998 -1.1078466 7.0943495e-39
-0.37141728 1.8215207 -1.1101835 7.0943495e-39
-0.37136507 1.8227726 -1.1139824 6.9099583e-39
-0.37191519 1.8227097 -1.1139419 6.7237705e-39
-0.37924024 1.8220916 -1.1140649 7.3705861e-39
-0.37914893 1.8227588 -1.1160725 8.1999782e-39
-0.38302016 1.8277937 -1.1324695 7.7390001e-39
-0.38683185 1.8223939 -1.1170653 7.5553375e-39
-0.38746968 1.8244858 -1.1236122 7.4631419e-39
-0.39024901 1.8272262 -1.1327205 8.0152422e-39
-0.38708666 1.8216336 -1.114819 6.5408324e-39
-0.38476184 1.8206688 -1.1112436 5.7128766e-39
-0.39771923 1.8247722 -1.1272918 8.1081595e-39
-0.39626408 1.8240136 -1.1245822 8.0152464e-39
-0.39090729 1.8182566 -1.105579 5.530635e-39
-0.40429088 1.8237922 -1.1261063 9.2170308e-39
-0.40421787 1.822154 -1.1210963 7.7411707e-39
-0.40061063 1.8208221 -1.1160512 8.570944e-39
-0.39799345 1.817409 -1.1049378 8.2947172e-39
-0.39733547 1.8165157 -1.1020365 6.0842081e-39
-0.41349819 1.8256099 -1.134165 1.0323018e-38
-0.4099364 1.8230065 -1.1252594 9.1252024e-39
-0.40709344 1.8193628 -1.1133815 9.3085146e-39
-0.41724628 1.8243632 -1.1313941 9.5861763e-39
-0.420504 1.8267735 -1.1396282 1.0138996e-38
-0.42788357 1.8271676 -1.1428498 1.0232986e-38
-0.42711374 1.8278123 -1.1446029 1.1247148e-38
-0.42795169 1.8266352 -1.1412468 9.3117544e-39
-0.43827087 1.8274362 -1.1465131 1.0233352e-38
-0.43791565 1.8290097 -1.1512084 1.1339705e-38
-0.43864897 1.8310068 -1.1574925 1.1248228e-38
-0.44710407 1.8303927 -1.157938 1.1524814e-38
-0.45010093 1.832664 -1.1656774 1.161845e-38
-0.45013317 1.8334633 -1.1681209 1.1432621e-38
-0.45795727 1.8318176 -1.1652509 1.244713e-38
-0.45817575 1.8330708 -1.1691281 1.2447849e-38
-0.46438491 1.8315396 -1.1661646 1.2354935e-38
-0.46523511 1.8325926 -1.169605 1.3828635e-38
-0.46338367 1.8319377 -1.1671027 1.318218e-38
-0.47073388 1.8316383 -1.1682044 1.1893238e-38
-0.48105219 1.8349144 -1.1810094 1.2262016e-38
-0.47930709 1.8322467 -1.1724051 1.1708845e-38
-0.47780234 1.8312472 -1.1689488 1.143298e-38
-0.49217629 1.8374103 -1.1916589 1.1893236e-38
-0.49165359 1.8377755 -1.192628 1.2170185e-38
-0.49986017 1.8363999 -1.1906855 1.0694686e-38
-0.50252801 1.8399783 -1.2023164 1.1616648e-38
-0.50908309 1.8388442 -1.2006571 1.0693243e-38
-0.51138133 1.8397911 -1.2041708 1.0323741e-38
-0.52133679 1.8418522 -1.213176 1.105699e-38
-0.52873755 1.8408014 -1.2120019 7.8311901e-39
-0.53040707 1.8428563 -1.2187185 6.5400757e-39
-0.53444719 1.8423135 -1.218172 8.3843569e-39
-0.53318834 1.8414353 -1.2151518 7.6464163e-39
-0.53424573 1.8409051 -1.2138263 5.3415634e-39
-0.53342044 1.839239 -1.2085255 3.1317563e-39
-0.53896952 1.8397899 -1.2117232 2.4878345e-39
-0.54135609 1.8393779 -1.2111222 1.56659e-39
-0.53979897 1.8386233 -1.2083968 1.4733168e-39
-0.55357927 1.8436584 -1.2275088 8.1992538e-39
-0.55069464 1.841639 -1.2205675 2.2141146e-39
-0.54688364 1.8379154 -1.2081813 4.6691265e-42
-0.5479514 1.8381177 -1.2090899 3.5873241e-43
0.043313909 1.9601414 -1.418843 0
0.045038581 1.9592853 -1.4157629 0
0.0047468706 1.945721 -1.3854806 1.7549638e-39
-0.0063218363 1.9446089 -1.3851244 7.5575053e-39
-0.054602794 1.9376906 -1.3772744 9.2266255e-40
-0.057186749 1.9233364 -1.3342578 1.1066951e-39
-0.063293979 1.9156742 -1.3125912 1.0130645e-39
-0.069158904 1.8916769 -1.2411 3.5026955e-39
-0.067530498 1.8939294 -1.2475152 3.4108473e-39
-0.083927743 1.9086804 -1.296939 5.535241e-40
-0.079691328 1.9077297 -1.2928829 2.8569729e-39
-0.077894315 1.8974885 -1.2611948 3.3175951e-39
-0.076225221 1.8933749 -1.2482077 3.503043e-39
-0.074630953 1.8958685 -1.2553664 3.503043e-39
-0.086609438 1.899846 -1.270763 1.5655278e-39
-0.085012868 1.8961204 -1.2589777 3.3183e-39
-0.083298706 1.8920157 -1.2460045 3.5026955e-39
-0.080117837 1.8936905 -1.2502351 3.4101411e-39
-0.092835359 1.8955842 -1.2594866 2.3048669e-39
-0.10125332 1.9005172 -1.2768182 2.7730015e-40
-0.099364653 1.8940892 -1.2567208 1.2914479e-39
-0.094354823 1.8909546 -1.2458006 3.5948911e-39
-0.10652375 1.8919384 -1.2521304 7.382755e-40
-0.11884408 1.8830307 -1.2283709 4.6168861e-40
-0.17170037 1.9522589 -1.4537222 1.5669768e-39
-0.16990739 1.9513689 -1.45052 2.5814776e-39
-0.18131582 1.9516459 -1.454488 1.1981929e-39
-0.17952284 1.9507558 -1.4512858 2.5825314e-39
-0.14462972 1.8658301 -1.1830389 3.0428061e-39
-0.14303619 1.8650391 -1.1801929 4.3338939e-39
-0.15293263 1.8615576 -1.1722988 8.279614e-40
-0.2153561 1.9503231 -1.4597824 3.0424558e-39
-0.22890761 1.9582059 -1.4875053 2.0250809e-39
-0.22596911 1.953372 -1.471976 1.7531379e-39
-0.23688595 1.9566727 -1.4850203 2.4896295e-39
-0.24698091 1.9564998 -1.4872586 1.8449762e-39
-0.25631389 1.955593 -1.4870524 1.5680432e-39
-0.25426221 1.9547943 -1.4840574 2.0297248e-39
-0.17524531 1.8373311 -1.1046144 2.8602113e-39
-0.26358896 1.9538854 -1.4838437 1.6627401e-39
-0.19820735 1.8362862 -1.1077204 1.6602234e-39
