# .PCD v0.7 - Point Cloud Data file format
VERSION 0.7
FIELDS x y z rgb
SIZE 4 4 4 4
TYPE F F F F
COUNT 1 1 1 1
WIDTH 1016
HEIGHT 1
VIEWPOINT 0 0 0 1 0 0 0
POINTS 1016
DATA ascii
-1.057514 -0.36732158 2.8709707 2.0604943e-38
-1.0582914 -0.36257797 2.8723879 1.666135e-38
-1.0590687 -0.35783407 2.8738048 1.7124091e-38
-1.0043826 -0.76532257 2.74544 2.3503333e-38
-1.0051287 -0.76076967 2.7468002 2.3501535e-38
-1.006534 -0.75686711 2.747546 2.3475254e-38
-1.0036774 -0.74990141 2.7518201 2.3497916e-38
-1.0053205 -0.74666327 2.752177 2.3477437e-38
-1.0056224 -0.74081153 2.7542858 2.3508776e-38
-1.0059344 -0.73612821 2.7559345 2.3509886e-38
-1.006687 -0.73153734 2.7573063 2.3509886e-38
-1.005412 -0.72045028 2.7623143 2.3509886e-38
-1.0061703 -0.7158227 2.7636967 2.3509886e-38
-1.0069288 -0.71119523 2.7650793 2.3509886e-38
-1.0076871 -0.70656765 2.7664616 2.3509886e-38
-1.0084454 -0.70194006 2.767844 2.3509886e-38
-1.0092038 -0.69731253 2.7692266 2.3509886e-38
-1.0099622 -0.69268501 2.7706089 2.3509886e-38
-1.0107204 -0.68805736 2.7719913 2.3509886e-38
-1.0142105 -0.68562657 2.7710211 2.3509886e-38
-1.0156159 -0.68202144 2.7716513 2.3509886e-38
-1.0129955 -0.67417473 2.7761383 2.3509886e-38
-1.0164677 -0.67185348 2.775136 2.3509886e-38
-1.01722 -0.66726243 2.7765074 2.3509886e-38
-1.0179724 -0.66267133 2.7778788 2.3509886e-38
-1.0187249 -0.65808046 2.7792506 2.3509886e-38
-1.0180225 -0.65203738 2.7819841 2.3508807e-38
-1.0175456 -0.64640933 2.7844329 2.3509886e-38
-1.0188347 -0.64293051 2.7850776 2.3509523e-38
-1.0190623 -0.63715422 2.7871978 2.3509886e-38
-1.0198206 -0.63252658 2.7885802 2.3509886e-38
-1.0205791 -0.62789911 2.7899628 2.3509886e-38
-1.0213373 -0.62327152 2.7913451 2.3509886e-38
-1.0220957 -0.618644 2.7927275 2.3509886e-38
-1.0228541 -0.61401641 2.7941101 2.3509886e-38
-1.0236124 -0.60938889 2.7954924 2.3509886e-38
-1.02116 -0.60235858 2.7995696 2.350664e-38
-1.0223857 -0.59715015 2.8009217 2.3509886e-38
-1.0231502 -0.59248441 2.8023155 2.3509886e-38
-1.0239148 -0.58781868 2.8037093 2.3509886e-38
-1.0246795 -0.58315295 2.8051031 2.3509886e-38
-1.0254441 -0.57848722 2.8064971 2.3509886e-38
-1.0262086 -0.57382137 2.8078907 2.3509886e-38
-1.0269732 -0.56915575 2.8092847 2.3509886e-38
-1.027738 -0.56449008 2.8106785 2.3509886e-38
-1.0285023 -0.55982429 2.812072 2.3509886e-38
-1.0292671 -0.55515862 2.8134661 2.3509886e-38
-1.0300317 -0.55049288 2.8148599 2.3509886e-38
-1.0307963 -0.54582715 2.8162537 2.3509886e-38
-1.0315609 -0.54116142 2.8176475 2.3509886e-38
-1.0323257 -0.53649592 2.8190417 1.7740462e-38
-1.0319456 -0.52983141 2.8218398 1.8091958e-38
-1.0338548 -0.5271644 2.8218293 2.3424891e-38
-1.0346193 -0.52249861 2.8232226 2.3429932e-38
-1.0353839 -0.51783288 2.8246167 2.3424528e-38
-1.0361485 -0.5131672 2.8260105 2.3424181e-38
-1.036913 -0.50850135 2.8274043 2.3423833e-38
-1.0376779 -0.50383568 2.8287983 2.3422753e-38
-1.0384423 -0.49916983 2.8301919 2.3421314e-38
-1.039207 -0.49450427 2.8315859 2.3419513e-38
-1.0373721 -0.48597714 2.8359063 2.3419509e-38
-1.038143 -0.48127329 2.8373115 2.3420224e-38
-1.0389138 -0.47656935 2.8387167 2.3420927e-38
-1.0396845 -0.47186539 2.8401217 2.3419502e-38
-1.0404534 -0.46629408 2.8418653 2.0387487e-38
-1.0412264 -0.46245772 2.8429322 2.3430317e-38
-1.042984 -0.45975381 2.843019 1.9203707e-38
-1.0424335 -0.43451089 2.8531315 1.8383986e-38
-1.0432109 -0.42976707 2.8545485 2.2323225e-38
-1.042972 -0.42272162 2.8574173 1.8919201e-38
-1.0447655 -0.42027956 2.8573825 2.2867044e-38
-1.0437742 -0.41331664 2.8606327 1.9560965e-38
-1.0463204 -0.41079235 2.8602171 2.2499697e-38
-1.0470977 -0.40604857 2.861634 2.2591532e-38
-1.0478753 -0.40130496 2.8630514 2.2316026e-38
-1.0486526 -0.39656126 2.8644686 2.2224191e-38
-1.0494299 -0.39181748 2.8658855 2.1948684e-38
-1.0502074 -0.38707384 2.8673027 2.1948684e-38
-1.0509846 -0.38233009 2.8687196 2.1581342e-38
-1.0500213 -0.37514207 2.8720417 1.8458939e-38
-1.0525395 -0.37284273 2.8715539 2.1776492e-38
-1.0540942 -0.36335531 2.8743882 1.3265581e-38
-1.0548716 -0.35861149 2.8758051 1.6114292e-38
-0.99831629 -0.76603574 2.7484906 2.3477775e-38
-1.0011004 -0.76151586 2.7487202 2.3499014e-38
-1.0018464 -0.7569629 2.7500801 2.3497919e-38
-0.99961525 -0.75065386 2.753756 2.3497556e-38
-1.0003675 -0.74606282 2.7551274 2.350047e-38
-1.0011199 -0.74147171 2.7564988 2.3508779e-38
-1.0018724 -0.73688066 2.7578707 2.3509886e-38
-1.0026246 -0.73228955 2.7592421 2.3509886e-38
-1.0041584 -0.72914732 2.7596221 2.3509886e-38
-1.0013176 -0.72120857 2.7642655 2.3509886e-38
-1.0020761 -0.71658111 2.7656481 2.3509886e-38
-1.0051856 -0.7119301 2.7657497 2.3509886e-38
-1.0035927 -0.70732599 2.7684128 2.3509886e-38
-1.0060083 -0.7028442 2.7688296 2.3509886e-38
-1.0051094 -0.69807088 2.7711778 2.3509886e-38
-1.0068306 -0.69375837 2.7719095 2.3509886e-38
-1.0066261 -0.68881571 2.7739425 2.3509886e-38
-1.0101484 -0.68637902 2.7729573 2.3509886e-38
-1.0109007 -0.68178803 2.7743287 2.3509886e-38
-1.0089011 -0.67493308 2.7780898 2.3509886e-38
-1.0136383 -0.67350048 2.7760479 2.3509886e-38
-1.0131578 -0.66801488 2.7784433 2.3509886e-38
-1.0125734 -0.66283685 2.780776 2.3504091e-38
-1.0118994 -0.65622109 2.7837172 2.3504828e-38
-1.0126928 -0.65179521 2.7850018 2.3509886e-38
-1.0134512 -0.64716768 2.7863843 2.3509886e-38
-1.0142096 -0.64254016 2.7877667 2.3509886e-38
-1.0149679 -0.63791251 2.789149 2.3509886e-38
-1.0168449 -0.63433975 2.7895079 2.1658042e-38
-1.0164846 -0.6286574 2.791914 2.3509886e-38
-1.0176586 -0.6252327 2.7926009 2.2767272e-38
-1.0180013 -0.61940235 2.7946789 2.3509886e-38
-1.0187597 -0.61477476 2.7960613 2.3509886e-38
-1.019518 -0.61014718 2.7974436 2.3509886e-38
-1.0174929 -0.60258043 2.8014953 2.3509886e-38
-1.0182575 -0.59791476 2.8028891 2.3509886e-38
-1.0191576 -0.59367549 2.8040431 2.3414086e-38
-1.0175636 -0.58557189 2.8080666 2.3229333e-38
-1.0177931 -0.58082569 2.8097854 2.3509886e-38
-1.0185639 -0.57612169 2.8111906 2.3509886e-38
-1.0193349 -0.57141787 2.8125958 2.3509886e-38
-1.0201056 -0.56671399 2.8140008 2.3509886e-38
-1.0208765 -0.56201011 2.8154061 2.3509886e-38
-1.0216475 -0.55730629 2.8168116 2.3509886e-38
-1.0224181 -0.55260235 2.8182166 2.3509886e-38
-1.0231891 -0.54789841 2.8196218 2.3509886e-38
-1.02396 -0.54319459 2.8210273 2.3509886e-38
-1.0247308 -0.53849071 2.8224323 2.3509886e-38
-1.0255016 -0.53378683 2.8238375 1.589619e-38
-1.0262724 -0.52908295 2.8252425 2.0203809e-38
-1.0270433 -0.52437913 2.8266478 2.3425613e-38
-1.0278143 -0.51967525 2.8280532 2.3429932e-38
-1.0285851 -0.51497132 2.8294582 2.3424528e-38
-1.029356 -0.51026744 2.8308637 2.3424181e-38
-1.0301268 -0.5055635 2.832269 2.3424193e-38
-1.0308977 -0.50085962 2.8336742 2.3422391e-38
-1.0316685 -0.49615577 2.8350794 2.3420954e-38
-1.0324394 -0.4914518 2.8364844 2.3418073e-38
-1.0321553 -0.4844251 2.8393714 2.0572243e-38
-1.0312399 -0.47798166 2.8423779 2.3422744e-38
-1.0329735 -0.47509444 2.8425491 2.0481832e-38
-1.0327946 -0.46849421 2.845212 2.3420584e-38
-1.0328336 -0.46451703 2.846736 2.038749e-38
-1.0343492 -0.45900667 2.8480461 2.3426354e-38
-1.0351267 -0.45426309 2.8494632 2.104222e-38
-1.0386062 -0.45382079 2.8477261 1.7099018e-38
-1.0383061 -0.44690764 2.8505774 1.4711291e-38
-1.040148 -0.4444131 2.8505368 1.5176927e-38
-1.0363014 -0.42217514 2.8612895 1.8279231e-38
-1.0394733 -0.40694967 2.8654664 2.2591532e-38
-1.0399725 -0.40130031 2.8673882 1.937729e-38
-1.041041 -0.39738256 2.8683243 2.2316026e-38
-1.0418251 -0.39259908 2.8697534 2.2224191e-38
-1.0426089 -0.38781551 2.8711824 2.2040519e-38
-1.0433929 -0.38303205 2.8726115 2.1856848e-38
-1.0441767 -0.37824845 2.8740404 2.1765013e-38
-1.0449606 -0.37346503 2.8754694 2.1214e-38
-1.0457445 -0.36868146 2.8768985 2.1684298e-38
-1.0473123 -0.35911438 2.8797565 1.391095e-38
-1.0514518 -0.35464528 2.8792229 2.0444877e-38
-0.99383956 -0.76744127 2.7504005 2.3472371e-38
-0.99707198 -0.76226193 2.7506399 2.3492875e-38
-0.99734843 -0.75797719 2.7521532 2.3468767e-38
-0.99764627 -0.75214213 2.7542577 2.3284733e-38
-0.99630553 -0.74681515 2.7570634 2.3495428e-38
-0.99705791 -0.7422241 2.758435 2.3506618e-38
-0.99781024 -0.73763299 2.7598064 2.3509886e-38
-0.99856263 -0.73304194 2.761178 2.3509886e-38
-0.99931514 -0.72845089 2.7625496 2.3509886e-38
-0.99722314 -0.72196692 2.7662168 2.3509886e-38
-0.99798155 -0.7173394 2.7675993 2.3509886e-38
-0.99961525 -0.71293944 2.7684133 2.3509886e-38
-0.99949819 -0.70808429 2.770364 2.3509886e-38
-1.0002567 -0.70345676 2.7717466 2.3509886e-38
-1.0010149 -0.69882917 2.773129 2.3509886e-38
-1.0017732 -0.69420165 2.7745113 2.3509886e-38
-1.005334 -0.69172245 2.7735217 2.3509886e-38
-1.0067589 -0.68669671 2.774693 2.3509886e-38
-1.0068387 -0.6825403 2.7762644 2.3509886e-38
-1.0056585 -0.67610717 2.7794123 2.3509883e-38
-1.005565 -0.67106378 2.7814236 2.3509886e-38
-1.0064821 -0.66702098 2.7824917 2.3319366e-38
-1.0070817 -0.66180873 2.7841885 2.3509886e-38
-1.0078402 -0.6571812 2.7855709 2.3509886e-38
-1.0085984 -0.65255356 2.7869532 2.3509886e-38
-1.0099072 -0.64763379 2.7881474 2.3509523e-38
-1.010115 -0.64329845 2.7897179 2.3509886e-38
-1.0108734 -0.63867086 2.7911003 2.3509886e-38
-1.0116318 -0.63404328 2.7924829 2.3509886e-38
-1.0115427 -0.62941748 2.7943294 2.3135341e-38
-1.0131485 -0.62478822 2.7952478 2.3509886e-38
-1.0122882 -0.6171118 2.7987032 2.3506279e-38
-1.0118357 -0.61267656 2.8006752 2.3509886e-38
-1.0126002 -0.60801065 2.8020687 2.3509886e-38
-1.0136322 -0.60473406 2.8027763 2.1200291e-38
-1.0141294 -0.5986793 2.8048565 2.3509886e-38
-1.014894 -0.59401357 2.8062501 2.3509886e-38
-1.0128602 -0.58630043 2.8103635 2.3509886e-38
-1.0136312 -0.58159661 2.811769 2.3509886e-38
-1.0144019 -0.57689255 2.813174 2.3509886e-38
-1.0160693 -0.57362819 2.8135281 2.3228974e-38
-1.0163678 -0.56758618 2.8157129 2.2952392e-38
-1.0167145 -0.56278098 2.8173897 2.3509886e-38
-1.0174854 -0.5580771 2.818795 2.3509886e-38
-1.0182562 -0.55337322 2.8202002 2.3509886e-38
-1.0190271 -0.54866928 2.8216054 2.3509886e-38
-1.0214067 -0.54535824 2.8215871 2.3136056e-38
-1.0205687 -0.53926158 2.8244157 2.3509886e-38
-1.0213397 -0.5345577 2.8258209 1.4327414e-38
-1.0221106 -0.52985394 2.8272264 2.038748e-38
-1.0228814 -0.52515 2.8286314 2.3425277e-38
-1.0236523 -0.52044612 2.8300369 2.3425279e-38
-1.0239083 -0.51345563 2.832613 2.0571167e-38
-1.0251939 -0.5110383 2.8328471 2.3418791e-38
-1.0266417 -0.50674546 2.8337216 2.0574038e-38
-1.0267357 -0.50163043 2.8356576 2.3419163e-38
-1.0274563 -0.49746755 2.8368802 2.0571174e-38
-1.0254879 -0.48824635 2.8415437 2.3418068e-38
-1.0262653 -0.4835026 2.8429608 2.3420221e-38
-1.0270427 -0.47875899 2.844378 2.3419869e-38
-1.0278201 -0.47401527 2.8457952 2.3419503e-38
-1.0285974 -0.46927145 2.8472121 2.3419505e-38
-1.029375 -0.46452788 2.8486295 2.3419502e-38
-1.0301522 -0.45978412 2.8500464 2.3424549e-38
-1.0308071 -0.45568672 2.8512797 2.0022652e-38
-1.031707 -0.45029679 2.8528807 2.1682933e-38
-1.0324843 -0.44555297 2.8542976 1.6805956e-38
-1.0332617 -0.44080928 2.8557148 9.7395848e-39
-1.0368087 -0.39816651 2.8703415 2.2040525e-38
-1.0375926 -0.39338303 2.8717706 2.1948691e-38
-1.0383765 -0.38859937 2.8731995 2.1856859e-38
-1.0387465 -0.3829132 2.8752065 1.900996e-38
-1.0399443 -0.3790324 2.8760576 2.19487e-38
-1.0395607 -0.37345445 2.8784361 1.8367099e-38
-1.0415123 -0.3694655 2.8789158 2.1956217e-38
-1.0422961 -0.36468187 2.8803446 1.9419333e-38
-1.0472547 -0.35542265 2.8812232 2.1827803e-38
-0.99229747 -0.76756096 2.7511997 2.3492521e-38
-0.99134642 -0.76213312 2.7538304 2.3469492e-38
-0.99378967 -0.75845516 2.7539198 2.3489621e-38
-0.9945358 -0.75390226 2.75528 2.3489624e-38
-0.99224335 -0.74756747 2.7589993 2.3491107e-38
-0.99299574 -0.74297643 2.7603707 2.3505179e-38
-0.99409634 -0.73923558 2.7612212 2.3508074e-38
-0.99440074 -0.7333777 2.7633307 2.3509886e-38
-0.99270946 -0.72623503 2.7670341 2.3509886e-38
-0.99312884 -0.72272527 2.7681682 2.3509886e-38
-0.99388725 -0.71809775 2.7695506 2.3509886e-38
-0.9946456 -0.71347022 2.7709332 2.3509886e-38
-0.99540401 -0.70884269 2.7723155 2.3509886e-38
-0.99616224 -0.70421505 2.7736979 2.3509886e-38
-0.99692059 -0.69958752 2.7750802 2.3509886e-38
-0.997679 -0.69496 2.7764628 2.3509886e-38
-1.0012717 -0.69247478 2.7754574 2.3509886e-38
-1.0020243 -0.68788379 2.7768292 2.3509886e-38
-1.0027765 -0.68329275 2.7782006 2.3509886e-38
-1.003529 -0.67870164 2.7795722 2.3509886e-38
-1.0042814 -0.67411059 2.7809439 2.3509886e-38
-1.0050336 -0.66951954 2.782315 2.3509886e-38
-1.0057862 -0.66492862 2.7836869 2.3509886e-38
-1.0045041 -0.65331191 2.7889044 2.3509886e-38
-1.0052624 -0.64868432 2.7902868 2.3509886e-38
-1.0031198 -0.64143544 2.7942796 2.3509886e-38
-1.0059236 -0.63721979 2.7943797 2.2487104e-38
-1.0046492 -0.63210404 2.7970674 2.3509886e-38
-1.0082958 -0.63017404 2.7958164 2.3509886e-38
-1.0090542 -0.62554657 2.797199 2.3509886e-38
-1.006943 -0.6181069 2.8012488 2.3509886e-38
-1.0077076 -0.61344111 2.8026426 2.3509886e-38
-1.0084721 -0.60877532 2.8040364 2.3509886e-38
-1.0092368 -0.6041097 2.8054302 2.3509886e-38
-1.0101374 -0.59842253 2.8071463 2.2030085e-38
-1.0079277 -0.59177518 2.8109419 2.3509886e-38
-1.0090171 -0.58713359 2.8121481 2.3229334e-38
-1.0094694 -0.58236742 2.8137524 2.3509886e-38
-1.0102402 -0.57766342 2.8151577 2.3509886e-38
-1.011011 -0.57295954 2.8165627 2.3509886e-38
-1.0117819 -0.56825572 2.8179681 2.3509886e-38
-1.0125526 -0.56355178 2.8193731 2.3509886e-38
-1.0143471 -0.55885643 2.8202138 2.3044586e-38
-1.0140945 -0.55414408 2.8221838 2.3509886e-38
-1.0151722 -0.54959995 2.8233585 2.3136417e-38
-1.0156362 -0.54473633 2.8249941 2.3509886e-38
-1.0164069 -0.54003239 2.8263991 2.3509886e-38
-1.0171778 -0.53532851 2.8278043 1.6263492e-38
-1.0179487 -0.53062475 2.8292098 2.038748e-38
-1.0192686 -0.52634078 2.8301506 2.0299268e-38
-1.0194905 -0.52121693 2.8320203 2.342384e-38
-1.0210302 -0.51811421 2.832381 2.0479691e-38
-1.0210322 -0.51180917 2.8348308 2.3418791e-38
-1.0209087 -0.50778294 2.836463 2.0481483e-38
-1.0212013 -0.50171179 2.8386621 2.0479339e-38
-1.0233449 -0.49769753 2.8390465 2.3418082e-38
-1.0241156 -0.49299359 2.8404515 2.3418071e-38
-1.0235231 -0.4859843 2.8435006 2.0481122e-38
-1.0228455 -0.47953632 2.8463781 2.3419147e-38
-1.0243481 -0.47665206 2.8466749 2.0388568e-38
-1.0244004 -0.47004896 2.8492126 2.341806e-38
-1.0251776 -0.46530515 2.8506296 2.3419502e-38
-1.0259551 -0.46056151 2.8520467 2.3419147e-38
-1.0247372 -0.44678572 2.8580685 2.2605248e-38
-1.0259429 -0.44262907 2.8590224 1.5703912e-38
-1.0312331 -0.40290618 2.871558 1.9285456e-38
-1.0325763 -0.39895049 2.8723588 2.2132362e-38
-1.0333602 -0.39416692 2.8737876 2.2040527e-38
-1.0341442 -0.38938335 2.8752167 2.1948696e-38
-1.034928 -0.3845998 2.8766456 2.19487e-38
-1.035712 -0.37981638 2.8780746 2.19487e-38
-1.0364957 -0.37503275 2.8795035 2.1122164e-38
-1.0372797 -0.3702493 2.8809326 2.158744e-38
-1.0404154 -0.35111511 2.8866487 2.2749761e-38
-0.9875232 -0.77285993 2.7517593 2.3492173e-38
-0.98826933 -0.76830703 2.7531195 2.3486037e-38
-0.9890154 -0.76375413 2.7544796 2.3485326e-38
-0.98976153 -0.75920123 2.7558398 2.3484247e-38
-0.987234 -0.75246024 2.759846 2.3004562e-38
-0.98818147 -0.74831992 2.7609353 2.3489649e-38
-0.98600101 -0.7419939 2.7645898 2.350374e-38
-0.98675936 -0.73736638 2.7659721 2.3509886e-38
-0.98686492 -0.73312598 2.7675624 2.3509886e-38
-0.98827612 -0.72811127 2.7687371 2.3509886e-38
-0.98903441 -0.72348362 2.7701194 2.3509886e-38
-0.98979276 -0.7188561 2.7715018 2.3509886e-38
-0.99123108 -0.71446931 2.7724178 2.3509886e-38
-0.99130952 -0.7096011 2.7742667 2.3509886e-38
-0.99206543 -0.70538044 2.775492 2.3509886e-38
-0.99282628 -0.70034593 2.7770317 2.3509886e-38
-0.99358451 -0.69571835 2.778414 2.3509886e-38
-0.99720985 -0.69322717 2.7773936 2.3509886e-38
-0.99796212 -0.68863606 2.778765 2.3509886e-38
-0.99871457 -0.68404508 2.7801363 2.3509886e-38
-0.99946696 -0.67945403 2.781508 2.3509886e-38
-1.0002193 -0.67486298 2.7828796 2.3509886e-38
-1.0009718 -0.67027199 2.7842512 2.3509886e-38
-1.001724 -0.66568083 2.7856226 2.3509886e-38
-1.0024765 -0.66108978 2.7869942 2.3509886e-38
-1.0032288 -0.65649867 2.7883656 2.3509886e-38
-1.0015013 -0.6491732 2.7921603 2.3509524e-38
-1.0019264 -0.64481521 2.7936206 2.3509886e-38
-1.0026847 -0.64018762 2.7950029 2.3509886e-38
-1.003443 -0.63556004 2.7963853 2.3509886e-38
-1.0042014 -0.63093251 2.7977679 2.3509886e-38
-1.0049598 -0.62630492 2.7991502 2.3509886e-38
-1.0047395 -0.61942208 2.8019462 2.3507e-38
-1.0035794 -0.61420572 2.8046098 2.3509886e-38
-1.004344 -0.60953993 2.8060038 2.3509886e-38
-1.0051085 -0.60487419 2.8073974 2.3509886e-38
-1.0058731 -0.60020852 2.8087914 2.3509886e-38
-1.0037656 -0.59254605 2.8129253 2.3509886e-38
-1.0045365 -0.58784217 2.8143308 2.3509886e-38
-1.0053073 -0.58313823 2.8157358 2.3509886e-38
-1.006992 -0.57840449 2.8166509 2.3228974e-38
-1.0068489 -0.57373041 2.8185463 2.3509886e-38
-1.0078228 -0.56914693 2.8197935 2.295239e-38
-1.0083907 -0.56432265 2.8213568 2.3509886e-38
-1.0091616 -0.55961883 2.8227618 2.3509886e-38
-1.0099325 -0.55491495 2.8241673 2.3509886e-38
-1.0107033 -0.55021107 2.8255725 2.3509886e-38
-1.0114741 -0.54550713 2.8269775 2.3509886e-38
-1.0122449 -0.54080325 2.8283827 2.3509886e-38
-1.0130159 -0.53609943 2.8297882 1.9206211e-38
-1.0130199 -0.53059524 2.8319252 1.8918119e-38
-1.0145576 -0.52669173 2.8325987 2.3423444e-38
-1.0153285 -0.5219878 2.8340037 2.342562e-38
-1.0160995 -0.51728404 2.8354092 2.3419139e-38
-1.0168701 -0.51258004 2.8368142 2.3418063e-38
-1.0176411 -0.50787604 2.8382194 2.3418074e-38
-1.0184119 -0.50317222 2.8396246 2.3418071e-38
-1.0191828 -0.49846834 2.8410299 2.341807e-38
-1.0191847 -0.49296021 2.8431695 2.047933e-38
-1.017871 -0.48505741 2.8469615 2.3418789e-38
-1.0186484 -0.48031375 2.8483787 2.3418074e-38
-1.0194256 -0.47556993 2.8497956 2.341879e-38
-1.0202031 -0.4708263 2.8512127 2.3418078e-38
-1.0213434 -0.46661711 2.8522229 2.029566e-38
-1.0197183 -0.45762944 2.8566072 2.0295654e-38
-1.0197209 -0.45235306 2.8586564 2.3420956e-38
-1.020505 -0.44756958 2.8600855 2.3430687e-38
-1.0212888 -0.44278607 2.8615146 1.9009948e-38
-1.0204048 -0.43750501 2.8640521 1.3499824e-38
-1.0275601 -0.40451789 2.8729467 2.2499699e-38
-1.028344 -0.39973435 2.8743758 2.2132355e-38
-1.0272031 -0.39598623 2.8764584 1.9193619e-38
-1.0299118 -0.39016724 2.8772337 2.2040519e-38
-1.0300092 -0.38451931 2.8793752 1.8918112e-38
-1.0314797 -0.38060027 2.8800917 2.1856848e-38
-1.0308301 -0.37505957 2.882601 1.8734441e-38
-1.0330476 -0.37103328 2.8829498 2.1682504e-38
-1.0338314 -0.36624971 2.8843789 1.9972529e-38
-1.0353992 -0.35668254 2.8872368 1.7959597e-38
-1.0361831 -0.35189909 2.8886659 2.2927744e-38
-1.0383828 -0.34339544 2.890764 1.851682e-38
-0.9800688 -0.7715435 2.7563601 2.3468064e-38
-0.98037839 -0.76570082 2.7584608 2.3280422e-38
-0.98186225 -0.76284552 2.7587569 2.3483166e-38
-0.98121256 -0.7566607 2.7615166 2.2636141e-38
-0.98336685 -0.75366324 2.7614996 2.3482087e-38
-0.98411936 -0.74907231 2.7628715 2.3488929e-38
-0.98317903 -0.7427426 2.765847 2.3500849e-38
-0.98266488 -0.73812455 2.7679234 2.3509886e-38
-0.98342341 -0.73349714 2.7693059 2.3509886e-38
-0.98418164 -0.72886956 2.7706883 2.3509886e-38
-0.98494005 -0.72424197 2.7720706 2.3509886e-38
-0.9856984 -0.71961445 2.7734532 2.3509886e-38
-0.98721504 -0.71035939 2.7762179 2.3509886e-38
-0.98797351 -0.70573181 2.7776005 2.3509886e-38
-0.9887318 -0.70110422 2.7789829 2.3509886e-38
-0.98949015 -0.6964767 2.7803652 2.3509886e-38
-0.99314767 -0.69397956 2.7793293 2.3509886e-38
-0.99390018 -0.68938857 2.7807012 2.3509886e-38
-0.99465245 -0.68479753 2.7820725 2.3509886e-38
-0.99540472 -0.68020636 2.7834439 2.3509886e-38
-0.99615717 -0.67561531 2.7848155 2.3509886e-38
-0.99725658 -0.67067099 2.7861342 2.2213027e-38
-0.99766183 -0.66643322 2.7875586 2.3509886e-38
-0.99707907 -0.66094834 2.7900097 2.2398492e-38
-0.99916667 -0.65725112 2.7903016 2.3509886e-38
-0.99707365 -0.65020108 2.7941895 2.3509886e-38
-0.99783194 -0.64557344 2.7955718 2.3509886e-38
-1.0004888 -0.64132524 2.7957659 2.3504475e-38
-0.9993487 -0.63631839 2.7983367 2.3509886e-38
-1.0003277 -0.63147724 2.7996814 2.304422e-38
-1.0008655 -0.62706327 2.8011017 2.3509886e-38
-0.99868655 -0.61963606 2.8051834 2.3509886e-38
-0.99945122 -0.61497039 2.8065774 2.3509886e-38
-1.0002156 -0.61030447 2.807971 2.3509886e-38
-1.0009805 -0.60563892 2.809365 2.3509886e-38
-1.0016435 -0.59998566 2.8111982 2.1846036e-38
-0.99994481 -0.59193051 2.8152604 2.3228976e-38
-1.0003746 -0.58861297 2.8163142 2.3509886e-38
-1.0011454 -0.58390915 2.8177195 2.3509886e-38
-1.0013107 -0.57943594 2.8193669 2.3044945e-38
-1.0026872 -0.57450134 2.8205299 2.3509886e-38
-1.0021464 -0.57017732 2.8225069 2.3044586e-38
-1.0042288 -0.56509358 2.8233402 2.3509886e-38
-1.0057968 -0.56041819 2.8242972 2.2952753e-38
-1.0057706 -0.55568576 2.8261507 2.3509886e-38
-1.0066285 -0.5511601 2.8274388 2.3228614e-38
-1.0073121 -0.54627788 2.8289609 2.3509886e-38
-1.0080831 -0.54157412 2.8303664 2.3509886e-38
-1.0088539 -0.5368703 2.8317714 1.7638884e-38
-1.0096248 -0.53216642 2.8331766 2.1489506e-38
-1.0103956 -0.52746254 2.8345819 2.3424524e-38
-1.0109977 -0.5218448 2.8364353 2.0577279e-38
-1.0119375 -0.51805484 2.8373926 2.3418779e-38
-1.0118237 -0.5125646 2.8395886 2.0479324e-38
-1.0134792 -0.50864691 2.840203 2.3418074e-38
-1.0126494 -0.50328451 2.8427422 2.047933e-38
-1.0121192 -0.4953222 2.8461275 2.3418071e-38
-1.0128965 -0.49057853 2.8475447 2.3418068e-38
-1.0136738 -0.48583469 2.8489616 2.3418428e-38
-1.0151969 -0.4814519 2.8498294 2.0295659e-38
-1.0135338 -0.47257435 2.8541918 2.0296017e-38
-1.013137 -0.46748766 2.8563867 2.3418077e-38
-1.0167835 -0.46686 2.8546302 2.3418073e-38
-1.0175608 -0.46211627 2.8560474 2.3418066e-38
-1.0183382 -0.45737261 2.8574646 2.3420596e-38
-1.0191156 -0.45262888 2.8588815 2.3427806e-38
-1.0172268 -0.44421607 2.8631873 1.7356913e-38
-1.0178401 -0.43878642 2.8649604 1.4693679e-38
-1.0186242 -0.43400291 2.8663895 1.6189627e-38
-1.0217599 -0.41486877 2.8721056 2.2316037e-38
-1.0225438 -0.41008532 2.8735349 2.2591532e-38
-1.0233276 -0.40530169 2.8749635 2.2499699e-38
-1.0241117 -0.4005183 2.8763928 2.2316026e-38
-1.0248955 -0.39573476 2.8778219 2.222419e-38
-1.0256796 -0.39095128 2.879251 2.2132355e-38
-1.0241523 -0.38559034 2.8821721 1.919362e-38
-1.0272472 -0.38138413 2.8821087 2.2407861e-38
-1.0251716 -0.37152502 2.8870792 2.1673177e-38
-1.0288149 -0.37181708 2.8849666 2.1866893e-38
-1.0296081 -0.35667267 2.8904173 1.629472e-38
-1.0319508 -0.35268304 2.8906832 2.0807245e-38
-0.97629535 -0.77277988 2.7579496 2.3485705e-38
-0.97704768 -0.76818877 2.759321 2.3478508e-38
-0.97780007 -0.76359779 2.7606926 2.3475636e-38
-0.97855246 -0.75900674 2.7620642 2.3474556e-38
-0.97930479 -0.75441563 2.7634356 2.3474891e-38
-0.9800573 -0.7498247 2.7648072 2.3486421e-38
-0.97781211 -0.74351048 2.7684922 2.3502658e-38
-0.97857058 -0.73888302 2.7698748 2.3509886e-38
-0.97932899 -0.73425549 2.7712574 2.3509886e-38
-0.98008722 -0.72962791 2.7726395 2.3509886e-38
-0.97984535 -0.72372943 2.7750647 2.3509886e-38
-0.98069566 -0.71458578 2.778152 2.3509886e-38
-0.98312062 -0.71111768 2.7781692 2.3509886e-38
-0.98387897 -0.7064901 2.7795517 2.3509886e-38
-0.98463732 -0.70186257 2.7809341 2.3509886e-38
-0.98539573 -0.69723505 2.7823167 2.3509886e-38
-0.98908567 -0.69473195 2.7812655 2.3509886e-38
-0.989838 -0.69014084 2.7826369 2.3509886e-38
-0.99059039 -0.68554986 2.7840085 2.3509886e-38
-0.98990297 -0.68008327 2.78651 2.3509518e-38
-0.98918748 -0.67409724 2.7892287 2.3509886e-38
-0.98994583 -0.66946971 2.7906113 2.3509886e-38
-0.99070436 -0.66484219 2.7919939 2.3509886e-38
-0.99146259 -0.6602146 2.7933762 2.3509886e-38
-0.992221 -0.65558702 2.7947586 2.3509886e-38
-0.99309957 -0.65071207 2.7961709 2.3507721e-38
-0.99073547 -0.64372927 2.8001819 2.3509886e-38
-0.99185652 -0.63977236 2.8011045 2.1567643e-38
-0.99525446 -0.63707685 2.8002884 2.3509886e-38
-0.99601263 -0.63244915 2.8016706 2.3509883e-38
-0.99300611 -0.6246748 2.8063412 2.3506284e-38
-0.99627429 -0.62096167 2.8059916 2.3507e-38
-0.99532294 -0.61573488 2.8085446 2.3509886e-38
-0.99608773 -0.61106914 2.8099387 2.3509886e-38
-0.99685228 -0.60640347 2.8113325 2.3509877e-38
-0.99761683 -0.6017378 2.8127263 2.3509886e-38
-0.99544173 -0.59408772 2.8168924 2.3509886e-38
-0.9962126 -0.58938378 2.8182976 2.3509886e-38
-0.99698353 -0.58467996 2.8197029 2.3509886e-38
-0.9977544 -0.57997602 2.8211081 2.3509886e-38
-0.99852526 -0.57527214 2.8225133 2.3509886e-38
-0.99929601 -0.5705682 2.8239183 2.3509886e-38
-1.000067 -0.56586444 2.8253238 2.3509886e-38
-1.0008378 -0.56116056 2.8267291 2.3509886e-38
-1.0016086 -0.55645657 2.8281341 2.3509886e-38
-1.0023794 -0.55175269 2.8295393 2.3509886e-38
-1.0031503 -0.54704887 2.8309448 2.3509886e-38
-1.0039213 -0.54234499 2.8323498 2.3509886e-38
-1.0046921 -0.53764117 2.833755 1.8183428e-38
-1.0044641 -0.53216875 2.8360066 1.9193623e-38
-1.0062339 -0.52823347 2.8365657 2.3422396e-38
-1.0070046 -0.52352953 2.8379707 2.3421671e-38
-1.0077755 -0.51882565 2.839376 2.3418052e-38
-1.0085464 -0.51412171 2.8407812 2.3418063e-38
-1.0063672 -0.50558692 2.8452935 2.3418061e-38
-1.0071446 -0.50084323 2.8467107 2.3418066e-38
-1.0079219 -0.49609953 2.8481276 2.3418073e-38
-1.0086191 -0.4918263 2.849406 2.0479328e-38
-1.0094767 -0.48661211 2.8509619 2.3418068e-38
-1.0102541 -0.48186851 2.8523791 2.3418064e-38
-1.0081205 -0.47305498 2.8569746 2.3418067e-38
-1.0089045 -0.46827155 2.8584037 2.3418075e-38
-1.0125864 -0.46763742 2.8566306 2.341807e-38
-1.0133636 -0.46289361 2.8580475 2.3418067e-38
-1.014141 -0.45814994 2.8594646 2.3419146e-38
-1.013832 -0.45271933 2.8617451 2.0299977e-38
-1.0128242 -0.44435397 2.8655488 2.2316037e-38
-1.0136079 -0.43957034 2.8669777 2.1214e-38
-1.0143919 -0.43478686 2.8684068 1.7828301e-38
-1.0175275 -0.41565275 2.8741229 2.1308723e-38
-1.0183115 -0.4108693 2.8755519 2.26834e-38
-1.0190953 -0.40608564 2.8769808 2.2407881e-38
-1.0198792 -0.40130219 2.8784099 2.2316041e-38
-1.020663 -0.39651853 2.8798387 2.2407862e-38
-1.0214472 -0.39173514 2.881268 2.2132355e-38
-1.022231 -0.3869516 2.8826971 2.2407872e-38
-1.0230149 -0.38216808 2.8841259 2.2591545e-38
-1.0209025 -0.37231565 2.8891137 2.222419e-38
-1.0216931 -0.36749056 2.8905549 2.2508689e-38
-1.0253667 -0.36781755 2.888413 2.1715238e-38
-1.0270299 -0.3509917 2.8940396 1.7948131e-38
-1.0297091 -0.34502238 2.8948901 1.619354e-38
-0.97148085 -0.77812332 2.7585139 2.3478128e-38
-0.97223324 -0.77353227 2.7598855 2.3483184e-38
-0.97298568 -0.76894116 2.7612572 2.3476708e-38
-0.97258824 -0.76403016 2.7633836 2.2815513e-38
-0.97449046 -0.75975913 2.7640002 2.3474196e-38
-0.97524273 -0.75516802 2.7653716 2.3474531e-38
-0.97599518 -0.75057703 2.7667432 2.3481739e-38
-0.97479427 -0.74427468 2.7698512 2.3498336e-38
-0.9744761 -0.73964125 2.771826 2.3509886e-38
-0.97523457 -0.73501384 2.7732086 2.3509886e-38
-0.97599274 -0.73038614 2.7745907 2.3509886e-38
-0.97545409 -0.72558689 2.7767518 2.3509877e-38
-0.97576612 -0.7197026 2.7788677 2.3509879e-38
-0.97826785 -0.7165035 2.778738 2.3509886e-38
-0.97902632 -0.71187609 2.7801208 2.3509886e-38
-0.97978473 -0.70724851 2.7815032 2.3509886e-38
-0.98054296 -0.70262092 2.7828856 2.3509886e-38
-0.98130137 -0.6979934 2.7842679 2.3509886e-38
-0.98502356 -0.69548428 2.7832015 2.3509886e-38
-0.98577583 -0.69089317 2.7845728 2.3509886e-38
-0.98181015 -0.6827631 2.7899082 2.3509161e-38
-0.98433483 -0.67948323 2.7897978 2.3509886e-38
-0.98509312 -0.67485559 2.7911801 2.3509886e-38
-0.98587322 -0.6699475 2.7926598 2.2397756e-38
-0.98660988 -0.66560048 2.7939451 2.3509886e-38
-0.98574072 -0.66019064 2.7965243 2.2122627e-38
-0.98812658 -0.65634537 2.79671 2.3509886e-38
-0.98543286 -0.64994544 2.8006744 2.3507362e-38
-0.98660719 -0.64449382 2.8021491 2.3509886e-38
-0.98737186 -0.63982815 2.8035431 2.3509886e-38
-0.98813647 -0.63516235 2.8049366 2.3509886e-38
-0.98983622 -0.63113654 2.8055692 2.1845684e-38
-0.98966569 -0.62583095 2.8077245 2.3509886e-38
-0.99043024 -0.62116522 2.8091183 2.3509886e-38
-0.9911949 -0.61649948 2.8105121 2.3509886e-38
-0.99195957 -0.61183375 2.8119061 2.3509886e-38
-0.992724 -0.60716802 2.8132997 2.3509858e-38
-0.99315417 -0.60154819 2.815248 2.1847113e-38
-0.99140406 -0.59350556 2.8193333 2.3228977e-38
-0.99205071 -0.59015465 2.820281 2.3509886e-38
-0.99282169 -0.58545089 2.8216865 2.3509886e-38
-0.99359244 -0.58074683 2.8230915 2.3509886e-38
-0.99436331 -0.57604295 2.8244967 2.3509886e-38
-0.99513412 -0.57133913 2.825902 2.3509886e-38
-0.99590498 -0.56663525 2.8273072 2.3509886e-38
-0.99725074 -0.56197959 2.8283782 2.3044589e-38
-0.9974466 -0.55722737 2.8301175 2.3509886e-38
-0.99808961 -0.55272019 2.8315167 2.313678e-38
-0.99898851 -0.54781973 2.8329282 2.3509886e-38
-0.99975926 -0.54311585 2.8343332 2.3509886e-38
-1.0005301 -0.53841197 2.8357384 1.8183428e-38
-1.0013009 -0.5337081 2.8371437 2.1856848e-38
-1.002072 -0.52900434 2.8385491 2.3422396e-38
-1.0024366 -0.52341944 2.8405194 2.0572608e-38
-1.0036136 -0.51959646 2.8413594 2.3418052e-38
-1.0012116 -0.51153511 2.8458099 2.047933e-38
-1.00217 -0.50636429 2.8472939 2.3418063e-38
-1.0029473 -0.50162065 2.848711 2.3418064e-38
-1.0033365 -0.49721974 2.8502078 2.03875e-38
-1.0045022 -0.49213335 2.8515453 2.3418066e-38
-1.0052794 -0.48738953 2.8529623 2.3418068e-38
-1.0045516 -0.48026302 2.8561313 2.038749e-38
-1.0038882 -0.47383904 2.8589919 2.3418067e-38
-1.0046721 -0.46905541 2.8604207 2.3418073e-38
-1.008389 -0.46841475 2.8586309 2.3418066e-38
-1.0062399 -0.45948839 2.8632789 2.3418064e-38
-1.0070239 -0.45470494 2.8647079 2.3418064e-38
-1.0078076 -0.44992128 2.8661368 2.3421663e-38
-1.0085917 -0.44513783 2.8675659 2.2499711e-38
-1.009809 -0.4409228 2.8685362 1.9010311e-38
-1.0101595 -0.43557081 2.870424 1.8104528e-38
-1.0109435 -0.4307873 2.8718531 1.2875633e-38
-1.0132951 -0.41643661 2.8761399 2.1308723e-38
-1.0140791 -0.41165316 2.877569 2.295891e-38
-1.014863 -0.40686968 2.8789983 2.2591554e-38
-1.0156469 -0.40208614 2.8804271 2.2499715e-38
-1.0134705 -0.39240628 2.8853827 2.2499699e-38
-1.0142612 -0.38758129 2.8868241 2.2316027e-38
-1.0150521 -0.38275641 2.8882656 2.2591545e-38
-1.0158427 -0.37793136 2.8897069 2.2683383e-38
-1.0172272 -0.37375134 2.8905718 1.9469129e-38
-1.0175278 -0.36752012 2.8928285 1.9567796e-38
-1.0211343 -0.3686015 2.8904302 2.1438652e-38
-1.023486 -0.35425088 2.8947172 2.0802576e-38
-1.0242698 -0.34946722 2.8961461 1.9051561e-38
-1.0250539 -0.34468386 2.8975754 1.8589872e-38
-1.0258378 -0.33990031 2.8990045 1.6094529e-38
-1.0266217 -0.33511677 2.9004333 1.6465459e-38
-1.0243933 -0.32563853 2.905339 2.0458407e-38
-0.96469188 -0.77691174 2.7627089 2.2539632e-38
-0.9714098 -0.77584434 2.7594385 2.3477418e-38
-0.97215593 -0.77129149 2.7607987 2.3469842e-38
-0.972902 -0.76673859 2.7621589 2.3470205e-38
-0.97042829 -0.76051146 2.7659359 2.3467342e-38
-0.97283977 -0.75671643 2.766088 2.2350554e-38
-0.97193307 -0.75132936 2.7686791 2.3478508e-38
-0.9726854 -0.74673826 2.7700505 2.3498339e-38
-0.97038186 -0.74039972 2.7737775 2.3509886e-38
-0.97114021 -0.73577219 2.7751601 2.3509886e-38
-0.97189873 -0.73114473 2.7765427 2.3509886e-38
-0.97265685 -0.72651702 2.7779248 2.3509886e-38
-0.9734152 -0.7218895 2.7793071 2.3509886e-38
-0.97417372 -0.71726203 2.7806897 2.3509886e-38
-0.97493196 -0.71263444 2.7820721 2.3509886e-38
-0.97569025 -0.7080068 2.7834544 2.3509886e-38
-0.97644871 -0.70337933 2.784837 2.3509886e-38
-0.97720695 -0.69875175 2.7862194 2.3509886e-38
-0.97544467 -0.69289362 2.789463 2.248926e-38
-0.97967088 -0.68978196 2.7883539 2.2305932e-38
-0.97948211 -0.68486911 2.7903666 2.3509886e-38
-0.98024035 -0.68024153 2.791749 2.3509886e-38
-0.98099881 -0.675614 2.7931316 2.3509886e-38
-0.98175722 -0.67098647 2.7945139 2.3509886e-38
-0.98251545 -0.66635883 2.7958963 2.350987e-38
-0.98018533 -0.65925562 2.7999351 2.3509886e-38
-0.98094988 -0.65458989 2.8013289 2.3509886e-38
-0.98171443 -0.64992416 2.8027227 2.3509886e-38
-0.98247904 -0.64525843 2.8041165 2.3509886e-38
-0.9834097 -0.64131021 2.8051407 2.2029694e-38
-0.98400825 -0.63592696 2.8069041 2.3509886e-38
-0.98477292 -0.63126129 2.8082981 2.3509886e-38
-0.98553747 -0.62659556 2.8096917 2.3509886e-38
-0.98630226 -0.62192988 2.8110859 2.3509886e-38
-0.98706669 -0.61726409 2.8124795 2.3509886e-38
-0.98783135 -0.61259836 2.8138733 2.3509886e-38
-0.9885959 -0.60793263 2.8152671 2.3509802e-38
-0.98936045 -0.60326695 2.8166609 2.3509844e-38
-0.98711789 -0.59562945 2.8208594 2.3509886e-38
-0.98788875 -0.59092557 2.8222647 2.3509886e-38
-0.98865962 -0.58622169 2.8236699 2.3509886e-38
-0.98943043 -0.5815177 2.8250751 2.3509886e-38
-0.99020118 -0.57681382 2.8264802 2.3509886e-38
-0.99097216 -0.57211 2.8278856 2.3509886e-38
-0.99174303 -0.56740612 2.8292906 2.3509886e-38
-0.9925139 -0.56270224 2.8306959 2.3509886e-38
-0.99328482 -0.55799842 2.8321013 2.3509886e-38
-0.99405557 -0.55329442 2.8335063 2.3509886e-38
-0.99482644 -0.5485906 2.8349116 2.3509886e-38
-0.9955973 -0.54388672 2.8363168 2.3509507e-38
-0.99330842 -0.53560394 2.8407915 1.9560961e-38
-0.99591327 -0.53374195 2.8400862 1.9928311e-38
-0.99486315 -0.52611661 2.8436255 2.3420585e-38
-0.99564052 -0.52137285 2.8450427 2.3418071e-38
-0.996418 -0.51662922 2.8464599 2.3418073e-38
-0.99719524 -0.51188546 2.8478768 2.3418064e-38
-0.99797273 -0.50714165 2.8492942 2.3418068e-38
-0.99916589 -0.50273293 2.8503532 2.0479332e-38
-0.99730408 -0.48897344 2.8567219 2.3418075e-38
-0.99808794 -0.4841899 2.858151 2.3418085e-38
-0.99887186 -0.47940636 2.8595798 2.3418063e-38
-0.99965584 -0.47462291 2.8610089 2.3418054e-38
-1.0024904 -0.47140762 2.8607037 2.0295646e-38
-1.0012237 -0.46505591 2.863867 2.3418064e-38
-1.0033388 -0.46201748 2.8638871 2.0203822e-38
-1.0027914 -0.45548883 2.866725 2.3418064e-38
-1.0035753 -0.45070526 2.868154 2.3418077e-38
-1.0043592 -0.44592172 2.8695829 2.3418092e-38
-1.0051432 -0.44113827 2.871012 2.3424583e-38
-1.005927 -0.43635461 2.8724408 2.0402236e-38
-1.0074948 -0.42678753 2.875299 1.8770038e-38
-1.0090628 -0.41722056 2.8781571 1.819419e-38
-1.0098466 -0.41243705 2.879586 2.1675335e-38
-1.0106305 -0.40765345 2.8810151 2.2132373e-38
-1.0114144 -0.40287003 2.8824441 2.2591542e-38
-1.0092015 -0.393197 2.8874173 2.2499706e-38
-1.0099924 -0.38837209 2.8888588 2.2407875e-38
-1.010783 -0.38354704 2.8903 2.2958896e-38
-1.0108136 -0.37811023 2.8923962 1.9744648e-38
-1.0123644 -0.37389708 2.893183 2.2499712e-38
-1.0131551 -0.36907208 2.8946245 2.3423442e-38
-1.0139458 -0.36424705 2.8960657 2.3441441e-38
-1.0176858 -0.36460182 2.8938763 2.0144618e-38
-1.0184696 -0.35981822 2.8953052 2.1625857e-38
-1.0200373 -0.35025111 2.8981631 1.9225546e-38
-1.0191289 -0.34315085 2.9014211 1.545312e-38
-1.0216053 -0.34068412 2.9010212 1.8017694e-38
-1.0223892 -0.33590066 2.9024503 2.0420579e-38
-0.96738142 -0.77659047 2.7613585 2.3475615e-38
-0.96812767 -0.77203763 2.7627187 2.3467681e-38
-0.96656889 -0.76670289 2.7656467 2.2443467e-38
-0.96636617 -0.76126379 2.7678719 2.3466262e-38
-0.96787095 -0.75208175 2.7706149 2.3475265e-38
-0.96858382 -0.74700242 2.7721975 2.3492211e-38
-0.96628755 -0.74115813 2.7757289 2.3509886e-38
-0.9662233 -0.73623967 2.7776754 2.3509881e-38
-0.96780431 -0.73190308 2.7784939 2.3509886e-38
-0.96856248 -0.72727537 2.779876 2.3509886e-38
-0.96932107 -0.72264796 2.7812588 2.3509886e-38
-0.97007918 -0.71802032 2.7826409 2.3509886e-38
-0.97083747 -0.71339273 2.7840233 2.3509886e-38
-0.97159594 -0.70876521 2.7854059 2.3509886e-38
-0.97235435 -0.70413768 2.7867882 2.3509886e-38
-0.97311258 -0.6995101 2.7881706 2.3509886e-38
-0.97387111 -0.69488257 2.7895532 2.3509886e-38
-0.97462934 -0.69025499 2.7909355 2.3509886e-38
-0.97538769 -0.68562746 2.7923179 2.3509886e-38
-0.9761461 -0.68099993 2.7937005 2.3509886e-38
-0.97690445 -0.67637235 2.7950828 2.3509886e-38
-0.97747838 -0.67148632 2.7966669 2.2766909e-38
-0.97842109 -0.66711718 2.7978477 2.3509859e-38
-0.97516179 -0.66001475 2.8023958 2.2030781e-38
-0.97682172 -0.6553545 2.8032963 2.3509886e-38
-0.97758639 -0.65068883 2.8046901 2.3509886e-38
-0.97835094 -0.64602304 2.8060839 2.3509886e-38
-0.97911549 -0.6413573 2.8074777 2.3509886e-38
-0.97988015 -0.63669157 2.8088717 2.3509886e-38
-0.9806447 -0.63202584 2.8102653 2.3509886e-38
-0.98140937 -0.62736017 2.8116593 2.3509886e-38
-0.98217392 -0.62269443 2.8130531 2.3509886e-38
-0.98293859 -0.61802876 2.8144469 2.3509886e-38
-0.9837032 -0.61336291 2.8158407 2.3509886e-38
-0.98446786 -0.6086973 2.8172348 2.350548e-38
-0.98466933 -0.60311031 2.8192952 2.1198133e-38
-0.98286766 -0.59508032 2.8234046 2.3045308e-38
-0.98372698 -0.59169644 2.8242483 2.3509886e-38
-0.98449767 -0.5869925 2.8256533 2.3509886e-38
-0.98526853 -0.5822885 2.8270586 2.3509886e-38
-0.98603952 -0.57758474 2.8284638 2.3509886e-38
-0.98681039 -0.57288086 2.829869 2.3509886e-38
-0.98758113 -0.56817693 2.831274 2.3509886e-38
-0.98835206 -0.56347311 2.8326795 2.3509886e-38
-0.98912293 -0.55876923 2.8340847 2.3509886e-38
-0.98989367 -0.55406523 2.8354897 2.3509886e-38
-0.99066454 -0.54936141 2.836895 2.3509886e-38
-0.99143547 -0.54465759 2.8383005 2.3505544e-38
-0.98911136 -0.5363813 2.8427918 1.9652796e-38
-0.98988861 -0.53163761 2.8442087 2.3234381e-38
-0.99066609 -0.52689403 2.8456259 2.3422384e-38
-0.99175572 -0.52244306 2.8467581 2.0387857e-38
-0.99222082 -0.51740652 2.8484602 2.3418073e-38
-0.99260437 -0.51310557 2.8499212 2.0387491e-38
-0.99377555 -0.50791901 2.8512943 2.341807e-38
-0.99150389 -0.49932441 2.855881 2.341807e-38
-0.99228776 -0.49454084 2.8573098 2.3418068e-38
-0.99307162 -0.4897573 2.8587389 2.3418077e-38
-0.99385566 -0.48497388 2.860168 2.3418085e-38
-0.99587905 -0.48183098 2.8602793 2.038749e-38
-0.9954235 -0.47540689 2.8630261 2.3418052e-38
-0.99673319 -0.47243974 2.8634608 2.0203813e-38
-0.99699128 -0.46583977 2.8658841 2.3418064e-38
-0.99777502 -0.46105614 2.8673129 2.3418064e-38
-0.998559 -0.45627269 2.868742 2.3418064e-38
-0.99934292 -0.45148912 2.8701711 2.3418068e-38
-1.0001268 -0.4467057 2.8716002 2.3418085e-38
-1.001121 -0.4425056 2.8726873 2.0204923e-38
-1.0016947 -0.43713859 2.8744581 2.1600779e-38
-1.0024786 -0.43235505 2.8758872 1.8489155e-38
-1.0032625 -0.42757151 2.8773162 1.8493093e-38
-1.0040464 -0.42278796 2.8787451 1.7853124e-38
-1.0048304 -0.41800454 2.8801744 1.9392731e-38
-1.0056143 -0.413221 2.8816032 2.1859726e-38
-1.0063983 -0.40843752 2.8830323 2.2316048e-38
-1.007182 -0.40365389 2.8844612 2.2775214e-38
-1.0049325 -0.39398783 2.889452 2.268338e-38
-1.0057231 -0.38916272 2.8908932 2.2683386e-38
-1.0065138 -0.38433775 2.8923347 2.2958896e-38
-1.0073044 -0.3795127 2.8937759 2.3050736e-38
-1.0080951 -0.37468773 2.8952174 2.2958896e-38
-1.0087409 -0.36913386 2.897022 1.9930096e-38
-1.0096767 -0.36503777 2.8981004 2.0483979e-38
-1.0095861 -0.35961506 2.9002573 1.6550487e-38
-1.0112581 -0.35538772 2.9009833 2.2179029e-38
-1.0120488 -0.35056272 2.9024246 2.2916261e-38
-1.0128394 -0.34573761 2.9038658 1.9133352e-38
-1.0136303 -0.34091273 2.9053075 1.6556936e-38
-1.0144209 -0.33608767 2.9067488 1.7740752e-38
-1.0170493 -0.33372858 2.9062235 1.8301191e-38
-0.96335328 -0.77733666 2.7632785 2.346987e-38
-0.96409929 -0.7727837 2.7646384 2.3463365e-38
-0.96155179 -0.76660728 2.7684362 2.3465888e-38
-0.96173936 -0.7602722 2.7707953 2.2073234e-38
-0.9630565 -0.75742507 2.7711792 2.346408e-38
-0.96380889 -0.75283408 2.7725508 2.347416e-38
-0.96091962 -0.74680412 2.7764795 2.3488966e-38
-0.96219313 -0.74191648 2.7776804 2.3509886e-38
-0.96295154 -0.73728895 2.7790627 2.3509886e-38
-0.96370977 -0.73266137 2.7804451 2.3509886e-38
-0.96420318 -0.7276572 2.7821188 2.3509876e-38
-0.96522653 -0.72340626 2.78321 2.3509886e-38
-0.96505636 -0.71854162 2.7851937 2.3509154e-38
-0.96674317 -0.71415114 2.7859747 2.3509886e-38
-0.96750164 -0.70952362 2.7873573 2.3509886e-38
-0.96825981 -0.70489597 2.7887394 2.3509886e-38
-0.96901816 -0.70026845 2.7901218 2.3509886e-38
-0.96977651 -0.69564086 2.7915044 2.3509877e-38
-0.97053492 -0.69101334 2.7928867 2.3509886e-38
-0.97129315 -0.68638575 2.7942691 2.3509886e-38
-0.97110516 -0.68160766 2.7962296 2.3508442e-38
-0.97280991 -0.67713064 2.797034 2.3509886e-38
-0.97356826 -0.67250305 2.7984164 2.3509886e-38
-0.97116423 -0.66545045 2.8024759 2.3509865e-38
-0.97192883 -0.66078466 2.8038697 2.3509872e-38
-0.97269374 -0.65611923 2.805264 2.3509886e-38
-0.97345805 -0.65145326 2.8066573 2.3509886e-38
-0.97422284 -0.6467877 2.8080516 2.3509886e-38
-0.97498739 -0.64212197 2.8094451 2.3509886e-38
-0.97575194 -0.63745618 2.8108389 2.3139305e-38
-0.97651649 -0.63279039 2.8122327 2.3509886e-38
-0.97728139 -0.62812489 2.813627 2.3509886e-38
-0.97804588 -0.6234591 2.8150206 2.3509886e-38
-0.97881043 -0.61879331 2.8164144 2.3509886e-38
-0.9795751 -0.61412758 2.8178084 2.3509886e-38
-0.98033953 -0.60946178 2.8192017 2.3505127e-38
-0.9811042 -0.60479617 2.8205957 2.350553e-38
-0.97643906 -0.59802032 2.825788 2.1476915e-38
-0.97956502 -0.59246731 2.8262317 2.3509886e-38
-0.98033577 -0.58776337 2.8276367 2.3509886e-38
-0.98110676 -0.58305943 2.8290422 2.3509886e-38
-0.98187762 -0.57835561 2.8304474 2.3509886e-38
-0.98264831 -0.57365167 2.8318524 2.3509886e-38
-0.98341918 -0.56894779 2.8332577 2.3509886e-38
-0.98419005 -0.56424397 2.8346629 2.3509886e-38
-0.98496091 -0.55954003 2.8360682 2.3509886e-38
-0.98573184 -0.55483621 2.8374734 2.3509886e-38
-0.98650271 -0.55013233 2.8388786 2.3509886e-38
-0.98727357 -0.54542845 2.8402839 2.3498345e-38
-0.98804444 -0.54072458 2.8416891 2.0020138e-38
-0.98736686 -0.53531468 2.8441634 2.0020863e-38
-0.98646897 -0.5276714 2.8476262 2.3422715e-38
-0.98724633 -0.52292758 2.8490431 2.341878e-38
-0.98802382 -0.51818395 2.8504605 2.3418067e-38
-0.9888013 -0.51344037 2.8518777 2.341807e-38
-0.98787993 -0.50495362 2.8556812 2.0479681e-38
-0.98727143 -0.5001083 2.857898 2.3418064e-38
-0.98927987 -0.49225312 2.8598492 2.0387493e-38
-0.98962319 -0.48575774 2.862185 2.3418064e-38
-0.99040693 -0.48097411 2.8636138 2.3418066e-38
-0.99119091 -0.47619066 2.8650429 2.3418064e-38
-0.99197483 -0.47140712 2.866472 2.3418067e-38
-0.99275881 -0.46662363 2.8679011 2.3418067e-38
-0.99466783 -0.46358448 2.8680348 2.0203822e-38
-0.99432659 -0.45705655 2.870759 2.341807e-38
-0.99511057 -0.45227307 2.8721881 2.3418087e-38
-0.99589431 -0.44748947 2.8736169 2.3418087e-38
-0.99667829 -0.44270602 2.875046 2.3418824e-38
-0.99746233 -0.43792254 2.8764753 2.3431751e-38
-0.99824619 -0.43313891 2.8779042 2.215579e-38
-0.99903017 -0.42835546 2.8793333 1.8671791e-38
-1.000598 -0.4187884 2.8821912 1.6737769e-38
-1.0013818 -0.41400477 2.88362 1.9208718e-38
-1.0021657 -0.40922129 2.8850491 2.0575124e-38
-1.0029496 -0.40443775 2.8864782 2.2591554e-38
-1.0006634 -0.39477837 2.8914862 2.2867054e-38
-1.0014541 -0.38995337 2.8929276 2.2775223e-38
-1.0022448 -0.38512841 2.8943691 2.3142563e-38
-1.0030357 -0.38030353 2.8958108 2.3418073e-38
-1.0038263 -0.37547845 2.8972521 2.3418075e-38
-1.0046171 -0.37065354 2.8986936 2.3418052e-38
-1.0054077 -0.36582842 2.9001348 1.9928303e-38
-1.0061984 -0.36100343 2.9015763 1.9932979e-38
-1.006989 -0.35617825 2.9030175 2.3472335e-38
-1.0075123 -0.35063863 2.9048836 2.0068332e-38
-1.0085706 -0.34652835 2.9059005 2.0508779e-38
-1.0104095 -0.34476972 2.905575 1.636969e-38
-1.0131404 -0.34225193 2.9050553 1.9394868e-38
-1.0109426 -0.33205336 2.9102247 2.1707721e-38
-0.95598489 -0.77654171 2.7676291 2.3464828e-38
-0.9567374 -0.77195078 2.769001 2.3460844e-38
-0.9559682 -0.76708281 2.7713146 2.2164001e-38
-0.958242 -0.76276857 2.7717438 2.3460466e-38
-0.95682371 -0.75803822 2.7743602 2.1703021e-38
-0.95974666 -0.75358647 2.7744868 2.3472359e-38
-0.9573403 -0.74730229 2.778249 2.3490778e-38
-0.95809877 -0.74267483 2.7796316 2.3509886e-38
-0.95784158 -0.73777825 2.7816756 2.3509514e-38
-0.95961541 -0.73341972 2.7823963 2.3509886e-38
-0.95869982 -0.72866148 2.7847478 2.350879e-38
-0.96113217 -0.72416461 2.7851613 2.3509886e-38
-0.9618904 -0.71953702 2.7865436 2.3509886e-38
-0.96264893 -0.71490955 2.7879262 2.3509886e-38
-0.96303558 -0.70995939 2.789638 2.3508794e-38
-0.96416551 -0.70565438 2.7906909 2.3509886e-38
-0.96388972 -0.70084327 2.7927117 2.2858034e-38
-0.96568215 -0.69639921 2.7934556 2.3509867e-38
-0.96644044 -0.69177163 2.794838 2.3509886e-38
-0.96397781 -0.68487805 2.7988684 2.3509886e-38
-0.96474242 -0.68021232 2.800262 2.3509886e-38
-0.96550709 -0.67554665 2.801656 2.3509886e-38
-0.96684289 -0.67135578 2.802552 2.2212678e-38
-0.96703631 -0.66621518 2.8044436 2.3509865e-38
-0.96770215 -0.6621874 2.8056438 2.2212664e-38
-0.96856529 -0.65688366 2.8072309 2.3509886e-38
-0.96932995 -0.65221798 2.808625 2.3509886e-38
-0.97009462 -0.64755225 2.8100188 2.3509886e-38
-0.97085917 -0.64288652 2.8114126 2.3509886e-38
-0.97162372 -0.63822073 2.8128064 2.304711e-38
-0.97195333 -0.6335181 2.8144534 2.2400286e-38
-0.97000688 -0.62616527 2.8183784 2.3509886e-38
-0.97061163 -0.62239844 2.8195109 2.3229696e-38
-0.97468233 -0.61955798 2.8183818 2.3509886e-38
-0.97262943 -0.61437047 2.8215239 2.2399575e-38
-0.97076118 -0.60640931 2.8256431 2.2490264e-38
-0.9738614 -0.60264599 2.8254049 2.350553e-38
-0.97463214 -0.59794205 2.8268099 2.3509886e-38
-0.97540301 -0.59323812 2.8282151 2.3509886e-38
-0.976174 -0.5885343 2.8296206 2.3509886e-38
-0.97694468 -0.5838303 2.8310256 2.3509886e-38
-0.97771555 -0.57912642 2.8324308 2.3509886e-38
-0.9784863 -0.57442248 2.8338358 2.3509886e-38
-0.97587627 -0.56797475 2.8377738 2.2399578e-38
-0.98002815 -0.56501484 2.8366466 2.3509886e-38
-0.98079908 -0.56031096 2.8380518 2.3509886e-38
-0.98156983 -0.55560702 2.8394568 2.3509886e-38
-0.98234081 -0.5509032 2.8408623 2.3509886e-38
-0.98311156 -0.54619926 2.8422673 2.3494742e-38
-0.98388249 -0.5414955 2.8436728 2.0020138e-38
-0.98465323 -0.53679156 2.8450778 2.3418052e-38
-0.98227185 -0.52844876 2.8496265 2.3420921e-38
-0.98314577 -0.52401465 2.8508704 2.0295646e-38
-0.9838267 -0.51896137 2.8524609 2.3418071e-38
-0.98182791 -0.51206803 2.8562362 2.0387496e-38
-0.98303902 -0.50089216 2.859915 2.3420228e-38
-0.983823 -0.49610868 2.8613441 2.3418779e-38
-0.98460674 -0.49132505 2.8627729 2.3418071e-38
-0.98539084 -0.48654169 2.8642023 2.3418068e-38
-0.98721015 -0.48339871 2.8644252 2.0111983e-38
-0.98695862 -0.47697461 2.8670602 2.3418064e-38
-0.9880712 -0.47400582 2.8676038 2.0203822e-38
-0.98852634 -0.46740752 2.8699181 2.3418068e-38
-0.98931038 -0.46262407 2.8713472 2.3418068e-38
-0.98848712 -0.4438192 2.8791068 2.3418092e-38
-0.99006867 -0.43416929 2.88199 2.3061888e-38
-0.99085927 -0.42934412 2.8834312 2.2524571e-38
-0.99479771 -0.42913932 2.8813503 1.9132767e-38
-0.99323142 -0.41486919 2.8877554 1.6829964e-38
-0.99714935 -0.41478875 2.8856373 1.9577141e-38
-0.99793339 -0.41000527 2.8870664 2.1128298e-38
-0.99560368 -0.40039426 2.8920798 2.2867064e-38
-0.99639428 -0.39556918 2.8935211 2.2867054e-38
-0.99718505 -0.39074418 2.8949625 2.3050735e-38
-0.99797565 -0.38591912 2.8964038 2.3418075e-38
-0.99876636 -0.38109416 2.8978453 2.3418073e-38
-0.9995572 -0.37626928 2.8992867 2.3418074e-38
-0.99995852 -0.37074691 2.9012125 2.0111978e-38
-1.0011384 -0.36661914 2.9021695 2.0020138e-38
-1.0008107 -0.36122701 2.9044449 1.5706035e-38
-1.00272 -0.35696918 2.9050524 2.3472695e-38
-1.0035107 -0.35214415 2.9064939 2.3480296e-38
-1.0043013 -0.34731907 2.9079351 2.0600975e-38
-1.0081241 -0.34781936 2.9056435 1.8485481e-38
-1.0089082 -0.34303591 2.9070725 1.8473284e-38
-0.95192277 -0.77729404 2.7695649 2.3460885e-38
-0.95267528 -0.77270299 2.7709367 2.3452224e-38
-0.95342755 -0.76811194 2.7723081 2.3451877e-38
-0.95418 -0.7635209 2.7736797 2.3448646e-38
-0.95493239 -0.75892985 2.7750514 2.3453649e-38
-0.95568466 -0.7543388 2.7764225 2.3469862e-38
-0.95255786 -0.74833292 2.780472 2.3485371e-38
-0.95400429 -0.74343312 2.7815828 2.3509886e-38
-0.95342326 -0.73923653 2.7835326 2.3506996e-38
-0.95552105 -0.73417807 2.7843478 2.3509886e-38
-0.9562794 -0.72955048 2.7857301 2.3509886e-38
-0.95703763 -0.7249229 2.7871125 2.3509886e-38
-0.95779616 -0.72029543 2.7884951 2.3509886e-38
-0.95526206 -0.71363693 2.7924728 2.3509886e-38
-0.95602661 -0.7089712 2.7938666 2.3509886e-38
-0.96007115 -0.70641273 2.7926424 2.3509886e-38
-0.9608295 -0.70178521 2.7940247 2.3509886e-38
