# .PCD v0.7 - Point Cloud Data file format
VERSION 0.7
FIELDS x y z rgb
SIZE 4 4 4 4
TYPE F F F F
COUNT 1 1 1 1
WIDTH 546
HEIGHT 1
VIEWPOINT 0 0 0 1 0 0 0
POINTS 546
DATA ascii
-1.388438 -0.19780897 2.5564682 1.2605139e-38
-1.3077369 -0.24006139 2.5854905 2.347083e-38
-1.2927765 -0.23737304 2.5735664 2.1649314e-38
-1.2853113 -0.23162693 2.5603721 2.1558938e-38
-1.2796711 -0.2343922 2.5620916 1.8796676e-38
-1.2511431 -0.2927402 2.6437502 1.6410004e-38
-1.2296854 -0.27675781 2.6067033 1.5951563e-38
-1.2306883 -0.27523607 2.6047034 1.6229578e-38
-1.227186 -0.27471718 2.6020937 1.7317562e-38
-1.2281889 -0.27319545 2.6000938 1.750299e-38
-1.2291919 -0.27167353 2.5980937 1.8424243e-38
-1.2301948 -0.27015179 2.5960939 1.7876827e-38
-1.2311977 -0.26863 2.594094 1.8154135e-38
-1.2322007 -0.26710814 2.5920939 1.7054279e-38
-1.2332036 -0.2655865 2.5900941 1.7237594e-38
-1.2386441 -0.27508682 2.6084478 1.6131962e-38
-1.2286984 -0.26658934 2.5894842 1.6592224e-38
-1.4129926 -0.17315589 2.5282352 1.3528221e-38
-1.4191115 -0.19020323 2.5593417 1.1407692e-38
-1.2804784 -0.24905363 2.5866101 1.2089124e-38
-1.2804627 -0.24670522 2.5827398 1.0614329e-38
-1.2733823 -0.25409606 2.5913451 1.3468802e-38
-1.2733667 -0.2517477 2.5874748 1.3927982e-38
-1.2663019 -0.26148701 2.5999501 1.2267372e-38
-1.23712 -0.28327718 2.6211543 1.8973098e-38
-1.235612 -0.27968732 2.6144936 1.8239852e-38
-1.3337269 -0.24387634 2.6047988 1.3442421e-38
-1.2709357 -0.26943928 2.6153531 1.1057635e-38
-1.40763 -0.21008943 2.5862908 6.5335933e-39
-1.402162 -0.21259581 2.5876708 8.1008952e-39
-1.4031576 -0.21108502 2.5856855 7.1789543e-39
-1.3923753 -0.20332998 2.5675235 7.5480886e-39
-1.4051489 -0.20806375 2.5817149 6.2544995e-39
-1.4061445 -0.20655313 2.5797296 6.0701111e-39
-1.3835403 -0.19262038 2.5454786 6.0701111e-39
-1.3976897 -0.21359135 2.5870655 8.9266972e-39
-1.3986853 -0.21208067 2.5850801 1.0393913e-38
-1.387936 -0.20431836 2.5669227 1.1768217e-38
-1.3889242 -0.20281872 2.5649519 1.2778766e-38
-1.4016721 -0.20754872 2.5791242 1.1955475e-38
-1.3909009 -0.19981974 2.5610106 1.2140222e-38
-1.3796902 -0.18728796 2.5347774 1.601315e-38
-1.3834966 -0.20530652 2.5663216 1.3888684e-38
-1.3844849 -0.20380712 2.5643511 1.4438621e-38
-1.3854731 -0.20230746 2.5623803 1.4352166e-38
-1.3864615 -0.20080794 2.5604095 1.4076301e-38
-1.3874497 -0.1993085 2.558439 1.2791321e-38
-1.3907362 -0.21256121 2.5818841 2.2467547e-38
-1.3800454 -0.20479527 2.56375 2.2739432e-38
-1.3810337 -0.20329572 2.5617795 2.2922394e-38
-1.3820219 -0.2017962 2.5598087 2.0983752e-38
-1.3830103 -0.2002968 2.5578382 2.0061436e-38
-1.3722829 -0.19258644 2.5397773 1.8678525e-38
-1.3862638 -0.21355687 2.5812788 2.3487101e-38
-1.3765943 -0.20428403 2.5611784 2.348169e-38
-1.3775826 -0.20278451 2.5592079 2.3473036e-38
-1.3668953 -0.19505575 2.5411367 2.1352175e-38
-1.3678763 -0.19356745 2.5391808 2.1260003e-38
-1.3688573 -0.19207907 2.5372248 2.0342711e-38
-1.3817915 -0.21455245 2.5806735 2.3491042e-38
-1.3827871 -0.21304187 2.5786881 2.3490682e-38
-1.372155 -0.20527233 2.5605776 2.3490326e-38
-1.3731432 -0.2037728 2.5586069 2.3489612e-38
-1.3624889 -0.1960368 2.5405405 2.3490328e-38
-1.3634698 -0.19454826 2.5385842 2.3479472e-38
-1.3667272 -0.20776008 2.5619473 2.3490321e-38
-1.3561207 -0.19999447 2.5438561 2.3490326e-38
-1.3571016 -0.19850613 2.5419002 2.3491412e-38
-1.3580825 -0.19701762 2.5399439 2.3491409e-38
-1.3590635 -0.19552921 2.5379879 2.3482714e-38
-1.3718512 -0.21805435 2.5814481 2.3491047e-38
-1.3612996 -0.21024798 2.5633173 2.3494648e-38
-1.3622879 -0.20874844 2.5613465 2.3491751e-38
-1.3517141 -0.20097539 2.5432596 2.3492102e-38
-1.352695 -0.19948699 2.5413036 2.3494258e-38
-1.353676 -0.19799869 2.5393476 2.3490307e-38
-1.3556379 -0.19502184 2.5354354 2.3485276e-38
-1.3673788 -0.21904993 2.5808427 2.3492488e-38
-1.3568602 -0.21123624 2.5627165 2.3494288e-38
-1.3473077 -0.20195635 2.5426631 2.349138e-38
-1.3629065 -0.2200456 2.5802374 2.3496789e-38
-1.3639021 -0.21853499 2.5782521 2.3496804e-38
-1.3534091 -0.21072504 2.5601449 2.3493558e-38
-1.3438822 -0.20144896 2.5401108 2.3490675e-38
-1.3594298 -0.21953058 2.5776467 2.3496086e-38
-1.3489696 -0.21171324 2.5595438 2.3492839e-38
-1.3491381 -0.21742898 2.5690291 2.2193104e-38
-1.3445302 -0.21270148 2.558943 2.3491377e-38
-1.3504851 -0.22152178 2.576436 2.3492844e-38
-1.3514807 -0.22001109 2.5744507 2.3491377e-38
-1.3410791 -0.2121903 2.5563715 2.3491391e-38
-1.3450171 -0.22402811 2.577816 2.3486359e-38
-1.3469803 -0.22433729 2.5793092 2.2189149e-38
-1.3470083 -0.22100663 2.5738454 2.3485638e-38
-1.3366398 -0.21317855 2.5557706 2.3484561e-38
-1.3375579 -0.22955573 2.5831666 2.2454566e-38
-1.3385534 -0.228045 2.5811813 2.3475206e-38
-1.3395202 -0.21872906 2.566344 2.2187342e-38
-1.3175166 -0.21386044 2.547302 2.1720994e-38
-1.3269162 -0.23528443 2.5872521 2.0067216e-38
-1.3181831 -0.23000169 2.5741839 2.3478792e-38
-1.312773 -0.23623058 2.5817156 2.2386892e-38
-1.3137106 -0.23099734 2.5735786 2.3478792e-38
-1.2996346 -0.22404389 2.555083 2.1832977e-38
-1.298589 -0.23606898 2.5743365 2.1006484e-38
-1.3027748 -0.23600993 2.5763385 2.3480224e-38
-1.2850158 -0.22676978 2.5522354 2.1284157e-38
-1.2855582 -0.22490101 2.5494337 2.119123e-38
-1.2758123 -0.23275936 2.5574708 1.815924e-38
-1.2302214 -0.25345045 2.5686383 1.7245185e-38
-1.2297014 -0.26506761 2.5874844 1.7232199e-38
-1.225196 -0.26607054 2.5868745 1.6765107e-38
-1.3924923 -0.17354478 2.518594 1.3894142e-38
-1.4118522 -0.19778077 2.5681641 2.0444283e-38
-1.3985952 -0.18818468 2.545733 2.0809104e-38
-1.3281369 -0.22403403 2.5693605 2.0705749e-38
-1.3210144 -0.2338528 2.5819378 1.5285997e-38
-1.2804471 -0.24435684 2.5788696 1.0242622e-38
-1.2733511 -0.24939938 2.5836046 1.4387538e-38
-1.3950621 -0.21628204 2.5901732 2.2650476e-38
-1.3862991 -0.22056518 2.5928233 2.1915455e-38
-1.3698752 -0.22736999 2.5957787 2.349535e-38
-1.3653698 -0.22837299 2.5951688 2.349463e-38
-1.3578556 -0.23394139 2.600559 1.7290902e-38
-1.3588586 -0.23241954 2.5985589 2.3479882e-38
-1.3598615 -0.23089778 2.596559 2.3485294e-38
-1.3608644 -0.22937608 2.5945592 2.3493548e-38
-1.3533504 -0.23494428 2.5999491 1.8950774e-38
-1.3543533 -0.23342252 2.5979493 2.3477367e-38
-1.3553562 -0.23190068 2.5959492 2.3483128e-38
-1.3538598 -0.22833832 2.5893397 2.3483838e-38
-1.3497348 -0.2384057 2.6038289 2.1812461e-38
-1.3353292 -0.23895609 2.5975099 2.3471975e-38
-1.3363321 -0.23743433 2.59551 2.3468383e-38
-1.3308238 -0.23995903 2.5969 2.3472336e-38
-1.333874 -0.23705453 2.5936527 2.0710055e-38
-1.3263186 -0.24096201 2.5962903 2.3476989e-38
-1.3273215 -0.23944016 2.5942903 2.3472669e-38
-1.3228161 -0.24044324 2.5936806 2.3474829e-38
-1.3238192 -0.23892134 2.5916805 2.347518e-38
-1.3173079 -0.24296789 2.5950706 2.3476636e-38
-1.318311 -0.24144612 2.5930707 2.3478785e-38
-1.3193139 -0.23992439 2.5910709 2.3480238e-38
-1.2376335 -0.27662021 2.6104631 1.6955594e-38
-1.2341042 -0.27609742 2.6078331 1.6767259e-38
-1.3754601 -0.2212223 2.5884683 2.0706452e-38
-1.4014121 -0.22034942 2.6000473 2.0998479e-38
-1.3858904 -0.22640194 2.6022179 1.7674777e-38
-1.3778828 -0.22688593 2.5989983 2.135247e-38
-1.2709515 -0.27180681 2.6192551 1.106121e-38
-1.2450465 -0.29014024 2.6364172 1.8423908e-38
-1.2460653 -0.28859442 2.6343856 1.7595186e-38
-1.2425076 -0.28806746 2.6317346 2.3492479e-38
-1.270983 -0.27654201 2.6270587 1.1247434e-38
-1.2709672 -0.27417448 2.623157 1.032689e-38
-1.2481028 -0.28550276 2.6303225 1.7047426e-38
-1.2435263 -0.28652155 2.629703 2.3488903e-38
-1.393898 -0.22591773 2.6054373 1.7215308e-38
-1.3883898 -0.22844249 2.6068275 1.7588409e-38
-1.3995649 -0.23664613 2.6259243 1.6945577e-38
-1.395025 -0.23765686 2.6253099 1.7590947e-38
-1.3960357 -0.23612334 2.6232946 1.7864996e-38
-1.3894742 -0.24020107 2.6267109 1.5845331e-38
-1.3904849 -0.23866758 2.6246955 1.7133198e-38
-1.3914956 -0.23713405 2.6226802 1.7500552e-38
-1.3869556 -0.23814474 2.6220655 1.5564443e-38
-1.373054 -0.15813808 2.4835064 1.6016741e-38
-1.3430887 -0.14950049 2.4542727 1.7123112e-38
-1.3266357 -0.14607798 2.4403927 1.4538006e-38
-1.3285134 -0.14322887 2.4366484 1.8317673e-38
-1.3294523 -0.14180437 2.4347763 1.9882103e-38
-1.3224182 -0.1470169 2.439822 1.5736548e-38
-1.3182008 -0.14795586 2.4392512 1.8133654e-38
-1.2534564 -0.17975968 2.4590905 2.3467289e-38
-1.3617562 -0.14377311 2.4542143 1.5091215e-38
-1.2960154 -0.1578858 2.4444573 1.9410346e-38
-1.2960001 -0.15561172 2.4407094 1.931671e-38
-1.2891288 -0.1604946 2.4452944 1.9500007e-38
-1.3338109 -0.16130953 2.4690425 1.9512229e-38
-1.3506402 -0.14904393 2.4573088 1.0861341e-38
-1.351586 -0.14760892 2.4554229 1.6021087e-38
-1.3463916 -0.14998975 2.4567337 1.2789895e-38
-1.3473375 -0.14855462 2.4548478 1.6938721e-38
-1.3308531 -0.14513916 2.4409635 1.3804407e-38
-1.3355373 -0.14995691 2.4512365 1.8317673e-38
-1.3364831 -0.1485219 2.4493506 2.0251245e-38
-1.3311474 -0.14100537 2.4343121 2.0154751e-38
-1.3191397 -0.14653116 2.4373789 1.9238204e-38
-1.2935163 -0.16420971 2.4536049 2.3487797e-38
-1.2944621 -0.16277459 2.451719 2.347987e-38
-1.2859647 -0.16466631 2.4505689 2.3482389e-38
-1.2900547 -0.17407848 2.4681003 2.348743e-38
-1.2838718 -0.17792091 2.4713194 2.3481663e-38
-1.2848241 -0.17647588 2.4694202 2.34806e-38
-1.2805461 -0.17742831 2.4688413 2.348132e-38
-1.2814984 -0.17598313 2.4669421 2.3475918e-38
-1.2743632 -0.18127084 2.4720604 2.347701e-38
-1.2753155 -0.17982571 2.4701612 2.3475571e-38
-1.2762679 -0.17838062 2.4682622 2.3475932e-38
-1.2772204 -0.17693555 2.466363 2.3473064e-38
-1.2710375 -0.18077807 2.4695821 2.3475932e-38
-1.2719898 -0.17933296 2.4676831 2.3475932e-38
-1.2729422 -0.17788792 2.4657841 2.3471985e-38
-1.2667594 -0.18173036 2.4690032 2.3475205e-38
-1.2677118 -0.18028542 2.4671042 2.347413e-38
-1.2686641 -0.17884029 2.465205 2.3473044e-38
-1.2696166 -0.17739537 2.4633057 2.3472691e-38
-1.2653383 -0.17834765 2.4627268 2.3473051e-38
-1.2610601 -0.17930008 2.4621477 2.3469101e-38
-1.2620126 -0.1778549 2.4602487 2.3467652e-38
-1.2577345 -0.17880726 2.4596696 2.3468012e-38
-1.3617407 -0.14146225 2.4504061 1.67482e-38
-1.3268437 -0.1685822 2.4775097 1.9784503e-38
-1.3004645 -0.16917671 2.4652588 1.9685123e-38
-1.2638676 -0.11468972 2.3572905 2.2551098e-38
-1.2664324 -0.11170981 2.3536756 2.1533361e-38
-1.2560538 -0.12147165 2.364526 2.1435754e-38
-1.258042 -0.13185349 2.3825984 2.347126e-38
-1.2261934 -0.12855887 2.361208 2.1615826e-38
-1.2255782 -0.13475074 2.3710833 2.1617994e-38
-1.2074172 -0.15452459 2.3944979 2.3462611e-38
-1.178308 -0.16100481 2.390558 2.349684e-38
-1.1792338 -0.15960015 2.3887119 2.3496454e-38
-1.2771151 -0.10686345 2.3510621 1.950506e-38
-1.2894592 -0.092325777 2.3333421 2.3473085e-38
-1.2647744 -0.11331386 2.3554823 2.3102848e-38
-1.2656813 -0.11193784 2.3536739 2.3380152e-38
-1.2597941 -0.11559666 2.3567393 2.291952e-38
-1.2607009 -0.1142206 2.3549309 2.3102848e-38
-1.2616078 -0.11284477 2.3531227 2.3287956e-38
-1.2665117 -0.12025745 2.3677738 2.3286144e-38
-1.2674247 -0.11887211 2.3659532 2.3470899e-38
-1.2633235 -0.11978515 2.3653979 2.3284347e-38
-1.2583092 -0.12208344 2.3666635 2.3277857e-38
-1.2592223 -0.12069815 2.3648429 2.3185995e-38
-1.2601352 -0.11931285 2.3630223 2.3460119e-38
-1.2532949 -0.12438182 2.367929 2.3467269e-38
-1.254208 -0.12299649 2.3661084 2.3462967e-38
-1.2491939 -0.12529482 2.3673739 2.3471623e-38
-1.2450926 -0.12620775 2.3668187 2.3470901e-38
-1.2497839 -0.13369194 2.3814807 2.3472313e-38
-1.2409912 -0.12712075 2.3662636 2.3471972e-38
-1.2456549 -0.1346111 2.3809218 2.3474113e-38
-1.23689 -0.12803389 2.3657086 2.3473413e-38
-1.237803 -0.12664852 2.363888 2.3472691e-38
-1.238716 -0.12526323 2.3620675 2.3471987e-38
-1.2406069 -0.13692488 2.3821957 2.3470181e-38
-1.2318758 -0.13033207 2.3669739 2.346982e-38
-1.2327888 -0.12894669 2.3651533 2.3469804e-38
-1.2337018 -0.12756136 2.3633327 2.347089e-38
-1.2346147 -0.12617612 2.3615122 2.3470543e-38
-1.2355278 -0.12479091 2.3596916 2.3468025e-38
-1.2364779 -0.13784403 2.3816369 2.3469462e-38
-1.237397 -0.13644946 2.3798041 2.3468019e-38
-1.2286875 -0.12985973 2.3645983 2.3469084e-38
-1.2296005 -0.12847441 2.3627777 2.347017e-38
-1.2305136 -0.12708916 2.3609571 2.3469822e-38
-1.2305105 -0.14155272 2.3847439 2.3472698e-38
-1.2314296 -0.14015806 2.382911 2.346694e-38
-1.2323488 -0.13876332 2.381078 2.3466944e-38
-1.2332679 -0.13736862 2.3792453 2.3464778e-38
-1.2245864 -0.13077277 2.3640432 2.3462586e-38
-1.2254994 -0.12938751 2.3622227 2.3462237e-38
-1.2273006 -0.14107718 2.3823521 2.3468381e-38
-1.2282199 -0.13968244 2.3805192 2.3468385e-38
-1.229139 -0.13828787 2.3786864 2.3465498e-38
-1.2204851 -0.13168578 2.363488 2.3464027e-38
-1.2231717 -0.14199637 2.3817933 2.3468019e-38
-1.2240909 -0.14060159 2.3799603 2.3467669e-38
-1.22501 -0.13920704 2.3781276 2.3466203e-38
-1.2163838 -0.13259877 2.3629329 2.3469111e-38
-1.2190427 -0.14291549 2.3812344 2.3467299e-38
-1.2139945 -0.14522929 2.3825083 2.3463346e-38
-1.2098656 -0.14614855 2.3819494 2.3463346e-38
-1.2057365 -0.14706776 2.3813906 2.3462625e-38
-1.2016076 -0.14798687 2.3808317 2.3462986e-38
-1.1983978 -0.14751136 2.3784399 2.3463304e-38
-1.1993169 -0.14611678 2.3766072 2.346225e-38
-1.1933495 -0.14982523 2.379714 2.3462251e-38
-1.1942687 -0.14843051 2.3778811 2.3461503e-38
-1.1951878 -0.14703593 2.3760483 2.3460449e-38
-1.1972489 -0.15918541 2.3970642 2.3464771e-38
-1.1901398 -0.14934967 2.3773222 2.3458293e-38
-1.1910589 -0.14795509 2.3754895 2.3459016e-38
-1.1919781 -0.14656042 2.3736565 2.3461189e-38
-1.1930904 -0.16011113 2.3965013 2.3463689e-38
-1.1958677 -0.15589722 2.3909633 2.3461895e-38
-1.1878492 -0.14747953 2.3730977 2.346263e-38
-1.1926349 -0.15541826 2.3885546 2.3465847e-38
-1.1875507 -0.15774868 2.3898377 2.3470892e-38
-1.1884764 -0.15634398 2.3879917 2.3468368e-38
-1.2903599 -0.090959072 2.3315461 2.3477404e-38
-1.2462207 -0.11509614 2.3491089 2.3461918e-38
-1.2787428 -0.09130694 2.3262923 1.876967e-38
-1.22699 -0.11065278 2.3321571 2.2078625e-38
-1.2314605 -0.1122336 2.3369989 2.3474534e-38
-1.2371668 -0.11828563 2.3498144 2.3474534e-38
-1.2721362 -0.096001722 2.3307006 1.8212561e-38
-1.2323612 -0.110867 2.3352029 2.3474901e-38
-1.2283154 -0.11176763 2.3346553 2.3473462e-38
-1.3275746 -0.14465347 2.4385207 1.7581216e-38
-1.3233571 -0.1455923 2.4379497 1.7581216e-38
-1.3172619 -0.14938036 2.4411232 1.7671989e-38
-1.2910739 -0.12450004 2.3870692 2.1629877e-38
-1.3130444 -0.15031923 2.4405525 1.7948575e-38
-1.2851065 -0.12820865 2.3901763 2.0619321e-38
-1.3067237 -0.13573438 2.4133947 2.0430978e-38
-1.3088272 -0.15125799 2.4399815 2.0894421e-38
-1.2992506 -0.14432636 2.4237783 2.0801156e-38
-1.2791392 -0.13191719 2.3932831 2.0800099e-38
-1.2800584 -0.13052261 2.3914504 2.0892295e-38
-1.2809775 -0.12912789 2.3896174 2.1905741e-38
-1.3135215 -0.1441353 2.4306209 2.1813898e-38
-1.293364 -0.13179585 2.4002173 2.2550744e-38
-1.2950628 -0.14525867 2.4232116 2.116958e-38
-1.2750102 -0.1328363 2.3927243 2.1261078e-38
-1.2759295 -0.13144161 2.3908913 2.1813893e-38
-1.2768487 -0.13004701 2.3890586 2.2090132e-38
-1.2882799 -0.13412613 2.4015002 2.2090485e-38
-1.2794926 -0.14207518 2.4101675 2.3469447e-38
-1.2813441 -0.13926601 2.4064755 2.346982e-38
-1.2822698 -0.13786125 2.4046295 2.3286863e-38
-1.2831956 -0.13645661 2.4027834 2.347125e-38
-1.2841214 -0.13505203 2.4009376 2.3469814e-38
-1.302316 -0.14232855 2.4220297 2.125785e-38
-1.2964686 -0.13770331 2.4114902 2.3470176e-38
-1.2753341 -0.14300095 2.4096045 2.3471968e-38
-1.2790371 -0.1373824 2.4022207 2.3471611e-38
-1.2799628 -0.13597779 2.4003747 2.3470894e-38
-1.2808886 -0.13457303 2.3985286 2.3469454e-38
-1.2711756 -0.14392665 2.4090416 2.3479895e-38
-1.2748785 -0.13830818 2.4016578 2.3472692e-38
-1.2758043 -0.13690349 2.3998117 2.3471612e-38
-1.2767301 -0.13549884 2.3979659 2.3467296e-38
-1.2784389 -0.13489553 2.3978305 2.1253522e-38
-1.28774 -0.15595235 2.4371274 2.3479535e-38
-1.2679428 -0.14344783 2.4066329 2.348061e-38
-1.27072 -0.13923387 2.4010949 2.3471971e-38
-1.2716458 -0.13782921 2.3992488 2.3471612e-38
-1.274123 -0.1499202 2.4203773 2.3479152e-38
-1.2647103 -0.14296886 2.4042239 2.3476644e-38
-1.2656361 -0.14156429 2.4023781 2.3475934e-38
-1.2665617 -0.14015955 2.400532 2.3470904e-38
-1.2674875 -0.13875487 2.3986859 2.3471252e-38
-1.280244 -0.15640548 2.4341135 2.3478792e-38
-1.2605518 -0.14389467 2.4036613 2.3477723e-38
-1.2614775 -0.14249 2.4018152 2.3477373e-38
-1.2624032 -0.14108525 2.3999691 2.3471625e-38
-1.263329 -0.13968068 2.3981233 2.3471252e-38
-1.2850189 -0.16610135 2.4524548 2.3488882e-38
-1.2760265 -0.15734446 2.4335427 2.3480966e-38
-1.2666794 -0.15037012 2.4173844 2.3478086e-38
-1.257319 -0.14341572 2.4012523 2.3476658e-38
-1.2582448 -0.14201096 2.3994062 2.3475568e-38
-1.2591705 -0.14060645 2.3975604 2.3474494e-38
-1.2807702 -0.16704722 2.4518797 2.3486721e-38
-1.281716 -0.16561215 2.4499938 2.3482389e-38
-1.271809 -0.15828332 2.4329717 2.3481326e-38
-1.2522347 -0.14574614 2.4025354 2.3477367e-38
-1.2531605 -0.14434147 2.4006894 2.3476298e-38
-1.2540863 -0.14293683 2.3988435 2.3475208e-38
-1.255012 -0.14153217 2.3969975 2.3474855e-38
-1.2765216 -0.16799299 2.4513047 2.3475561e-38
-1.2675916 -0.1592222 2.4324009 2.347485e-38
-1.2583035 -0.15223484 2.4162509 2.3474849e-38
-1.2732189 -0.16750368 2.4488437 2.3474855e-38
-1.2721119 -0.16362421 2.4419079 2.1809217e-38
-1.2541156 -0.15316705 2.415684 2.3474849e-38
-1.2571828 -0.15119471 2.4139781 2.1622317e-38
-1.2680244 -0.16988467 2.4501545 2.3472698e-38
-1.2689703 -0.16844951 2.4482687 2.3472701e-38
-1.2591568 -0.16109999 2.4312594 2.3472698e-38
-1.2637757 -0.17083038 2.4495795 2.3472338e-38
-1.2549394 -0.16203876 2.4306884 2.3471979e-38
-1.2539573 -0.15994529 2.4267528 2.1809214e-38
-1.2438244 -0.15216543 2.4088755 2.1530124e-38
-1.2604728 -0.17034122 2.4471185 2.347089e-38
-1.2507221 -0.16297768 2.4301176 2.3469464e-38
-1.2415515 -0.155964 2.4139833 2.3466943e-38
-1.2562243 -0.171287 2.4465435 2.347017e-38
-1.25717 -0.16985181 2.4446573 2.3469104e-38
-1.2373637 -0.15689637 2.4134166 2.3466583e-38
-1.2361605 -0.15533207 2.4102404 2.0978027e-38
-1.2529215 -0.17079757 2.4440823 2.3467669e-38
-1.2388518 -0.16066065 2.4203541 2.1254611e-38
-1.2486727 -0.1717435 2.4435072 2.3467669e-38
-1.2390085 -0.16436969 2.426533 2.3465504e-38
-1.2444241 -0.17268932 2.4429321 2.3467304e-38
-1.2453699 -0.17125419 2.4410462 2.346263e-38
-1.2296348 -0.16767202 2.4272635 2.3467304e-38
-1.2206119 -0.16062558 2.4111493 2.3463348e-38
-1.2254173 -0.16861086 2.4266925 2.3465511e-38
-1.2263561 -0.16718635 2.4248204 2.346263e-38
-1.2211999 -0.16954976 2.4261217 2.3465511e-38
-1.2221386 -0.16812526 2.4242496 2.346263e-38
-1.2258828 -0.18836413 2.4594145 2.3481351e-38
-1.2268351 -0.18691908 2.4575152 2.3018187e-38
-1.2277875 -0.18547404 2.4556162 2.3294048e-38
-1.2216047 -0.18931651 2.4588354 2.3487472e-38
-1.2225571 -0.18787138 2.4569364 2.3486726e-38
-1.206208 -0.17045599 2.420094 2.3474855e-38
-1.2001128 -0.17424406 2.4232676 2.3499363e-38
-1.1823041 -0.17942409 2.4228563 2.3493254e-38
-1.3509567 -0.11427433 2.4002817 1.9883261e-38
-1.3267856 -0.099680744 2.3641577 2.0804839e-38
-1.331782 -0.11279643 2.3882349 1.8775075e-38
-1.3200226 -0.10448648 2.3686702 1.9231367e-38
-1.3372289 -0.12631413 2.4131992 1.7943495e-38
-1.3249657 -0.11763979 2.3927829 1.8494525e-38
-1.3303576 -0.13119705 2.4177845 1.8217918e-38
-1.3065115 -0.11633641 2.3813841 1.8309373e-38
-1.311334 -0.12732688 2.4018788 1.9597651e-38
-1.2929856 -0.12594803 2.3904095 1.9689809e-38
-1.2977022 -0.13701376 2.4109747 1.8583479e-38
-1.3020135 -0.16231808 2.4547551 2.3486009e-38
-1.2892677 -0.16515557 2.4530299 2.3487797e-38
-1.2774675 -0.16655795 2.4494188 2.3475935e-38
-1.2722731 -0.1689388 2.4507296 2.3475921e-38
-1.2491783 -0.18071206 2.4585116 2.3467289e-38
-1.2699621 -0.13515027 2.3939984 2.3286139e-38
-1.2658331 -0.13606937 2.3934395 2.3471611e-38
-1.2667522 -0.13467465 2.3916066 2.3471262e-38
-1.2676715 -0.13327996 2.3897736 2.3471616e-38
-1.2713482 -0.12770124 2.382442 2.3193949e-38
-1.2722673 -0.12630662 2.3806093 2.3101395e-38
-1.2617041 -0.13698868 2.3928807 2.348169e-38
-1.2626232 -0.13559391 2.3910477 2.3477357e-38
-1.2635424 -0.13419919 2.3892148 2.3475569e-38
-1.2584943 -0.13651311 2.3904889 2.3476638e-38
-1.2594134 -0.13511844 2.3886559 2.347485e-38
-1.2621709 -0.13093433 2.3831573 2.3468735e-38
-1.2607346 -0.13165149 2.3836164 2.1440811e-38
-1.249002 -0.14526719 2.4001265 2.3474857e-38
-1.2499278 -0.14386263 2.3982806 2.3470184e-38
-1.2448436 -0.14619295 2.3995638 2.3475219e-38
-1.2397594 -0.14852332 2.400847 2.3473406e-38
-1.2323681 -0.14897013 2.3978751 2.346658e-38
-1.208048 -0.16342242 2.4094486 2.3461897e-38
-1.2089803 -0.16200779 2.4075897 2.3462253e-38
-1.20386 -0.16435468 2.4088817 2.3462977e-38
-1.2047924 -0.16294011 2.4070227 2.3464052e-38
-1.1987399 -0.16670161 2.4101739 2.2186274e-38
-1.1996722 -0.165287 2.4083149 2.328581e-38
-1.2006044 -0.16387239 2.4064558 2.2914838e-38
-1.2015368 -0.16245788 2.4045968 2.346513e-38
-1.1945518 -0.16763404 2.4096072 2.3484575e-38
-1.195484 -0.16621937 2.407748 2.3477404e-38
-1.253913 -0.13277274 2.3820395 2.3470539e-38
-1.179309 -0.12850763 2.3376114 2.3463337e-38
-1.2580218 -0.083625093 2.3032665 2.3469059e-38
-1.2252587 -0.10165942 2.3164973 2.3462986e-38
-1.2212406 -0.10255387 2.3159535 2.3465506e-38
-1.2104565 -0.13628243 2.366019 2.3467669e-38
-1.2113695 -0.13489713 2.3641984 2.3467283e-38
-1.2122825 -0.13351181 2.3623779 2.346875e-38
-1.1860567 -0.12350718 2.3327711 2.3460842e-38
-1.1811103 -0.12577434 2.3340194 2.3461901e-38
-1.1869299 -0.14887425 2.3749306 2.3462617e-38
-1.1846393 -0.14700401 2.3707058 2.3460811e-38
-1.2123563 -0.11141141 2.3260663 2.1616209e-38
-1.2071282 -0.11402442 2.3277419 2.161187e-38
-1.2662963 -0.083114512 2.3065763 2.1532648e-38
-1.1766223 -0.13225976 2.3424354 2.1532302e-38
-1.1686352 -0.13604602 2.3446572 2.0610338e-38
-1.2283822 -0.10212211 2.3188248 2.3460448e-38
-1.2080867 -0.11627085 2.3319173 2.3457578e-38
-1.2089874 -0.1149043 2.3301213 2.3456495e-38
-1.1892018 -0.12397309 2.3351147 2.3461555e-38
-1.1824541 -0.12897341 2.3399549 2.3464069e-38
-1.1833547 -0.12760685 2.3381588 2.3466951e-38
-1.1784083 -0.12987414 2.3394072 2.3463339e-38
-1.2620121 -0.082736693 2.3038065 2.3466964e-38
-1.2332947 -0.099870436 2.317585 2.3461887e-38
-1.2292767 -0.1007649 2.3170412 2.3461527e-38
-1.2243643 -0.10301662 2.3182809 2.3463695e-38
-1.2031403 -0.11853801 2.3331656 2.3463686e-38
-1.2040409 -0.11717147 2.3313696 2.346226e-38
-1.1941481 -0.12170602 2.3338664 2.3470518e-38
-1.1901025 -0.12260655 2.3333187 2.3460481e-38
-1.185156 -0.12487381 2.3345671 2.3461195e-38
-1.1701771 -0.13554673 2.3446093 2.3461551e-38
-1.1710839 -0.13417086 2.3428011 2.3456516e-38
-1.1959711 -0.13332677 2.3538935 2.3463348e-38
-1.2485442 -0.10726441 2.3373933 2.3471253e-38
-1.2444985 -0.10816498 2.3368456 2.3470533e-38
-1.2413534 -0.1076991 2.3345022 2.3460807e-38
-1.2362599 -0.11966161 2.3516228 2.3473432e-38
-1.2321864 -0.12056844 2.3510714 2.3472691e-38
-1.2330933 -0.11919252 2.3492632 2.3471987e-38
-1.2299266 -0.11872344 2.3469036 2.3466234e-38
-1.2217795 -0.12053715 2.3458009 2.3466584e-38
-1.196878 -0.1319509 2.3520854 2.3466591e-38
-1.1908633 -0.13946205 2.3614228 2.3461898e-38
-1.1867621 -0.14037515 2.3608677 2.3461538e-38
-1.1744584 -0.14311409 2.3592024 2.3468016e-38
-1.1837506 -0.13604727 2.3522396 2.3463339e-38
-1.2761582 -0.086854197 2.3176727 2.3469485e-38
-1.2712457 -0.08910583 2.3189125 2.346732e-38
-1.2373127 -0.098975971 2.3181288 2.3468738e-38
-1.242254 -0.1063325 2.3327062 2.3461527e-38
-1.2373075 -0.10859983 2.3339546 2.3458286e-38
-1.2332618 -0.1095004 2.3334069 2.3470921e-38
-1.2292161 -0.11040097 2.3328593 2.3471281e-38
-1.2301167 -0.10903452 2.3310635 2.3466576e-38
-1.2242697 -0.11266825 2.3341076 2.3464073e-38
-1.2251704 -0.1113017 2.3323116 2.3464429e-38
-1.2211246 -0.11220232 2.3317642 2.3465151e-38
-1.2170788 -0.11310305 2.3312166 2.3466581e-38
-1.2130331 -0.11400362 2.3306689 2.3465142e-38
-1.2049415 -0.11580488 2.3295736 2.3460096e-38
-1.1981939 -0.12080535 2.334414 2.3472678e-38
-1.1977848 -0.13057487 2.3502769 2.346263e-38
-1.1937112 -0.13148184 2.3497257 2.346263e-38
-1.1896378 -0.13238853 2.3491743 2.3462617e-38
-1.1846575 -0.13467132 2.3504312 2.3462977e-38
-1.1855643 -0.13329542 2.348623 2.3462617e-38
-1.1783241 -0.13373315 2.3457119 2.3461188e-38
-1.1742505 -0.13463999 2.3451607 2.3460472e-38
-1.1751573 -0.13326393 2.3433523 2.3456516e-38
-1.2479258 -0.09731207 2.3207145 1.9040496e-38
-1.2956811 -0.23509185 2.5712712 2.3471888e-38
-1.2976576 -0.23209289 2.5673299 2.3474082e-38
-1.2662863 -0.25913858 2.5960798 1.2633981e-38
-1.2662706 -0.25679019 2.5922096 1.2541773e-38
-1.3727139 -0.18493214 2.5274043 5.9779168e-39
-1.3482885 -0.20046794 2.5407071 2.3491017e-38
-1.3306628 -0.20439179 2.5383215 2.3488866e-38
-1.3316438 -0.20290333 2.5363653 2.3487067e-38
-1.3262564 -0.20537265 2.537725 2.3483835e-38
-1.3272374 -0.20388427 2.535769 2.348167e-38
-1.3228308 -0.20486529 2.5351725 2.348131e-38
-1.313037 -0.20831558 2.5359359 2.3477367e-38
-1.314018 -0.2068271 2.5339797 2.347701e-38
-1.2942064 -0.23158164 2.5647583 2.347772e-38
-1.289767 -0.23256993 2.5641575 2.347736e-38
-1.2927319 -0.22807127 2.5582454 2.3480238e-38
-1.2863159 -0.23205867 2.5615859 2.3474827e-38
-1.2873043 -0.2305591 2.5596151 2.3479157e-38
-1.2818766 -0.23304683 2.5609848 2.3472666e-38
-1.2828648 -0.2315474 2.5590143 2.3477357e-38
-1.2838532 -0.23004778 2.5570436 2.3478802e-38
-1.2769028 -0.23006244 2.5535822 1.907539e-38
-1.2682321 -0.23417215 2.5559931 1.9455098e-38
-1.2237579 -0.25746736 2.5720036 1.806232e-38
-1.2257491 -0.25444612 2.568033 1.7970118e-38
-1.266255 -0.25444192 2.5883396 1.2539249e-38
