# .PCD v0.7 - Point Cloud Data file format
VERSION 0.7
FIELDS x y z rgb
SIZE 4 4 4 4
TYPE F F F F
COUNT 1 1 1 1
WIDTH 1028
HEIGHT 1
VIEWPOINT 0 0 0 1 0 0 0
POINTS 1028
DATA ascii
-2.09167 1.3136196 -0.37065187 2.019479e-38
-2.0873699 1.3196293 -0.36821935 2.019479e-38
-2.0494895 1.3726691 -0.34627277 1.9733808e-38
-2.0443683 1.3797262 -0.34389406 1.9826004e-38
-2.1391833 1.2486207 -0.3902657 1.6690989e-38
-2.0931976 1.3129901 -0.36372423 2.0102595e-38
-2.0888975 1.3189996 -0.36129171 1.9918202e-38
-2.0510271 1.3720354 -0.33930019 1.9640894e-38
-2.0458961 1.3790965 -0.33696648 1.9826004e-38
-2.1463273 1.2402443 -0.38598698 2.0282332e-38
-2.1001732 1.3048661 -0.35925895 2.0102595e-38
-2.0871892 1.3230121 -0.35191402 2.1024197e-38
-2.0525646 1.3714018 -0.33232746 1.9640894e-38
-2.1521549 1.233605 -0.38149175 2.1573029e-38
-2.1263542 1.2696629 -0.36689669 1.9271035e-38
-2.1091535 1.2937016 -0.3571665 1.9640538e-38
-2.0962532 1.3117307 -0.34986895 2.0101514e-38
-2.088727 1.3223784 -0.34494138 2.213056e-38
-2.0541024 1.370768 -0.3253549 1.9547972e-38
-2.1551855 1.2310144 -0.37469354 2.2496454e-38
-2.1493826 1.2389849 -0.37213153 1.752039e-38
-2.1032486 1.3035988 -0.3453137 2.0101514e-38
-2.0945926 1.315696 -0.34041706 1.9549068e-38
-2.0705128 1.349627 -0.32535431 2.0468133e-38
-2.05564 1.3701342 -0.31838223 1.9456498e-38
-2.1509101 1.2383556 -0.36520386 1.696722e-38
-2.14661 1.244365 -0.36277133 1.7794112e-38
-2.1134424 1.2908674 -0.34323779 1.9916404e-38
-2.101608 1.3075557 -0.33577198 1.9732733e-38
-2.0972519 1.3136437 -0.33330786 2.0470304e-38
-2.092896 1.3197314 -0.33084372 2.2958873e-38
-2.0571775 1.3695005 -0.31140959 1.9733442e-38
-2.1524379 1.2377257 -0.35827628 1.6506239e-38
-2.119308 1.2841852 -0.33871332 2.0008953e-38
-2.1130831 1.2932025 -0.33354843 2.0101149e-38
-2.1086993 1.2993292 -0.33106852 2.0100793e-38
-2.1031556 1.3069178 -0.32875431 1.9548341e-38
-2.0780118 1.3422164 -0.31370911 1.9453611e-38
-2.126483 1.2758415 -0.33405736 1.9732014e-38
-2.1014888 1.3109409 -0.31904602 2.2038002e-38
-2.0795693 1.3415745 -0.30664644 2.0284445e-38
-2.1367426 1.2630283 -0.33196792 1.991568e-38
-2.1161981 1.2919186 -0.31942317 1.4022746e-38
-2.1030462 1.310299 -0.31198341 2.2683007e-38
-2.0811267 1.3409327 -0.29958388 2.0099348e-38
-2.0767426 1.3470595 -0.29710397 1.908807e-38
-2.1339343 1.268478 -0.32248616 2.0653601e-38
-2.0837059 1.3390507 -0.29212564 2.0099351e-38
-2.0783002 1.3464174 -0.29004133 1.8995519e-38
-2.0739164 1.3525442 -0.28756145 1.8811126e-38
-2.1368487 1.2661278 -0.31521764 2.1849976e-38
-2.1324646 1.2722546 -0.3127377 2.1114575e-38
-2.114929 1.2967616 -0.30281803 2.010043e-38
-2.0798576 1.3457757 -0.28297871 1.8995151e-38
-2.0754738 1.3519024 -0.2804988 1.8810763e-38
-2.1265473 1.2822669 -0.3003718 2.3049977e-38
-2.0770311 1.3512604 -0.2734361 1.8809688e-38
-2.1371274 1.2480803 -0.40677229 1.908413e-38
-2.058387 1.3243047 -0.53727555 2.3142544e-38
-2.055023 1.3292829 -0.53394008 2.3509886e-38
-2.0676908 1.3191717 -0.50180686 2.3509886e-38
-2.1134496 1.2714018 -0.44394365 2.1851083e-38
-2.1152651 1.2710264 -0.43377981 2.1850723e-38
-2.1180654 1.2720343 -0.40989143 2.0468507e-38
-2.1246874 1.2642291 -0.40613586 2.0283753e-38
-2.1306102 1.258846 -0.39450446 1.9914612e-38
-2.1262927 1.2651426 -0.39070326 1.9822419e-38
-2.1300905 1.261688 -0.38326028 1.9730221e-38
-2.1351442 1.2562412 -0.37775543 1.9361435e-38
-2.1275225 1.2668668 -0.37357894 1.917776e-38
-2.1390276 1.2538869 -0.36404651 1.8623506e-38
-2.1376743 1.2574298 -0.35473257 1.9545827e-38
-2.1452074 1.2483245 -0.35162985 1.945183e-38
-2.1400452 1.2560391 -0.3461214 1.9084124e-38
-2.154892 1.2366645 -0.34740493 1.8807539e-38
-2.1499686 1.2440509 -0.34200308 1.8255082e-38
-2.1444464 1.2517961 -0.3387363 1.9269596e-38
-2.0543468 1.3304003 -0.53266513 2.3509886e-38
-2.0914478 1.2988715 -0.44846848 2.3509886e-38
-2.0929563 1.2982497 -0.44162753 2.2958873e-38
-2.1017284 1.29045 -0.42350683 2.1024194e-38
-2.0164106 1.4486946 -0.17333859 3.7800152e-39
-1.9998003 1.4756314 -0.14467262 2.8587736e-39
-2.0091345 1.460604 -0.16021286 4.0558846e-39
-2.0084114 1.460622 -0.16494037 3.9644121e-39
-2.0055106 1.4662514 -0.15514606 4.1480649e-39
-1.9818393 1.4432863 -0.43185198 1.78888e-38
-2.0092974 1.4158409 -0.39081848 2.0104798e-38
-2.0536203 1.3803992 -0.27871844 2.1390821e-38
-2.0489028 1.3906 -0.25737754 2.2220227e-38
-2.0314832 1.4198197 -0.22229049 9.230423e-40
-2.027631 1.4256753 -0.21766676 5.0689576e-39
-2.0298929 1.4240891 -0.21079539 4.7941784e-39
-2.0266309 1.4292217 -0.20597994 3.9629687e-39
-2.0372355 1.4153007 -0.2073236 4.6087011e-39
-2.0336628 1.4207951 -0.20270808 4.8849321e-39
-2.0298409 1.4265454 -0.19842817 4.4228679e-39
-2.0256646 1.4329089 -0.19333814 4.2399144e-39
-2.0410404 1.411585 -0.20118541 4.1473558e-39
-2.0373015 1.4176018 -0.19497377 4.7927252e-39
-2.0336428 1.4231827 -0.19048251 4.3321072e-39
-2.0494626 1.4019253 -0.19502439 5.0671485e-39
-2.0447612 1.4086602 -0.19151439 4.3306667e-39
-2.0412478 1.4142598 -0.18595704 4.4232252e-39
-2.036705 1.4207591 -0.18260826 4.2395556e-39
-2.0549436 1.3945987 -0.19639958 4.9760361e-39
-2.05317 1.3980681 -0.1902685 3.8711178e-39
-2.0491698 1.4041071 -0.18568501 3.5948911e-39
-2.0475423 1.4073476 -0.17976357 3.6856574e-39
-2.0431728 1.4136758 -0.17614339 3.2257582e-39
-2.0612986 1.3882533 -0.18686849 4.422498e-39
-2.0577886 1.3937573 -0.18178336 3.4097908e-39
-2.0536058 1.3998741 -0.17801416 3.6860175e-39
-2.0498731 1.4054492 -0.17404807 3.7767796e-39
-2.06021 1.391856 -0.17548002 4.1477103e-39
-2.0563931 1.3975562 -0.17142577 3.4097908e-39
-2.0533702 1.4026195 -0.16537558 4.0522917e-39
-2.060662 1.3931541 -0.16574566 3.7785747e-39
-2.0560048 1.4003196 -0.15971255 3.4094404e-39
-1.9743249 1.459137 -0.39991286 2.3509886e-38
-2.0297167 1.4205906 -0.23007846 9.2264027e-39
-2.0309498 1.4227691 -0.21057999 6.4515291e-39
-2.0752451 1.3662025 -0.20800623 6.0794984e-39
-1.9872068 1.4270351 -0.4801752 2.2867026e-38
-1.9856342 1.4322335 -0.46375573 1.8998388e-38
-1.9889621 1.4304194 -0.45095477 1.8628517e-38
-1.9946116 1.4239835 -0.44659728 1.7983163e-38
-1.9769514 1.4488387 -0.43570361 1.3829287e-38
-1.9944687 1.4285924 -0.42369348 2.1209294e-38
-1.9959412 1.4279857 -0.41701642 2.1669916e-38
-2.0132263 1.4111427 -0.38893652 2.1945787e-38
-2.0084729 1.4177656 -0.38635302 2.2499324e-38
-2.033565 1.393235 -0.34600899 2.0839433e-38
-2.0350835 1.392609 -0.33912304 2.0378103e-38
-2.0316086 1.398852 -0.32998136 2.1576649e-38
-2.0267205 1.4055814 -0.32774436 2.1853236e-38
-2.021884 1.4122385 -0.32553679 2.2222018e-38
-2.0331171 1.3982303 -0.32314044 2.1484449e-38
-2.0446513 1.383847 -0.32067862 2.0561771e-38
-2.039639 1.3907316 -0.31846538 2.111567e-38
-2.0346258 1.3976084 -0.3162995 2.1392253e-38
-2.0297191 1.4043455 -0.31414607 2.1853957e-38
-2.0461788 1.3832173 -0.31375092 2.0101161e-38
-2.0411575 1.3901057 -0.31157959 2.084016e-38
-2.0312185 1.4037274 -0.307347 2.1853591e-38
-2.042676 1.3894799 -0.30469364 2.1116745e-38
-2.0308104 1.4230167 -0.21022724 5.4405959e-39
-2.0295577 1.427798 -0.1938336 4.5164872e-39
-2.054708 1.3993404 -0.1734281 4.8831062e-39
-2.0694144 1.3828846 -0.16053873 4.7008799e-39
-2.0649447 1.3891313 -0.15801033 4.3324561e-39
-2.0700066 1.3832529 -0.15468527 4.4257406e-39
-2.0665329 1.388477 -0.15080956 4.056958e-39
-2.0545938 1.3654619 -0.3495408 2.0837643e-38
-2.0680015 1.3516105 -0.3318328 2.0099717e-38
-2.0621572 1.366805 -0.2921598 2.0191552e-38
-2.0783026 1.3441683 -0.30166718 1.9823488e-38
-2.0648422 1.3647913 -0.28467751 2.0099714e-38
-2.0668118 1.3652093 -0.26937944 1.9915691e-38
-2.0726719 1.357937 -0.26794803 1.9822767e-38
-2.0025902 1.4082323 -0.47492158 1.7703338e-38
-1.9886878 1.4264247 -0.47345957 2.001255e-38
-2.0007463 1.4168168 -0.44278473 1.8260442e-38
-2.0099499 1.4083344 -0.4253197 1.9918199e-38
-2.0162435 1.4010001 -0.42131519 2.0471726e-38
-2.0256913 1.3922682 -0.40351391 2.093163e-38
-2.0500238 1.3674477 -0.36973602 2.2034736e-38
-2.046459 1.3725005 -0.36735287 2.1849976e-38
-2.0354853 1.3876245 -0.3622447 1.6501904e-38
-2.0598993 1.3583212 -0.35112494 2.0836916e-38
-2.0570729 1.363806 -0.34158245 1.9917836e-38
-2.0586302 1.3631642 -0.3345198 2.0010398e-38
-2.0601876 1.3625222 -0.32745719 1.9640538e-38
-2.0670455 1.3546121 -0.32267225 1.9640888e-38
-2.0617452 1.3618804 -0.32039455 1.927283e-38
-2.0595956 1.3677951 -0.30411315 1.964017e-38
-2.0611432 1.3671573 -0.2970956 1.9732723e-38
-2.0733149 1.3520284 -0.29424191 1.9087717e-38
-2.0679748 1.3593128 -0.29214418 1.9180269e-38
-2.07109 1.358029 -0.27801895 1.9455764e-38
-1.9678634 1.474341 -0.36430475 1.7982832e-38
-2.0117171 1.4212459 -0.34670663 1.853421e-38
-2.0270412 1.4173625 -0.26462582 2.2497536e-38
-2.0466325 1.3922299 -0.26407826 2.2127671e-38
-1.9861982 1.4280022 -0.48189473 1.9733114e-38
-1.9933726 1.4191203 -0.48002946 1.6877939e-38
-1.9856575 1.4307911 -0.47106466 1.9363253e-38
-1.9915664 1.4260522 -0.45619345 1.9179215e-38
-1.9855977 1.4350419 -0.44946128 2.0194441e-38
-1.9977714 1.4186479 -0.4531433 1.6784299e-38
-1.9956651 1.4219447 -0.45012519 1.9824583e-38
-2.0042324 1.4102815 -0.45336595 1.632511e-38
-2.0352061 1.387503 -0.36473396 1.9915345e-38
-1.9853415 1.437409 -0.43891832 2.249682e-38
-1.9909984 1.4312811 -0.43291643 2.2313144e-38
-1.9820549 1.4444604 -0.42433545 2.166525e-38
-1.9884577 1.438967 -0.41007653 2.2958514e-38
-1.9852787 1.4437392 -0.40657192 2.1579905e-38
-1.9811406 1.4501088 -0.40119717 2.1853977e-38
-1.9798943 1.4525279 -0.39698616 2.2404261e-38
-1.996979 1.4278045 -0.41103223 2.1486625e-38
-1.986636 1.4437507 -0.39746344 2.3142544e-38
-1.9832176 1.4495965 -0.38999882 2.3142185e-38
-1.9775709 1.4571278 -0.38866875 2.2312427e-38
-1.9994981 1.4256856 -0.40520301 2.1578462e-38
-1.9888734 1.4420469 -0.39136323 2.2130918e-38
-1.9863276 1.4465463 -0.38504979 2.2866678e-38
-2.0039656 1.4205405 -0.40204448 2.2773764e-38
-1.9996847 1.426846 -0.39795426 2.2866317e-38
-1.9956442 1.4333652 -0.39115119 2.1303681e-38
-1.9885813 1.444316 -0.38156497 2.1579547e-38
-2.0078888 1.4168046 -0.39522177 2.2406062e-38
-2.0033579 1.4234716 -0.39092582 2.2682646e-38
-1.9995075 1.4293332 -0.38626021 2.2865961e-38
-1.9951649 1.435843 -0.38152248 2.2681931e-38
-1.9928646 1.4398426 -0.37615937 2.1395876e-38
-1.9887232 1.44605 -0.37164423 2.2774484e-38
-1.995286 1.4376626 -0.3712976 2.2039441e-38
-1.9861525 1.4385097 -0.42781433 2.3509886e-38
-1.9696174 1.4695964 -0.37716648 1.8807516e-38
-2.016521 1.4142127 -0.35107854 1.6594852e-38
-2.0175903 1.4152596 -0.33852974 2.3326213e-38
-2.0131719 1.4218769 -0.33373928 2.3509886e-38
-2.0095375 1.4274859 -0.32894355 2.3509886e-38
-1.9945872 1.4490614 -0.31695643 2.2402815e-38
-2.0207055 1.4122907 -0.33312351 2.277376e-38
-2.0161879 1.4188432 -0.32933241 2.3509886e-38
-2.0123684 1.4252497 -0.32164109 2.3509886e-38
-2.0240405 1.4094123 -0.32578576 2.3049268e-38
-2.0208671 1.4150457 -0.31778595 2.3050349e-38
-2.0151918 1.4230229 -0.31433976 2.3509886e-38
-2.010684 1.4295447 -0.31064209 2.3509886e-38
-2.0274932 1.4063097 -0.31882131 2.2589008e-38
-2.0239305 1.4121511 -0.31234187 2.1944359e-38
-2.0193334 1.4190414 -0.30733198 2.3509886e-38
-2.0138659 1.4268802 -0.30321503 2.3509886e-38
-2.0318706 1.4024756 -0.30947819 2.1483382e-38
-2.0258727 1.4107304 -0.30674604 2.2773044e-38
-2.0222082 1.417008 -0.29868752 2.3509886e-38
-2.0173295 1.4239106 -0.2954917 2.3509886e-38
-2.034193 1.4007695 -0.30282316 2.2588289e-38
-2.0291021 1.4080291 -0.2991946 2.2773042e-38
-2.0247192 1.4151428 -0.2915993 2.3233659e-38
-2.0202229 1.4215621 -0.28835484 2.3509886e-38
-2.0392962 1.3953137 -0.29703459 2.2128748e-38
-2.0345571 1.4020813 -0.29360658 2.2312783e-38
-2.0295262 1.4091766 -0.29042786 2.258937e-38
-2.0260479 1.4151946 -0.28246978 2.3509886e-38
-2.0211055 1.4222202 -0.27906191 2.3509886e-38
-2.0469594 1.3859481 -0.29441297 2.1483018e-38
-2.0421388 1.3930839 -0.28962076 2.1944361e-38
-2.0370436 1.4002594 -0.28645566 2.2128752e-38
-2.0327916 1.4064955 -0.28253111 2.2773042e-38
-2.0242729 1.4195709 -0.2716555 2.3509886e-38
-2.0507755 1.3826267 -0.28615817 2.1391181e-38
-2.0458233 1.3897631 -0.28224167 2.2220227e-38
-2.0398595 1.3980536 -0.27909604 2.2220586e-38
-2.0351658 1.4049989 -0.27444497 2.2220947e-38
-2.0316081 1.4107716 -0.26828936 2.1852526e-38
-2.0484207 1.387695 -0.27562594 2.2036552e-38
-2.0438747 1.3943981 -0.27124399 2.2312421e-38
-2.0387735 1.4016217 -0.2678684 2.2128033e-38
-2.0512383 1.385492 -0.26824129 2.1851802e-38
-2.0545437 1.3827723 -0.26027805 2.1667056e-38
-2.0341337 1.4177932 -0.21510591 3.6881825e-39
-2.0453174 1.4055682 -0.20380861 4.792728e-39
-2.0614109 1.3849829 -0.20304611 5.0682331e-39
-2.0730913 1.3703636 -0.20083031 5.5281252e-39
-2.0701284 1.3748333 -0.19745225 5.528491e-39
-2.0658116 1.3811114 -0.1937412 5.8961917e-39
-2.0678945 1.379944 -0.18589646 4.5164957e-39
-2.0645063 1.3785495 -0.21570586 4.7001793e-39
-2.0589898 1.3861552 -0.2131235 4.8852796e-39
-2.0674522 1.3765334 -0.2064977 4.885274e-39
-1.9784634 1.4437853 -0.45177796 1.336758e-38
-2.071955 1.3706324 -0.20701554 4.7934343e-39
-2.0603607 1.3883708 -0.1925132 5.8050625e-39
-2.0716314 1.3744595 -0.18936443 5.5284812e-39
-2.0643752 1.386145 -0.17726544 4.701233e-39
-2.0703545 1.3793333 -0.17265357 4.2402605e-39
-2.0659425 1.385499 -0.17015792 4.2406136e-39
-2.05023 1.4064833 -0.16631539 4.6061661e-39
-1.9856451 1.4275562 -0.48789242 2.1483747e-38
-1.9821606 1.4344198 -0.47560042 1.6780328e-38
-1.9788123 1.439732 -0.47043264 1.2631485e-38
-1.9826026 1.4358811 -0.46509087 1.5582509e-38
-1.9897412 1.426718 -0.464917 1.687723e-38
-1.9863927 1.4320302 -0.45974919 1.7153817e-38
-1.9826987 1.4378211 -0.45440659 1.5677195e-38
-1.9817966 1.4406027 -0.44602433 1.9084124e-38
-1.9919982 1.4275707 -0.44545573 2.1023132e-38
-1.9955176 1.424399 -0.43840376 2.1668138e-38
-1.9864455 1.4378002 -0.42953178 2.2589737e-38
-2.0025949 1.4156797 -0.43634447 2.0930572e-38
-1.998955 1.4213601 -0.43121195 2.2404984e-38
-1.9941586 1.4284835 -0.42632413 2.268193e-38
-1.9897193 1.4350854 -0.42175406 2.2958155e-38
-1.985433 1.4414755 -0.41726232 2.3049991e-38
-2.0047886 1.4132423 -0.43433103 2.1115327e-38
-2.0000575 1.4207232 -0.42715755 1.9827844e-38
-1.9971802 1.4259974 -0.41904458 2.2865602e-38
-1.9928372 1.4321584 -0.41611421 2.1854694e-38
-2.0077424 1.4107533 -0.42751956 2.1851808e-38
-2.0029755 1.4178227 -0.4227142 2.2497176e-38
-1.9945717 1.4317244 -0.40679622 2.2681931e-38
-1.9899822 1.4384768 -0.40244815 2.2682649e-38
-2.0111828 1.4077196 -0.42028078 2.20362e-38
-2.006619 1.4144443 -0.41590554 2.1392644e-38
-2.002017 1.4214805 -0.41017178 2.2681567e-38
-1.9967636 1.4293991 -0.40421626 2.2497901e-38
-1.9927905 1.435779 -0.3976858 2.2958155e-38
-2.018234 1.3994251 -0.41619411 2.1667772e-38
-2.0117753 1.4086344 -0.4115954 2.0011871e-38
-2.0087051 1.4136134 -0.40629521 2.2497174e-38
-2.0194128 1.3991519 -0.40974978 1.9919306e-38
-2.0156536 1.4046613 -0.40629986 1.9368307e-38
-2.0129645 1.4091758 -0.40086356 2.1668505e-38
-2.0258231 1.390641 -0.41105801 2.0011146e-38
-2.0224688 1.3963791 -0.40372401 2.0103695e-38
-2.0193949 1.4008601 -0.4010272 1.9643465e-38
-2.0159285 1.4060818 -0.39711243 2.0748705e-38
-2.0202298 1.4012065 -0.39366719 2.0931653e-38
-1.9813582 1.4322435 -0.49221575 2.3509886e-38
-1.9860437 1.4321326 -0.4615486 2.0466347e-38
-2.0090921 1.4044105 -0.45134926 1.9362514e-38
-2.0253472 1.3998953 -0.36633098 3.4195004e-39
-2.0298996 1.3948932 -0.36186647 1.7240939e-38
-2.0216441 1.4069033 -0.35474998 1.6687408e-38
-2.0434158 1.3776134 -0.36118034 2.1574855e-38
-2.0381281 1.3852316 -0.35700727 2.1942916e-38
-2.0328815 1.3930628 -0.35145846 2.1851794e-38
-2.0275664 1.400353 -0.3491652 2.3049261e-38
-2.0225847 1.407603 -0.34485692 2.341805e-38
-2.0512047 1.3682644 -0.35763454 2.1205714e-38
-2.0408208 1.3833477 -0.34880301 2.0651821e-38
-2.0366485 1.3896464 -0.3440223 2.0744011e-38
-2.0309973 1.3974872 -0.34112278 2.2220586e-38
-2.0262661 1.4043646 -0.33707124 2.2680848e-38
-2.0563133 1.3620787 -0.35558876 2.0469223e-38
-2.050154 1.3719658 -0.34548256 2.065254e-38
-2.0445879 1.3799316 -0.34136674 2.037559e-38
-2.0404155 1.3862302 -0.33658612 2.0467786e-38
-2.0342925 1.3947248 -0.3334465 2.2035836e-38
-2.0295494 1.401613 -0.3294214 2.2588652e-38
-2.0535192 1.3691475 -0.33763066 2.0560343e-38
-2.0483549 1.3765154 -0.33393073 2.0098645e-38
-2.0441825 1.382814 -0.32915008 2.0467783e-38
-2.0373676 1.3919704 -0.32719895 2.1574856e-38
-2.0328298 1.3988653 -0.32176977 2.2496814e-38
-2.0607901 1.3604378 -0.33422977 2.0560342e-38
-2.0563836 1.3669416 -0.32994848 2.0468143e-38
-2.0521219 1.3730991 -0.32649446 2.0006449e-38
-2.0466206 1.3811047 -0.32173896 2.1021321e-38
-2.0413198 1.3886746 -0.31790397 2.1758529e-38
-2.0361078 1.3961209 -0.31411609 2.222023e-38
-2.0641398 1.3576359 -0.32639652 2.0468143e-38
-2.0597327 1.3641402 -0.32211676 2.037559e-38
-2.054836 1.3712389 -0.31802449 2.0468146e-38
-2.0499442 1.378324 -0.31397095 2.0928767e-38
-2.0441518 1.386469 -0.31043798 2.1574856e-38
-2.0393832 1.3933804 -0.30646056 2.2128033e-38
-2.0680006 1.3536695 -0.32118329 1.9453272e-38
-2.0649726 1.3586529 -0.31557912 2.0192274e-38
-2.0600049 1.3656626 -0.31242165 2.0099365e-38
-2.0556281 1.3721218 -0.30817434 2.065182e-38
-2.0493081 1.3808398 -0.3051914 2.1022399e-38
-2.0449805 1.3872722 -0.30075327 2.1851085e-38
-2.0739613 1.3477428 -0.31211287 2.0007882e-38
-2.0675952 1.3565516 -0.30896652 1.908557e-38
-2.0638788 1.3622274 -0.30437112 2.019084e-38
-2.0589538 1.3693391 -0.30040157 2.0467783e-38
-2.0521901 1.3785785 -0.29767895 2.1298268e-38
-2.0705252 1.3534214 -0.30563211 1.9823494e-38
-2.0670292 1.3595577 -0.29718181 1.9546543e-38
-2.0569999 1.3741012 -0.2887823 2.102132e-38
-2.0755124 1.3494866 -0.2927449 1.9730221e-38
-2.0709572 1.3560178 -0.28931352 1.8808259e-38
-2.0586948 1.3732302 -0.28198838 2.0744734e-38
-2.0823042 1.3406576 -0.29315543 1.9730935e-38
-2.0788965 1.3463029 -0.28665793 1.8348e-38
-2.0716851 1.3558794 -0.28517675 1.9362151e-38
-2.0669007 1.363502 -0.2776233 2.0099718e-38
-2.0613353 1.3712503 -0.27462897 2.0560703e-38
-2.0806525 1.3450651 -0.28135678 1.8809345e-38
-2.0772059 1.3510906 -0.2731511 1.8808269e-38
-2.0719564 1.358217 -0.27126759 1.8532028e-38
-2.0885513 1.3369175 -0.27085891 2.1112439e-38
-2.0811231 1.3476275 -0.26495534 2.1112798e-38
-1.9792105 1.4360366 -0.4869051 2.2402446e-38
-2.0331247 1.3923223 -0.35366955 2.2496444e-38
-2.036622 1.3892968 -0.34600878 2.2311342e-38
-2.0395336 1.3871075 -0.33792683 2.2034756e-38
-2.0479743 1.3771216 -0.33333054 2.1389383e-38
-2.0426891 1.3847593 -0.32904026 2.1390461e-38
-2.0509071 1.3749163 -0.32518885 2.1206071e-38
-2.0721424 1.3487113 -0.31922933 2.0836927e-38
-2.0247352 1.401086 -0.36424881 8.0199128e-39
-2.0383012 1.3602873 -0.48496178 2.3234374e-38
-2.108717 1.2826076 -0.41750085 2.1298631e-38
-2.0533566 1.3508437 -0.43345422 2.3142541e-38
-1.9207739 1.6001148 -0.027298797 1.7520645e-39
-1.9115715 1.6194791 0.011570184 3.5026955e-39
-1.913615 1.6108774 -0.019327911 2.9484623e-39
-1.9046154 1.6239004 -0.011928108 2.029729e-39
-1.9164857 1.6087185 -0.011358971 3.0410167e-39
-1.9193565 1.6065599 -0.0033900752 4.7001793e-39
-1.9148568 1.6130714 0.00030983519 4.8827614e-39
-1.910357 1.6195829 0.0040097144 3.3157805e-39
-2.0892806 1.294597 -0.48504341 2.3509886e-38
-2.0907617 1.2939867 -0.47832775 2.3509886e-38
-2.0989845 1.2853974 -0.4679552 2.3509886e-38
-2.111794 1.2748667 -0.43704754 2.1206787e-38
-2.0617578 1.3201681 -0.53621101 2.0840544e-38
-2.0673397 1.3138089 -0.53190565 2.3509886e-38
-2.063221 1.3195651 -0.52957571 2.3509886e-38
-2.0688028 1.313206 -0.5252704 2.3509886e-38
-2.0646842 1.3189621 -0.52294058 2.3509886e-38
-2.070266 1.312603 -0.51863515 2.3509886e-38
-2.0717292 1.3119999 -0.51199996 2.3509886e-38
-2.0797596 1.3035901 -0.50198108 2.3509886e-38
-2.0756152 1.3093823 -0.49963656 2.3509886e-38
-2.0812323 1.302983 -0.49530411 2.3509886e-38
-2.0770876 1.3087755 -0.4929595 2.3509886e-38
-2.0785599 1.3081688 -0.4862825 2.3509886e-38
-2.0851123 1.3004227 -0.48268533 2.3509886e-38
-2.0922425 1.2933764 -0.47161216 2.3509886e-38
-2.088074 1.299202 -0.46925405 2.3509886e-38
-2.1015763 1.2832366 -0.46185684 2.3509886e-38
-2.0962803 1.2906451 -0.45882523 2.3509886e-38
-2.1045752 1.2820005 -0.44825846 2.2590806e-38
-2.1132936 1.2742487 -0.43024844 2.0746884e-38
-2.1090732 1.280147 -0.42786109 2.0470667e-38
-2.1423099 1.2503748 -0.36033878 1.8901158e-38
-2.1511931 1.2424761 -0.34198838 1.8717493e-38
-2.146893 1.2484858 -0.33955589 1.8809691e-38
-2.1057968 1.2773384 -0.46424419 2.0378822e-38
-2.1156964 1.2679561 -0.44679707 1.7982094e-38
-2.1172049 1.2673343 -0.43995607 1.8074643e-38
-2.1187136 1.2667124 -0.43311504 1.8626016e-38
-2.1202221 1.2660908 -0.42627421 1.9178464e-38
-2.1288352 1.2570974 -0.41539147 1.7059399e-38
-2.1333907 1.2552199 -0.39473379 1.8072839e-38
-2.1435547 1.2456243 -0.3766267 1.715016e-38
-2.1233823 1.2601762 -0.43581551 1.751752e-38
-2.1291869 1.2552629 -0.42254177 1.8716425e-38
-2.140631 1.2449975 -0.39936638 1.899193e-38
-2.1523638 1.2338326 -0.37892058 2.1389025e-38
-2.1602535 1.2267386 -0.36303198 2.1573775e-38
-2.1499329 1.2352061 -0.3880215 2.3509886e-38
-2.0658765 1.314412 -0.53854084 2.0747617e-38
-2.108433 1.2751338 -0.45807672 2.1116026e-38
-2.1099417 1.2745121 -0.45123577 2.1392256e-38
-2.1159759 1.2720251 -0.42387214 2.0653969e-38
-2.1174843 1.2714036 -0.4170312 2.0192994e-38
-2.1511421 1.2412105 -0.34887898 1.8808609e-38
-2.1569357 1.2295942 -0.37037376 2.2403898e-38
-1.9831284 1.5026791 -0.11584134 2.4856779e-39
-1.978597 1.5091556 -0.11253504 2.3938368e-39
-1.9740778 1.5155876 -0.10937742 3.0406523e-39
-1.9661746 1.5276016 -0.099891737 3.5949009e-39
-1.9770892 1.5130085 -0.10264749 3.7764237e-39
-1.9730201 1.5192178 -0.097641125 3.5923912e-39
-1.9608086 1.5370295 -0.086872295 3.6867364e-39
-1.9760202 1.5166186 -0.091089867 5.2529789e-39
-1.9717515 1.5229115 -0.086981058 4.8841908e-39
-1.9674827 1.5292046 -0.082872376 4.9745983e-39
-1.9776235 1.516638 -0.080298245 5.435229e-39
-1.9733365 1.522957 -0.076177604 5.4348618e-39
-1.9814541 1.5132052 -0.072525412 3.8707689e-39
-1.972208 1.5258758 -0.068593368 4.9749571e-39
-1.9646924 1.5374452 -0.058825988 4.6086801e-39
-1.9649715 1.5371392 -0.058546994 4.0522917e-39
-1.9616371 1.5423388 -0.053867929 4.2381137e-39
-1.9796342 1.5079988 -0.11160773 2.7647773e-39
-1.9764287 1.5136883 -0.10353272 3.5945408e-39
-1.9720168 1.5198539 -0.10103707 3.8711178e-39
-1.9735843 1.5192081 -0.093929514 3.9629645e-39
-1.9751517 1.5185621 -0.086821876 4.885983e-39
-1.9707398 1.5247276 -0.084326215 4.7909161e-39
-1.966328 1.5308937 -0.081830516 4.3324561e-39
-1.9767188 1.5179161 -0.079714268 5.9887503e-39
-1.9723072 1.5240818 -0.077218637 5.8050625e-39
-1.9678954 1.5302476 -0.074722916 5.4362799e-39
-1.9704126 1.5290319 -0.06423068 4.7008799e-39
-1.9357074 1.576532 -0.049784027 2.0290171e-39
-1.9291626 1.5852735 -0.048178863 1.7520645e-39
-1.927038 1.5888462 -0.043853745 2.3030845e-39
-1.9227818 1.5951202 -0.039760027 2.304525e-39
-1.9330268 1.5811785 -0.043608889 2.4874729e-39
-1.9287742 1.5880373 -0.036465745 2.0257829e-39
-1.9365184 1.5782764 -0.035348985 3.5009102e-39
-1.9319682 1.5847992 -0.031926718 3.0402978e-39
-1.9276371 1.5909561 -0.02893937 2.5789609e-39
-1.930573 1.5884746 -0.022205647 4.3320932e-39
-1.9278084 1.5935251 -0.014499965 5.4344891e-39
-1.923792 1.5988834 -0.013546814 3.8686011e-39
-1.9344559 1.5845855 -0.016446242 5.4355723e-39
-1.9313003 1.5896959 -0.011035375 4.4217735e-39
-1.9407835 1.5720375 -0.039201163 5.4355765e-39
-1.9328909 1.5838016 -0.030938677 2.9491685e-39
-1.9256345 1.5954871 -0.018839709 3.2253953e-39
-1.93769 1.5821604 -0.0074323458 4.609036e-39
-1.8931675 1.6434394 0.012868543 0
-1.8976296 1.6358581 0.0033810181 1.8403673e-40
-1.8999995 1.631057 -0.005666092 0
-1.8451507 1.7222197 0.10045666 2.5807434e-39
-1.8476733 1.7202367 0.10701485 2.0268395e-39
-1.8476949 1.7209147 0.1106673 2.6729152e-39
-1.8464011 1.7258524 0.12759733 3.7764013e-39
-1.8406255 1.7290123 0.10544188 2.4878275e-39
-1.8435199 1.7266405 0.11246651 2.3030873e-39
-1.8394704 1.7323478 0.11500596 2.3938424e-39
-1.8472894 1.7233455 0.12054597 3.3168861e-39
-1.8432493 1.7288692 0.12219565 3.4079901e-39
-1.8369122 1.7382871 0.12868693 2.3938326e-39
-1.8432251 1.7271613 0.11319577 2.9484371e-39
-1.8387555 1.733408 0.11572418 2.7644045e-39
-1.8351268 1.7384684 0.11771973 2.0272122e-39
-1.8390905 1.7347115 0.12470537 2.9462931e-39
-1.8324668 1.7408692 0.11241013 1.8435342e-39
-1.83257 1.7432575 0.12546043 2.3012866e-39
-1.8280666 1.7492265 0.12632698 1.6573493e-39
-1.8287896 1.749824 0.13423994 1.841742e-39
-1.8429923 1.7327595 0.14061934 2.8573232e-39
-1.8879248 1.6524637 0.024620438 0
-1.8523954 1.7104164 0.087673269 1.6577025e-39
-1.879457 1.6691312 0.054426897 3.4094334e-39
-1.8829144 1.6659757 0.061148666 4.1444761e-39
-1.8495811 1.7152249 0.093794301 2.673655e-39
-1.8520826 1.7131742 0.099860027 3.2243177e-39
-1.8476384 1.7161567 0.085662223 2.3059641e-39
-1.8534583 1.7097303 0.091208845 3.1350017e-39
-1.912721 1.6113019 -0.023090767 1.7531435e-39
-1.9162836 1.608071 -0.016058119 2.1179828e-39
-1.9198463 1.6048402 -0.0090256222 2.9491685e-39
-1.9159006 1.6107968 -0.0045045484 2.9491685e-39
-1.919463 1.6075659 0.0025279636 4.2366886e-39
-1.9079164 1.6249638 0.01558734 3.5938065e-39
-1.9190798 1.6102917 0.014081609 3.4097908e-39
-1.9064304 1.6289407 0.026262697 4.2377353e-39
-1.9266546 1.5974751 -0.001747722 5.2508349e-39
-1.9212948 1.6047952 0.00040118652 4.6998093e-39
-1.9192535 1.6082181 0.0045067938 5.4359268e-39
-1.9130741 1.6169868 0.0086890534 5.0660653e-39
-1.9284396 1.5896194 -0.030507402 3.0409914e-39
-1.9140188 1.6128424 -0.0064626033 3.2264547e-39
-1.9155762 1.6122005 0.00060005445 4.1458971e-39
-1.9112626 1.6177965 0.00080165552 1.1031204e-39
-1.9069068 1.6238843 0.0032657161 1.8381575e-39
-1.9089587 1.6173288 -0.016981598 2.4892694e-39
-1.9048296 1.623215 -0.014048559 2.3027201e-39
-1.901968 1.6290157 -0.0031058851 1.8367099e-40
-1.9121475 1.6146785 -0.0094380984 2.8559009e-39
-1.90836 1.6204157 -0.0049968571 1.9332216e-39
-1.9044464 1.6259407 -0.0024948404 0
-1.9119546 1.6167533 1.6598449e-05 2.9491685e-39
-1.9080091 1.6227101 0.0045376578 1.1031204e-39
-1.9042004 1.6292833 0.013165264 2.8551849e-39
-1.9011058 1.6331697 0.012646933 1.1210388e-44
-1.9155173 1.6135226 0.0070490828 4.052642e-39
-1.9037628 1.6310141 0.019205427 1.8431867e-39
-1.9126161 1.6196444 0.019390738 4.3295807e-39
-1.9058574 1.6260946 0.0077095805 2.0225333e-39
-1.9087836 1.6233366 0.012946914 5.8951057e-39
-1.9123989 1.6139845 -0.011352616 2.8594714e-39
-1.9053593 1.6245221 -0.0037519473 4.5917748e-40
-1.8978863 1.6373557 0.012845453 0
-1.9279846 1.5950036 -0.0056727519 4.8824041e-39
-1.923825 1.6008694 -0.0030465536 4.9749515e-39
-1.9237553 1.5992141 -0.012079124 5.2533502e-39
-1.9319512 1.5898103 -0.0061052372 4.6065263e-39
-1.9227901 1.6010071 -0.0092363078 4.0529924e-39
-1.9259015 1.5993054 0.0027028609 5.2518887e-39
-1.8960836 1.6412274 0.02086498 2.8025969e-45
-1.8918428 1.6492622 0.034175664 1.1077741e-39
-1.8878971 1.655219 0.038696781 9.219563e-40
-1.8992848 1.6407189 0.039579466 3.6863861e-39
-1.8914596 1.651988 0.045729309 3.3183e-39
-1.8873718 1.6579505 0.049332339 4.0537182e-39
-1.8836968 1.6628388 0.050129224 4.1444845e-39
-1.8940097 1.6490134 0.047336031 4.3306695e-39
-1.8917866 1.6533556 0.054987401 3.7778474e-39
-1.8877201 1.6589841 0.057003595 3.9608009e-39
-1.8752216 1.6689731 0.025368961 0
-1.8937631 1.6470549 0.035553921 4.1480649e-39
-1.8887982 1.6534796 0.035703819 2.6714999e-39
-1.8862181 1.6552069 0.0274402 0
-1.8921974 1.6483953 0.032052103 1.836766e-40
-1.8833737 1.6607268 0.037043482 9.1835496e-41
-1.8849412 1.6600808 0.044151105 1.6573507e-39
-1.9041559 1.6347718 0.041275889 4.6987149e-39
-1.8968995 1.6464572 0.053374916 4.0555105e-39
-1.9004424 1.6324852 0.0046792841 9.18397e-41
-1.8966801 1.6388267 0.012415782 1.4012985e-45
-1.8941383 1.644565 0.025167884 1.2900115e-39
-1.899657 1.6370219 0.022925761 2.8558883e-39
-1.8961054 1.6431928 0.031182632 2.5782098e-39
-1.9024448 1.6346443 0.029208446 4.6965667e-39
-1.9013578 1.6326061 0.011409475 9.1835496e-41
-1.8982308 1.6405894 0.031880271 4.3317555e-39
-1.8997439 1.6409374 0.043771591 4.6061661e-39
-1.8431021 1.7231323 0.091520444 2.3048907e-39
-1.8395675 1.7293484 0.1001265 2.2126895e-39
-1.8554207 1.7121809 0.11697742 3.2246792e-39
-1.8511796 1.71823 0.1200083 3.1328437e-39
-1.8577783 1.7071584 0.10670112 3.1321123e-39
-1.8361381 1.7357143 0.1102085 2.1201323e-39
-1.8838283 1.658 0.025960423 0
-1.8801956 1.6634308 0.029848255 0
-1.8811644 1.6635351 0.036848329 4.2038954e-45
-1.8762871 1.6722165 0.049260087 1.8413945e-39
-1.8802328 1.6616714 0.020989818 0
-1.8733339 1.6741486 0.03956769 1.9361082e-39
-1.8761652 1.6720194 0.047426961 2.7647773e-39
-1.8786881 1.6677275 0.042033881 5.6051939e-45
-1.8852899 1.657735 0.034334496 3.6734759e-40
-1.8844299 1.6605256 0.043044869 2.578235e-39
-1.8804513 1.6660056 0.044879429 1.9339502e-39
-1.8634734 1.6911371 0.061751448 2.5814762e-39
-1.8752654 1.6753067 0.058443017 3.1306955e-39
-1.8721455 1.6801965 0.062947579 2.8562569e-39
-1.8686695 1.6858094 0.068822809 3.1324962e-39
-1.8790231 1.6722161 0.067501836 4.1444789e-39
-1.8748516 1.6781309 0.070300281 3.4101537e-39
-1.8717718 1.6831506 0.075747527 3.1317633e-39
-1.8644583 1.6869924 0.046865668 2.7658689e-39
-1.8600208 1.6934143 0.050514601 3.1342983e-39
-1.8584141 1.6977073 0.062022846 2.5839958e-39
-1.857928 1.7034836 0.088680416 3.0431522e-39
-1.8564272 1.7028832 0.075565457 2.4899897e-39
-1.8523771 1.7086061 0.078179576 2.765143e-39
-1.862389 1.6956636 0.077948391 2.6704265e-39
-1.8557662 1.7053598 0.083975509 2.303439e-39
-1.8674833 1.689683 0.080960624 3.1321361e-39
-1.8639365 1.6954111 0.086962044 3.1310389e-39
-1.85569 1.7077204 0.095686622 2.579663e-39
-1.8675244 1.6924149 0.095376916 3.6838441e-39
-1.8551706 1.7009215 0.057030726 2.6758383e-39
-1.8627982 1.6961511 0.083201766 2.9491461e-39
-1.8622772 1.6989667 0.094299644 3.9607967e-39
-1.848477 1.716332 0.092163175 1.3836407e-39
-1.8720182 1.6783011 0.052288752 2.3960074e-39
-1.8678157 1.6844934 0.056318834 2.6722383e-39
-1.8688961 1.6805705 0.043216709 2.5814776e-39
-1.8758255 1.6732823 0.051697973 2.4896295e-39
-1.871043 1.6804606 0.056964446 2.8587736e-39
-1.8774029 1.6726322 0.058850527 3.2261044e-39
-1.872963 1.6788368 0.061362043 3.1346514e-39
-1.8631998 1.6939306 0.074385405 2.1219274e-39
-1.859512 1.7024938 0.094118595 2.5796644e-39
-1.8744403 1.6831232 0.093399361 1.7531435e-39
-1.8642334 1.6977221 0.10090157 3.4094348e-39
-1.8662007 1.6877229 0.062264651 3.0424558e-39
-1.8681613 1.6860528 0.066693567 2.8594939e-39
-1.8247573 1.755867 0.13863267 1.1960251e-39
-1.8242158 1.754588 0.12840031 1.6573493e-39
-1.8295034 1.7461433 0.11995012 1.8417462e-39
-1.8310903 1.7465504 0.13263735 2.1183303e-39
-1.8413121 1.7339565 0.13561097 2.8548205e-39
-2.0229967 1.3741971 -0.51501751 2.2403531e-38
-2.053009 1.3446904 -0.46762207 2.3509886e-38
-2.0602338 1.3357579 -0.46568054 2.3509886e-38
-2.0834372 1.2933849 -0.53028142 2.2219138e-38
-2.0671117 1.3370221 -0.41327521 2.3325493e-38
-2.0702777 1.3344724 -0.40536207 2.2865232e-38
-2.0963395 1.2967474 -0.42684615 2.2681563e-38
-2.0935853 1.3012556 -0.42187649 2.2589366e-38
-2.0898705 1.3066167 -0.41889882 2.2773039e-38
-2.0732327 1.3321363 -0.39775011 2.2128033e-38
-2.1102586 1.2782602 -0.4297215 2.1113518e-38
-2.0929673 1.3061085 -0.40087894 2.1851802e-38
-2.1162779 1.2734025 -0.41472921 2.0190843e-38
-2.1125546 1.2790176 -0.41049263 2.0836933e-38
-2.1049933 1.2905064 -0.40144503 2.1022043e-38
-2.1117661 1.2824521 -0.39797452 2.0006452e-38
-2.1076534 1.2886605 -0.39326215 2.0098647e-38
-2.0924857 1.3118528 -0.3743583 2.0560346e-38
-2.08831 1.3184907 -0.36784384 2.0745816e-38
-2.1241574 1.2663497 -0.39869347 2.0374874e-38
-2.096225 1.3084615 -0.36697668 2.0375234e-38
-2.0921855 1.3148822 -0.36067984 2.0836575e-38
-2.1188202 1.2763389 -0.38257802 2.0283399e-38
-2.1278012 1.267377 -0.36907989 2.0006089e-38
-2.1339307 1.2593434 -0.36979055 1.9637666e-38
-2.1034794 1.3067867 -0.32727507 2.0468151e-38
-2.0311615 1.3697459 -0.48361388 2.0747264e-38
-2.1491921 1.2367698 -0.38486701 2.0005726e-38
-2.1218882 1.2654752 -0.41835126 2.0928401e-38
-2.1225891 1.2658182 -0.41190055 1.9821335e-38
-2.1343334 1.255415 -0.38743901 2.0005729e-38
-2.1389434 1.2528872 -0.36978179 1.9360717e-38
-2.1439986 1.2485355 -0.35859886 1.9728419e-38
-1.9909502 1.4201504 -0.49084938 1.9640923e-38
-1.9904995 1.421586 -0.48642564 1.9456529e-38
-1.9897544 1.4246835 -0.47536027 1.8717523e-38
-1.9930029 1.4218584 -0.46832219 1.7428224e-38
-2.008863 1.4070061 -0.43944228 2.0838016e-38
-1.9964381 1.4160938 -0.47525257 1.4850722e-38
-2.0009196 1.4116174 -0.46854126 1.475778e-38
-1.9984531 1.415702 -0.46384555 1.7242737e-38
-1.9949818 1.4210494 -0.45931381 1.7889552e-38
-2.0049145 1.4068489 -0.46658435 1.5403516e-38
-2.0033541 1.4123811 -0.44835538 1.8994103e-38
-2.0003991 1.4171491 -0.44337991 2.0929849e-38
-2.0049026 1.4113146 -0.44354993 1.7524032e-38
-2.0123227 1.4039514 -0.43218279 2.1483385e-38
-2.0159328 1.4006908 -0.4249891 2.1759972e-38
-2.0273762 1.3867019 -0.42109057 1.9826752e-38
-2.0230889 1.3930322 -0.41691276 1.964345e-38
-1.9860617 1.4251066 -0.49779311 2.3509886e-38
-1.9900345 1.423677 -0.47870308 1.8993369e-38
-1.9976022 1.4149721 -0.47329798 1.6874302e-38
-1.9938554 1.4202118 -0.47116062 1.8531322e-38
-1.9896235 1.4266003 -0.46631175 1.9821332e-38
-2.0020499 1.4127403 -0.45519209 1.8993012e-38
-2.0252442 1.3866445 -0.43560383 2.2403894e-38
-2.0402892 1.379024 -0.37472728 1.0879416e-38
-2.0383506 1.3827515 -0.36836085 1.668993e-38
-2.0467863 1.3747877 -0.35333252 2.1113158e-38
-2.0619256 1.3563073 -0.34803736 2.046815e-38
-2.0584671 1.3619635 -0.34182164 2.0837287e-38
-2.064472 1.3542275 -0.34182233 2.0375945e-38
-2.0808916 1.3391074 -0.31059843 1.9730221e-38
-2.0766907 1.3454493 -0.30578467 1.9084846e-38
-2.0862894 1.3371016 -0.28498796 1.9638382e-38
-2.0503747 1.3655628 -0.37715241 2.0280878e-38
-2.0228782 1.3714318 -0.53012013 2.3509886e-38
-2.0195384 1.3772626 -0.5222097 2.3509886e-38
-2.0342293 1.3566912 -0.5307278 2.3509886e-38
-2.0301716 1.3626412 -0.52698797 2.3509886e-38
-2.0270066 1.3677812 -0.52148765 2.3509886e-38
-2.0492535 1.3337033 -0.5495308 2.3509886e-38
-2.0467789 1.3383074 -0.54220104 2.3509886e-38
-2.0426724 1.3443425 -0.53834516 2.3509886e-38
-2.0376735 1.3536078 -0.52372181 2.2129838e-38
-2.0351181 1.357427 -0.52099299 2.1668498e-38
-2.0267546 1.370675 -0.50818992 1.9457244e-38
-2.055614 1.3258135 -0.54795694 2.2128763e-38
-2.0541039 1.3293161 -0.53989667 2.2957434e-38
-2.0496492 1.3360262 -0.53486782 2.2957073e-38
-2.0461087 1.3412979 -0.53119123 2.341769e-38
-2.042532 1.34665 -0.52733779 2.3509886e-38
-2.0399163 1.3515838 -0.51924312 2.3142183e-38
-2.0388536 1.3535513 -0.5161441 2.2957795e-38
-2.0345929 1.3605992 -0.50807542 2.2590096e-38
-2.030838 1.3659499 -0.50541878 2.2773765e-38
-2.05513 1.3299679 -0.52968127 2.3509886e-38
-2.0512385 1.3358037 -0.52542305 2.3509886e-38
-2.0471287 1.3419597 -0.5209648 2.3509886e-38
-2.0433545 1.3476068 -0.51690149 2.3509886e-38
-2.0389485 1.3545752 -0.51021284 2.3509886e-38
-2.0383441 1.3563362 -0.50512797 2.3509886e-38
-2.03478 1.3616382 -0.50145024 2.3509886e-38
-2.0282137 1.37108 -0.49636316 2.2221308e-38
-2.0600822 1.3229566 -0.53294998 2.3509886e-38
-2.0583739 1.3272657 -0.52203661 2.3509886e-38
-2.0542614 1.3333619 -0.51790619 2.3509886e-38
-2.0503523 1.3392248 -0.51362479 2.3509886e-38
-2.0464523 1.3450761 -0.50934541 2.3509886e-38
-2.0435112 1.3492944 -0.50712204 2.3509886e-38
-2.0412145 1.3535907 -0.50019902 2.3509886e-38
-2.039995 1.3559967 -0.4958773 2.2680485e-38
-2.0361845 1.3625964 -0.48712483 2.2958873e-38
-2.0330043 1.3670162 -0.48545507 2.2865602e-38
-2.0643017 1.3197734 -0.52129102 2.3509886e-38
-2.0612197 1.3247817 -0.51591986 2.3509886e-38
-2.0578907 1.3300389 -0.51090622 2.3509886e-38
-2.0528955 1.3371199 -0.50756133 2.3509886e-38
-2.0523355 1.3384665 -0.50432646 2.3509886e-38
-2.0484831 1.344373 -0.49944264 2.3509886e-38
-2.0453734 1.3488647 -0.49692926 2.341805e-38
-2.0414107 1.355285 -0.49012065 2.258865e-38
-2.0347388 1.3658931 -0.47970167 2.2681567e-38
-2.0672071 1.3166325 -0.51817501 2.3509886e-38
-2.062485 1.3236557 -0.51331031 2.3509886e-38
-2.0521441 1.3405311 -0.49491656 2.3509886e-38
-2.0478315 1.3471315 -0.48950851 2.3509886e-38
-2.0461643 1.3506312 -0.48251185 2.3509886e-38
-2.0420215 1.3568318 -0.47804242 2.3509886e-38
-2.0377326 1.3632669 -0.47333181 2.3141823e-38
-2.0688424 1.3160093 -0.51049656 2.3509886e-38
-2.0659449 1.3204796 -0.50667846 2.3509886e-38
-2.0616937 1.3268186 -0.50221407 2.3509886e-38
-2.0629621 1.3265058 -0.49537671 2.3509886e-38
-2.0561299 1.336946 -0.48689523 2.3509886e-38
-2.0520027 1.3431221 -0.48244804 2.3509886e-38
-2.0454686 1.3537886 -0.4708083 2.3509886e-38
-2.0409639 1.360626 -0.46545658 2.2957796e-38
-2.0645378 1.3247023 -0.49420494 2.3509886e-38
-2.0604739 1.3312391 -0.48746932 2.3509886e-38
-2.0539403 1.3420124 -0.47527251 2.3509886e-38
-2.0487096 1.3510334 -0.46345818 2.3509886e-38
-2.0434744 1.3587735 -0.45830408 2.2865602e-38
-2.0785642 1.3045012 -0.50523674 2.3509886e-38
-2.0764368 1.3090328 -0.49596757 2.3509886e-38
-2.0723188 1.3151945 -0.49153474 2.3509886e-38
-2.0684307 1.3210338 -0.48723555 2.3509886e-38
-2.0645504 1.3269988 -0.4822346 2.3509886e-38
-2.0603712 1.333094 -0.47855172 2.3509886e-38
-2.0575881 1.3381234 -0.47107807 2.3509886e-38
-2.0530431 1.3453568 -0.46394324 2.3509886e-38
-2.0472367 1.3552159 -0.45163137 2.2773767e-38
-2.0813622 1.3020499 -0.49926656 2.3509886e-38
-2.0794353 1.306327 -0.48997813 2.3509886e-38
-2.0757365 1.3121811 -0.48434103 2.3509886e-38
-2.0716159 1.3183454 -0.47991058 2.3509886e-38
-2.0679266 1.3238955 -0.47578427 2.3509886e-38
-2.0637925 1.3300793 -0.47134334 2.3509886e-38
-2.0603945 1.33644 -0.46107939 2.3509886e-38
-2.055958 1.3427085 -0.45821565 2.3509886e-38
-2.0521333 1.3487198 -0.45260397 2.3509886e-38
-2.0506704 1.3521069 -0.44482705 2.3142544e-38
-2.0847781 1.2990395 -0.492073 2.3509886e-38
-2.080862 1.3050842 -0.48689798 2.3509886e-38
-2.0781949 1.3094878 -0.4818888 2.3509886e-38
-2.0754888 1.3145711 -0.47362244 2.3509886e-38
-2.0733593 1.3177351 -0.47144583 2.3509886e-38
-2.0705001 1.3222791 -0.46699062 2.3509886e-38
-2.0683045 1.3255849 -0.46451962 2.3509886e-38
-2.0635605 1.3330259 -0.4576382 2.3509886e-38
-2.0596986 1.3389442 -0.45275745 2.3509886e-38
-2.0558362 1.3448629 -0.4478769 2.3509886e-38
-2.0541909 1.3477881 -0.4437058 2.3142185e-38
-2.0840623 1.3020421 -0.48130378 2.3509886e-38
-2.0824935 1.3047323 -0.47784001 2.3509886e-38
-2.0783875 1.3108341 -0.47363669 2.3509886e-38
-2.0761716 1.3155136 -0.46418983 2.3509886e-38
-2.0726733 1.3211207 -0.458496 2.3509886e-38
-2.0690598 1.3261913 -0.45634508 2.3509886e-38
-2.0673146 1.3294784 -0.45096773 2.3509886e-38
-2.0634513 1.3353983 -0.446087 2.3509886e-38
-2.0597568 1.3405277 -0.4441734 2.3509886e-38
-2.0567579 1.3458674 -0.43653071 2.3049991e-38
-2.0518589 1.3531611 -0.4314456 2.129973e-38
-2.1002207 1.2795981 -0.48972955 2.3509886e-38
-2.0925286 1.2909123 -0.48245811 2.3509886e-38
-2.0895376 1.2962337 -0.47485885 2.3509886e-38
-2.085156 1.3027554 -0.4703199 2.3509886e-38
-2.0811732 1.3086433 -0.46640098 2.3509886e-38
-2.0798082 1.3109351 -0.46364042 2.3509886e-38
-2.075268 1.319095 -0.4516786 2.3509886e-38
-2.0726531 1.3242153 -0.44261369 2.341805e-38
-2.0673401 1.3312978 -0.44138032 2.341805e-38
-2.0643449 1.3366362 -0.43372172 2.341805e-38
-2.0601904 1.3428473 -0.4292759 2.3049991e-38
-2.0556078 1.3496215 -0.42476839 2.1207534e-38
-2.1031268 1.2770588 -0.48349518 2.286415e-38
-2.0979378 1.2842644 -0.4807989 2.0656528e-38
-2.0927029 1.2935734 -0.46752381 2.341805e-38
-2.088141 1.3004879 -0.462152 2.341805e-38
-2.0840042 1.3066727 -0.45772439 2.3509886e-38
-2.0798669 1.3128579 -0.45329699 2.341805e-38
-2.0762198 1.3187027 -0.44736326 2.3142544e-38
-2.0748231 1.3223869 -0.43760672 2.3142544e-38
-2.0709572 1.3283104 -0.43272597 2.3050708e-38
-2.0677767 1.3336192 -0.4264549 2.3050349e-38
-2.0636199 1.3398329 -0.42201123 2.3049988e-38
-2.0585697 1.3474231 -0.41639841 2.102279e-38
-2.0636575 1.30804 -0.586317 2.3509886e-38
-2.0520487 1.3261999 -0.56973004 2.3509886e-38
-2.030525 1.3580581 -0.54835302 2.3509886e-38
-2.0263834 1.3643105 -0.54360759 2.3509886e-38
-2.0230803 1.3692583 -0.54002184 2.3509886e-38
-2.018908 1.3755568 -0.53524125 2.3509886e-38
-2.0147359 1.3818552 -0.53046066 2.3509886e-38
-2.0425477 1.3421623 -0.55046242 2.3509886e-38
-2.0390563 1.3474491 -0.54637861 2.3509886e-38
-2.0356107 1.3524785 -0.54332024 2.3509886e-38
-2.031251 1.3589237 -0.5390327 2.3509886e-38
-2.026891 1.3653686 -0.53474516 2.3509886e-38
-2.0143309 1.3847375 -0.51824373 2.3509886e-38
-2.038959 1.3498286 -0.53471059 2.3509886e-38
-2.0189323 1.3802559 -0.51075751 2.0930216e-38
-2.0592811 1.3217802 -0.54438096 2.3509886e-38
-2.0500798 1.3356261 -0.5340693 2.3509886e-38
-2.0218649 1.377905 -0.50337136 2.0561799e-38
-2.0260336 1.3761954 -0.4844231 2.3509886e-38
-2.0649838 1.3218153 -0.50617313 2.3509886e-38
-2.0737655 1.3110598 -0.50328761 2.3509886e-38
-2.0687234 1.318424 -0.49879155 2.3509886e-38
-2.0799415 1.3082504 -0.47664687 2.3509886e-38
-2.0478292 1.3568735 -0.43910119 2.2311714e-38
-2.096282 1.2874968 -0.47510895 2.3509886e-38
-2.1003702 1.2845666 -0.46301687 2.3509886e-38
-2.0953012 1.2918248 -0.45924768 2.3509886e-38
-2.0923383 1.2965035 -0.45478743 2.3509886e-38
-2.0886037 1.3020809 -0.45082182 2.3509886e-38
-2.0836022 1.3094063 -0.44625515 2.3509886e-38
-2.079834 1.3150325 -0.44226161 2.3509886e-38
-2.0990405 1.2884338 -0.45186627 2.341805e-38
-2.0949898 1.2946336 -0.44678697 2.3509886e-38
-2.0906365 1.3010621 -0.44253993 2.3509886e-38
-2.0869381 1.3066076 -0.43849739 2.3509886e-38
-2.0831821 1.3122234 -0.43447626 2.3509886e-38
-2.0787964 1.3186997 -0.43019763 2.3509886e-38
-2.0714977 1.3305453 -0.41755298 2.3233659e-38
-2.0628974 1.3432084 -0.40935653 2.20362e-38
-2.1009936 1.2875767 -0.44327894 2.2957792e-38
-2.0977421 1.2927343 -0.43826604 2.2865598e-38
-2.0939589 1.2982762 -0.43480623 2.304927e-38
-2.0909135 1.3029413 -0.43096554 2.3141826e-38
-2.0865276 1.3094181 -0.42668858 2.3141825e-38
-2.0821414 1.3158948 -0.42241153 2.3049629e-38
-2.0792317 1.321262 -0.41403329 2.3233659e-38
-2.0748453 1.3277391 -0.40975705 2.3141463e-38
-2.1059875 1.2826349 -0.43555832 2.2312421e-38
-2.1015813 1.2891502 -0.43121493 2.2312423e-38
-2.0854836 1.3130939 -0.41462335 2.2773042e-38
-2.0819688 1.3193823 -0.40551177 2.2680845e-38
-2.0776007 1.3257592 -0.40163127 2.2496814e-38
-2.1072628 1.2829399 -0.4254759 2.1943284e-38
-2.1023147 1.2904073 -0.41981852 2.2128033e-38
-2.0982037 1.2964325 -0.41604477 2.2220586e-38
-2.0943851 1.3020705 -0.41232485 2.2036558e-38
-2.0905466 1.307749 -0.40852869 2.2036556e-38
-2.0867152 1.314064 -0.40138972 2.1666695e-38
-2.0838647 1.318763 -0.39607516 2.2312064e-38
-2.0794768 1.3252413 -0.39180222 2.2035837e-38
-2.0751071 1.3318303 -0.38683546 2.2220952e-38
-2.1142361 1.2746584 -0.42184237 2.1205718e-38
-2.1061673 1.286804 -0.41278017 2.1391185e-38
-2.1011333 1.29412 -0.40847898 2.1759249e-38
-2.0973239 1.2997503 -0.40473938 2.1943999e-38
-2.0872111 1.3159585 -0.38827834 2.1759609e-38
-2.0828226 1.3224372 -0.38400689 2.1667056e-38
-2.0780575 1.3295014 -0.37921578 2.2129113e-38
-2.1095476 1.2838053 -0.40576255 2.0929131e-38
-2.1011918 1.2961302 -0.39768589 2.1114599e-38
-2.097168 1.3023522 -0.39231157 2.1390465e-38
-2.0905552 1.313157 -0.38047934 2.1575217e-38
-2.0861659 1.3196366 -0.37620947 2.1297914e-38
-2.0817766 1.326116 -0.37193957 2.2128753e-38
-2.0961075 1.3058798 -0.38112351 2.1298631e-38
-2.0857146 1.3225538 -0.36411989 2.1483748e-38
-2.0442927 1.3398447 -0.55082208 2.3509886e-38
-2.0178113 1.3780628 -0.52958345 2.3509886e-38
-2.013248 1.3846668 -0.5258311 2.3509886e-38
-2.0161593 1.3824776 -0.51774931 2.3509886e-38
-2.0506227 1.3407006 -0.50418329 2.3509886e-38
-2.0444071 1.3517194 -0.48859692 2.3509886e-38
-2.0701361 1.3165104 -0.49927664 2.3509886e-38
-2.0449581 1.3570189 -0.45749187 2.3509886e-38
-2.0478914 1.3548132 -0.44935015 2.3509886e-38
-2.064616 1.3326495 -0.45254886 2.3509886e-38
-2.0508242 1.352608 -0.44120848 2.3509886e-38
-2.0967319 1.2901667 -0.45828995 2.3509886e-38
-2.0704823 1.3282382 -0.43626541 2.3509886e-38
-2.0996435 1.2879773 -0.4502081 2.3509886e-38
-2.0665231 1.3402072 -0.40071407 2.2038365e-38
-2.0690668 1.3387676 -0.3912048 2.1577024e-38
-2.0753832 1.3335449 -0.37611949 2.3509886e-38
-2.1125491 1.2814453 -0.3979643 2.1297914e-38
-2.1094024 1.2861885 -0.39439386 2.1666695e-38
-2.1154604 1.279256 -0.3898825 2.1205718e-38
-2.1077383 1.2906359 -0.38247207 2.175889e-38
-2.0939467 1.310594 -0.37113175 2.2035479e-38
-2.0600178 1.3175799 -0.56120807 2.185325e-38
-2.0562143 1.322964 -0.55870301 2.3509886e-38
-2.0542467 1.3266759 -0.55261046 2.3509886e-38
-2.061008 1.318175 -0.55152601 2.1301518e-38
-2.0632696 1.3164042 -0.54561055 2.3509886e-38
-2.0666146 1.312799 -0.54196769 2.3509886e-38
-2.0637369 1.3174775 -0.53693986 2.3509886e-38
-2.0701644 1.3091356 -0.53725791 2.3509886e-38
-2.0671606 1.314446 -0.52980268 2.3509886e-38
-2.07004 1.3122752 -0.52183813 2.3509886e-38
-2.0767488 1.3034472 -0.52279741 2.3509886e-38
-2.0718567 1.3112653 -0.51495123 2.3509886e-38
-2.0795004 1.3009471 -0.51739055 2.3509886e-38
-2.0754311 1.3070016 -0.51318681 2.3509886e-38
-2.0751166 1.3085099 -0.50747567 2.3509886e-38
-2.086766 1.2923018 -0.51369172 2.3509886e-38
-2.0822518 1.298986 -0.50919485 2.3509886e-38
-2.0847406 1.2969377 -0.50320065 2.3509886e-38
-2.0895383 1.2927228 -0.49302649 2.3509886e-38
-2.087898 1.2961644 -0.48615047 2.3509886e-38
-2.0946743 1.2894416 -0.47576255 2.3050708e-38
-2.0515804 1.3289709 -0.55851012 2.3509886e-38
-2.0736692 1.3064497 -0.52779108 2.3509886e-38
-2.0811479 1.2996674 -0.51302803 2.3509886e-38
-2.0923662 1.2894939 -0.49088329 2.3509886e-38
-2.0999401 1.2820271 -0.47902849 2.3509886e-38
-2.1058979 1.2773898 -0.46330538 2.3325496e-38
-2.1030202 1.2826972 -0.45502165 2.341805e-38
-2.1106732 1.2735111 -0.45153856 2.2957072e-38
-2.1063337 1.2799187 -0.44730973 2.2956712e-38
-2.109446 1.2775818 -0.43865117 2.1943999e-38
-2.121439 1.2629541 -0.43439546 1.9544392e-38
-2.118578 1.2682489 -0.42606664 2.1297552e-38
-2.1680496 1.2220296 -0.33542165 2.3509886e-38
-2.0641129 1.3131497 -0.55683261 1.9272854e-38
-2.0673361 1.3103452 -0.54985785 2.2037646e-38
-2.0391684 1.3496209 -0.53438866 2.2406066e-38
-2.0301399 1.3647898 -0.51607764 2.0378834e-38
-2.020225 1.3724214 -0.54268914 2.3509886e-38
-2.0344131 1.3560621 -0.53275871 2.3509886e-38
-2.0620782 1.3281662 -0.49267584 2.3509886e-38
-2.0650115 1.3259608 -0.48453414 2.3509886e-38
-2.1016877 1.2769231 -0.49379265 2.3509886e-38
-2.0966623 1.2847311 -0.48688966 2.341805e-38
-2.0038948 1.4093626 -0.46037239 1.7796287e-38
-2.0119576 1.4004999 -0.45248276 1.9180305e-38
-2.007802 1.4066864 -0.4481729 1.9549082e-38
-2.0202379 1.3939172 -0.4313418 2.0654345e-38
-2.0042636 1.405937 -0.47564411 1.5680132e-38
-2.0079107 1.4028322 -0.46739557 1.8164347e-38
-2.0085239 1.4035316 -0.45968667 1.5958514e-38
-2.0179343 1.3934913 -0.44890746 2.0839456e-38
-2.0134459 1.4001822 -0.44420359 2.0838377e-38
-2.0169637 1.3970612 -0.43690038 2.1206797e-38
-2.0240424 1.3903214 -0.42458633 2.0838377e-38
-2.0201321 1.3952454 -0.42517322 2.1484831e-38
-2.0343411 1.3775853 -0.42183509 1.0704462e-38
-2.0280859 1.3896711 -0.40098998 2.0376348e-38
-2.0025814 1.4093699 -0.46909219 1.7332053e-38
-2.0478339 1.3710904 -0.36548382 2.1667052e-38
-2.0541234 1.3628696 -0.3660973 2.1574856e-38
-2.0219722 1.3902826 -0.43859133 2.2589008e-38
-2.0905797 1.330651 -0.2897678 1.7887391e-38
-2.0739276 1.3015749 -0.55129898 2.1758159e-38
-2.1268122 1.2568104 -0.43036726 1.9545834e-38
-2.1170795 1.2628081 -0.46422058 2.2772674e-38
-2.0804083 1.2958642 -0.53764391 2.1758532e-38
-2.0555062 1.3200556 -0.57847744 2.1481943e-38
-2.1123748 1.2676474 -0.47054365 2.1944005e-38
-2.0779221 1.2975204 -0.5456506 2.1297553e-38
-2.0760283 1.3023216 -0.53342837 2.3509886e-38
-2.08303 1.2933345 -0.53325766 1.835201e-38
