# .PCD v0.7 - Point Cloud Data file format
VERSION 0.7
FIELDS x y z rgb
SIZE 4 4 4 4
TYPE F F F F
COUNT 1 1 1 1
WIDTH 1049
HEIGHT 1
VIEWPOINT 0 0 0 1 0 0 0
POINTS 1049
DATA ascii
2.8428333 1.2455769 -0.4056409 1.7033462e-38
2.6515436 1.2339572 -0.37865925 1.9061019e-38
2.6918151 1.242981 -0.40042946 1.869081e-38
2.646455 1.237345 -0.3869848 1.952129e-38
2.6866429 1.2464246 -0.40889221 1.8875202e-38
2.6413662 1.2407327 -0.39531028 1.9152862e-38
2.6814702 1.2498683 -0.41735512 1.9244334e-38
2.6362777 1.2441206 -0.40363583 1.9152862e-38
2.8050544 1.2707286 -0.46745098 1.8505696e-38
2.6762977 1.253312 -0.42581797 1.9151782e-38
2.6711249 1.2567557 -0.43428084 1.9243261e-38
2.6659524 1.2601994 -0.44274366 1.9152862e-38
2.7627723 1.2778634 -0.4852227 1.8967397e-38
2.705497 1.2741152 -0.47648597 1.9613486e-38
2.6805258 1.2705947 -0.46806273 1.9613486e-38
2.6556075 1.2670867 -0.45966935 1.979895e-38
1.8467826 1.1760628 -0.24310744 1.2148874e-38
2.7240994 1.324625 -0.59990126 2.0075913e-38
2.6127131 1.3157417 -0.57901102 2.053832e-38
1.8062233 1.188401 -0.27359456 9.4759263e-39
2.6518452 1.3307495 -0.61542785 2.0907098e-38
2.6465392 1.3342819 -0.62410849 2.090638e-38
2.4962428 1.3566594 -0.67998075 2.1552465e-38
1.6529523 1.2173125 -0.34547251 1.315582e-38
2.3360102 1.3781899 -0.73385632 2.2010925e-38
1.5974976 1.2460548 -0.4161993 1.879125e-38
2.1585057 1.3748974 -0.72714043 2.1088225e-38
2.7244084 1.3182535 -0.58431333 1.4647172e-38
1.7998201 1.1847225 -0.26464486 0
1.7633358 1.1909417 -0.28013289 0
1.7530688 1.1942327 -0.28826055 1.5612034e-39
2.3995998 1.3318589 -0.62004322 1.639493e-38
2.3112779 1.3147287 -0.57880616 1.6761908e-38
2.3926528 1.3340856 -0.62554276 1.6672237e-38
1.9539831 1.2479928 -0.41825217 1.5103093e-38
1.7169384 1.2003512 -0.30350018 1.4693679e-39
2.0337729 1.2699502 -0.47136214 1.6484226e-38
2.3904903 1.3446088 -0.65130043 1.704066e-38
2.3648653 1.3429928 -0.64754027 1.7223612e-38
2.3764949 1.3490949 -0.6623795 1.7408003e-38
2.357918 1.3452195 -0.65303987 1.7223606e-38
2.2544627 1.3241429 -0.60226285 1.722216e-38
2.0999269 1.2928437 -0.52686507 1.703705e-38
2.3509712 1.3474463 -0.65853924 1.7408356e-38
2.3440244 1.349673 -0.6640386 1.7316876e-38
2.0874689 1.296837 -0.53672701 1.6853735e-38
1.7878972 1.2349278 -0.38754523 1.528674e-38
2.1553524 1.3141693 -0.57861328 1.6577877e-38
2.1643031 1.3195536 -0.59171665 1.7129949e-38
1.8500086 1.2567164 -0.44037569 1.6023954e-38
2.3457623 1.3687991 -0.71081114 1.7684217e-38
2.3275115 1.3647959 -0.70115638 1.7316158e-38
1.7299113 1.2371475 -0.39341199 1.6205825e-38
1.6377772 1.2164299 -0.34342822 1.0404372e-38
2.320514 1.367039 -0.70669597 1.713069e-38
2.3023427 1.3630337 -0.69703519 1.7590947e-38
2.3316655 1.3733176 -0.7219705 1.7683501e-38
2.288449 1.3674871 -0.70803416 1.7407978e-38
1.6648705 1.2315474 -0.38020366 1.6297655e-38
2.2785282 1.380497 -0.73993331 1.7590571e-38
1.9587349 1.3088114 -0.56698936 1.7496934e-38
1.8114297 1.2756515 -0.48698488 1.6299462e-38
1.6827539 1.2467098 -0.41715875 1.6482399e-38
2.2715306 1.38274 -0.74547279 1.768277e-38
2.0064936 1.3227928 -0.60082972 1.7221428e-38
2.275279 1.3913916 -0.766608 1.8513629e-38
2.1905298 1.3720009 -0.71981388 1.7682419e-38
1.7387971 1.2683799 -0.46974489 1.7125267e-38
2.2682307 1.3936509 -0.77218765 1.8882057e-38
2.0163474 1.3355371 -0.63193023 1.6851935e-38
2.24354 1.3917122 -0.76763111 1.7867161e-38
2.0827513 1.354419 -0.67761803 1.7129227e-38
1.9155453 1.3154651 -0.58359081 1.7589838e-38
2.1701281 1.3785404 -0.73596448 1.805011e-38
1.7888008 1.2956487 -0.53607225 1.7495841e-38
1.9784842 1.3476738 -0.66190392 1.7038104e-38
2.090879 1.4132597 -0.82149154 1.8511085e-38
1.965286 1.3848395 -0.75291741 1.8600397e-38
2.0205169 1.4264967 -0.85440165 1.9521628e-38
1.72237 1.4046929 -0.80331361 9.4950162e-39
1.7554873 1.4187534 -0.83745855 1.105803e-38
1.7249699 1.4088886 -0.81355739 9.8637959e-39
1.7156922 1.4056226 -0.80563837 3.2264393e-39
1.7628489 1.4280003 -0.86002249 1.1241342e-38
1.7620643 1.4270535 -0.85771227 1.0690297e-38
1.7511303 1.4232626 -0.84852141 9.4950162e-39
1.7551543 1.4280156 -0.86011785 9.2177231e-39
1.7591046 1.4327916 -0.8717711 8.9407873e-39
1.7729815 1.4411927 -0.8922171 1.0782124e-38
1.8720222 1.1469913 -0.17180316 1.0586947e-38
1.8682393 1.1494865 -0.17793562 1.0494389e-38
1.9837714 1.1878154 -0.27082387 1.5560817e-38
1.8773209 1.1812717 -0.25561923 1.6939766e-38
2.5281723 1.3374662 -0.63279051 1.9341568e-38
2.4399979 1.3637397 -0.6977244 2.072199e-38
2.4330313 1.3708141 -0.71508217 2.0630149e-38
1.7466601 1.3817997 -0.74712998 1.5015227e-38
1.8174708 1.1611592 -0.20687178 8.2867438e-39
1.7671363 1.1722776 -0.23444864 8.0115821e-39
1.6710956 1.2135351 -0.33609569 1.3902401e-38
2.4871464 1.0775859 0.0026118341 1.0773487e-38
2.416261 1.0901076 -0.028552571 9.4863996e-39
2.406492 1.0935003 -0.036925402 7.9284234e-39
2.3811095 1.095412 -0.04179313 1.4000325e-38
2.3604114 1.1002834 -0.053865239 1.5935021e-38
2.3644185 1.1040522 -0.063054413 1.2890044e-38
2.3495216 1.1062828 -0.068623386 1.2612006e-38
2.1301818 1.0998493 -0.054539673 1.0123429e-39
2.2837648 1.1121548 -0.083483167 1.1781528e-38
2.0974395 1.1033477 -0.06334386 6.0722859e-39
2.1970062 1.1266307 -0.11954743 1.4458801e-38
2.1907215 1.1286937 -0.1246414 1.215136e-38
2.0175383 1.1165484 -0.096237786 1.1049744e-38
2.1845582 1.1328743 -0.13491412 1.1597492e-38
2.003329 1.1186372 -0.10145413 9.300551e-39
2.3944457 1.1541876 -0.18546785 1.7496571e-38
2.3694625 1.1518422 -0.17991896 1.7588047e-38
1.9924806 1.1228486 -0.11183788 1.1508559e-38
2.8491244 1.1921933 -0.2750082 9.4853641e-39
2.3927 1.1574914 -0.19356278 1.7588759e-38
2.1277866 1.1360708 -0.14316162 1.4730706e-38
1.9573017 1.1282586 -0.12533677 1.1231608e-38
1.934662 1.1353511 -0.1428571 1.0770984e-38
2.0491138 1.151402 -0.18125717 1.3716917e-38
1.8719852 1.1497997 -0.17867342 1.0402199e-38
1.8545425 1.1601785 -0.20419353 1.0309997e-38
2.6983032 1.2495198 -0.41637573 1.3812721e-38
2.6980231 1.2488246 -0.41467735 1.6757946e-38
2.10022 1.1899568 -0.27518368 1.7033785e-38
2.0204284 1.1827539 -0.25816596 1.703234e-38
2.0056195 1.180926 -0.25380605 1.7124533e-38
2.0038302 1.1837779 -0.26079568 1.6848666e-38
2.1684346 1.2030361 -0.30666372 1.6758285e-38
1.9931748 1.1849051 -0.26363349 1.6296932e-38
2.7653043 1.2654375 -0.45480812 1.6388789e-38
2.1496437 1.2038103 -0.30869928 1.6573531e-38
2.0415082 1.1954707 -0.28911409 1.6388761e-38
2.706996 1.2675911 -0.46051553 1.3627982e-38
2.641531 1.2617127 -0.44662935 1.7311467e-38
2.2049477 1.2156998 -0.33736587 1.7126345e-38
2.1584525 1.2097844 -0.32324618 1.7217459e-38
2.1347201 1.2080473 -0.31917596 1.6757555e-38
2.1182487 1.2059309 -0.31412318 1.7033782e-38
2.0785832 1.2040174 -0.30974165 1.7032348e-38
1.9620364 1.1926266 -0.28275621 1.6755755e-38
1.9475256 1.190716 -0.27819204 1.7032334e-38
2.3100748 1.2333304 -0.37970066 1.7679521e-38
2.2384987 1.2240973 -0.35765445 1.7678798e-38
2.1308668 1.2141017 -0.33401504 1.6849392e-38
2.0710964 1.2062991 -0.31537923 1.7124897e-38
1.9456899 1.1935073 -0.28503397 1.6940499e-38
1.8584951 1.1844144 -0.26344857 1.0855251e-38
2.5632102 1.2621068 -0.44818398 1.8509292e-38
2.6320832 1.160024 -0.19795316 1.8878467e-38
2.5104945 1.1686132 -0.21988028 1.8618463e-38
2.1828735 1.1377298 -0.1468042 1.7861365e-38
2.5088401 1.1723121 -0.22894126 1.5651592e-38
2.7625184 1.2176889 -0.33802772 1.7676283e-38
1.9336426 1.1855899 -0.26575741 1.8045043e-38
2.4757588 1.2580755 -0.43898225 1.9522719e-38
2.2807319 1.2369622 -0.38880613 1.8599673e-38
2.2361238 1.2308005 -0.37406972 1.8599669e-38
2.0524919 1.2070524 -0.31736228 1.7953932e-38
2.3448548 1.2496104 -0.41926229 1.9059938e-38
2.233134 1.2339789 -0.3818672 1.8691867e-38
2.1892109 1.2278509 -0.36720806 1.878441e-38
2.1714938 1.2253692 -0.36127102 1.8322723e-38
2.1284096 1.221063 -0.35106236 1.7954655e-38
1.9447321 1.1968565 -0.29323396 1.7768822e-38
2.6910079 1.2982904 -0.53573197 1.7499824e-38
2.3927135 1.2581896 -0.43988743 1.9707102e-38
2.3417175 1.2529329 -0.42741314 1.9060652e-38
2.2746708 1.2434394 -0.40469614 1.8967735e-38
2.2301352 1.237156 -0.38966173 1.8508555e-38
2.1862493 1.230968 -0.37485564 1.8967362e-38
2.28146 1.2481887 -0.41626236 1.8784783e-38
2.174427 1.232916 -0.37970993 1.8967011e-38
2.1311519 1.2284632 -0.36914369 1.8231243e-38
1.9261574 1.2006583 -0.30267382 1.7861009e-38
1.8462198 1.1888745 -0.27445135 1.2784147e-38
2.5837667 1.2913387 -0.51953518 1.9893661e-38
2.2777619 1.2513705 -0.42407361 1.8876618e-38
2.1714797 1.2360227 -0.38733155 1.9059565e-38
1.8124427 1.1890533 -0.27514327 1.1502396e-38
2.5803452 1.2949691 -0.52844191 1.9985502e-38
1.8600757 1.1973015 -0.29496056 1.8782946e-38
2.5769138 1.2985983 -0.53734535 1.9801473e-38
2.1655576 1.2422322 -0.40256569 1.9244672e-38
1.8875514 1.2048993 -0.31333917 1.7401116e-38
1.8061239 1.1939198 -0.28709534 1.1406614e-38
2.1625834 1.2453351 -0.41017839 1.9336503e-38
1.9360346 1.2149132 -0.33746946 1.776882e-38
1.7913988 1.195153 -0.29022285 1.150312e-38
2.3844213 1.2802101 -0.49381593 1.9522715e-38
2.2661536 1.2644364 -0.45612249 1.9152842e-38
2.1164587 1.2437438 -0.40663329 1.8969871e-38
2.5564494 1.309443 -0.56402767 1.759166e-38
2.0037425 1.2300615 -0.37401402 1.7954292e-38
1.9379779 1.2217768 -0.3542442 1.7770261e-38
1.9235183 1.2195574 -0.34892416 1.7769542e-38
2.6132584 1.3250113 -0.60168171 1.8787678e-38
2.2026684 1.2658916 -0.4601607 1.979786e-38
2.0603917 1.2456332 -0.4116784 1.8875169e-38
1.9548376 1.229215 -0.37231207 1.8322361e-38
2.6115084 1.3289242 -0.61126673 1.8512536e-38
2.5526915 1.320587 -0.59131622 1.7500554e-38
1.9319087 1.2288746 -0.37165231 1.8323066e-38
2.1965663 1.2722342 -0.47572199 1.9706376e-38
1.7170911 1.2039766 -0.31236735 1.2150673e-38
2.1415396 1.2712002 -0.4736073 1.7405458e-38
1.7149928 1.2071841 -0.32022879 1.1596052e-38
2.3644037 1.3090153 -0.5644294 1.8880239e-38
1.8959368 1.2371026 -0.39205065 1.7034867e-38
1.7118423 1.2095206 -0.32596841 1.2052344e-38
2.2217288 1.2936342 -0.52788001 1.8051546e-38
2.4139268 1.3262941 -0.60632259 1.9984418e-38
2.3410904 1.3164219 -0.58272272 1.7591658e-38
2.1280522 1.282968 -0.50249511 2.0074796e-38
1.8566569 1.2410363 -0.40196928 1.8600019e-38
1.793155 1.2302969 -0.37617755 1.8691491e-38
1.6931809 1.2149614 -0.33941835 1.4263967e-38
2.2321873 1.3021101 -0.54853463 1.9891498e-38
2.1250331 1.2860717 -0.51011002 2.0074797e-38
1.9706082 1.2652384 -0.46031284 1.9521251e-38
1.9343553 1.2590368 -0.44541568 1.860038e-38
1.6671535 1.2167779 -0.34405813 1.2052705e-38
2.3888156 1.3383106 -0.63590646 2.016917e-38
2.16189 1.3025229 -0.55007458 1.8417814e-38
2.0290334 1.2803893 -0.49693406 1.9797849e-38
2.0099061 1.2769914 -0.48876595 1.8785139e-38
1.9219123 1.2636598 -0.45681843 1.8692216e-38
1.8897564 1.258082 -0.4434166 1.8139404e-38
1.7470349 1.2348236 -0.38759869 1.8782972e-38
1.6485442 1.2189318 -0.34946701 1.0215272e-38
2.1603992 1.3058562 -0.55823964 1.841817e-38
1.9700063 1.2754545 -0.4853076 1.9981157e-38
1.9190857 1.2665045 -0.46379822 1.8599662e-38
2.266995 1.3270718 -0.60933286 1.8603637e-38
1.8828365 1.2634008 -0.4564791 1.9059919e-38
1.6220976 1.2206147 -0.35378289 1.168934e-38
2.1574183 1.3125228 -0.5745697 1.805011e-38
2.0202332 1.2893478 -0.51891398 1.9429791e-38
1.9664897 1.2797769 -0.49590752 1.9705294e-38
1.6233875 1.2237703 -0.36149228 1.140913e-38
2.20242 1.3234484 -0.60095656 1.9062107e-38
2.1559279 1.3158561 -0.58273464 1.8049744e-38
2.017282 1.2923321 -0.52623653 1.9705652e-38
1.9635937 1.282686 -0.50304538 1.9888965e-38
1.6901289 1.2369517 -0.39323321 1.8690412e-38
1.9606894 1.2855942 -0.51018113 1.9796052e-38
1.7706385 1.2547078 -0.43606079 1.896772e-38
1.962512 1.2898939 -0.5206852 1.8139056e-38
1.9511446 1.2873887 -0.51464272 1.961274e-38
1.8791943 1.2760755 -0.48751137 1.8968097e-38
2.3859923 1.3656893 -0.70290083 1.8420337e-38
1.9136232 1.2838764 -0.50633395 1.9429421e-38
1.876382 1.278886 -0.49440724 1.9427266e-38
1.659054 1.2433132 -0.40902892 1.8782605e-38
1.6059891 1.2347387 -0.38845435 1.353325e-38
1.6025428 1.2392216 -0.3994461 1.3906351e-38
2.3193431 1.3783766 -0.7344389 1.9431966e-38
1.9425083 1.3086809 -0.56679207 1.7311814e-38
1.5989374 1.2470634 -0.41865554 1.5658066e-38
2.2878692 1.3770324 -0.73138767 1.9247927e-38
1.9271928 1.3107278 -0.57191461 1.8693661e-38
1.6082751 1.2515197 -0.42948624 1.6114721e-38
1.6917248 1.2691385 -0.47195533 1.8875527e-38
2.0896506 1.3457259 -0.6563012 1.7588407e-38
1.9228789 1.3142886 -0.58065772 1.8969889e-38
2.2802284 1.3845919 -0.7499373 1.9708185e-38
1.8945887 1.3144615 -0.58129364 1.9152837e-38
1.61901 1.2628679 -0.45716497 1.6300548e-38
2.2732649 1.3870959 -0.75611526 1.9155733e-38
1.8381788 1.3064721 -0.56217545 1.7219619e-38
2.028687 1.3452921 -0.65569955 1.7127791e-38
1.6286246 1.2688148 -0.47163954 1.7312539e-38
1.8802894 1.3199811 -0.59490359 1.9428347e-38
1.6433539 1.2753016 -0.48739606 1.712563e-38
1.6180948 1.271196 -0.47754368 1.4828673e-38
1.6315806 1.2756152 -0.48825234 1.6393464e-38
1.6428542 1.2812053 -0.5018416 1.795647e-38
1.7785236 1.3105451 -0.5725885 1.6665371e-38
1.678789 1.2919259 -0.52779484 1.8875524e-38
1.7820576 1.316733 -0.58769864 1.7128141e-38
1.6464268 1.2905877 -0.52476561 1.5656985e-38
1.6369205 1.2917717 -0.52773315 1.538294e-38
1.6335071 1.2939568 -0.5331043 1.5475496e-38
2.1734185 1.4060881 -0.80332571 1.7497661e-38
1.7323333 1.3166378 -0.58784068 1.7310376e-38
1.6610297 1.301869 -0.55225146 1.7591653e-38
2.1467533 1.4090315 -0.810727 1.9430518e-38
2.1121616 1.4097841 -0.81282884 1.8970622e-38
1.8194178 1.3465639 -0.66038877 1.7864269e-38
2.0647447 1.4088858 -0.81098914 1.6115447e-38
1.6819239 1.3275472 -0.61490703 1.8147343e-38
1.6815487 1.3304862 -0.62209904 1.7503783e-38
1.6772497 1.3323224 -0.62662351 1.4468187e-38
2.0479293 1.4197628 -0.83772266 1.9337239e-38
1.987343 1.4056815 -0.80373436 1.8876977e-38
1.6869935 1.3404344 -0.6463933 1.5200721e-38
2.0344758 1.4250598 -0.85078174 1.9153933e-38
2.0331328 1.4282029 -0.8584801 1.9153928e-38
1.7393652 1.3706859 -0.71999878 1.8697998e-38
1.8818994 1.4128147 -0.82197851 1.5653389e-38
1.9248278 1.4470785 -0.90546954 1.9337954e-38
1.8860073 1.4524271 -0.91884613 1.9154284e-38
1.8771057 1.4549977 -0.925201 1.9708536e-38
2.3309226 1.1007025 -0.055113051 1.6489991e-38
2.2568455 1.2336848 -0.38096887 1.9151756e-38
2.2523444 1.2366815 -0.38833323 1.9520181e-38
2.467999 1.2849258 -0.5047214 2.0353556e-38
2.1919739 1.2719762 -0.47512555 1.9246127e-38
2.5382082 1.3390144 -0.63650185 1.9711085e-38
2.1932039 1.3616678 -0.69451714 1.9982614e-38
1.7792279 1.1710895 -0.23145115 8.4686169e-39
1.7741761 1.1727087 -0.23545036 8.285655e-39
2.3816855 1.3282505 -0.61135167 1.648712e-38
2.4393625 1.3578426 -0.68330383 1.7408003e-38
2.4322069 1.3601362 -0.6889683 1.7591671e-38
2.340291 1.3415191 -0.64412099 1.6856624e-38
2.3264928 1.3459419 -0.65504396 1.7223962e-38
2.1399462 1.3108739 -0.57066792 1.6577874e-38
2.0951812 1.3252228 -0.60610551 1.6944849e-38
1.6072395 1.2316623 -0.38091952 1.0677707e-38
2.0008581 1.3636909 -0.70091593 1.7957549e-38
2.507278 1.0720397 0.016330518 1.1786966e-38
2.511245 1.0815523 -0.0069089336 1.5757492e-38
2.4714413 1.0799202 -0.0032164564 1.2431977e-38
2.4276912 1.0826445 -0.010210657 6.8091124e-39
2.551445 1.0917504 -0.031551972 8.391638e-39
2.533138 1.0900033 -0.027416056 5.810131e-39
2.4976537 1.0882343 -0.023356879 3.8700318e-39
2.4157188 1.0873071 -0.021706358 1.5612034e-39
2.4095404 1.0937254 -0.037453078 1.2994536e-38
2.3951616 1.096099 -0.04336796 5.9941186e-39
2.3985951 1.0997212 -0.052202314 7.3730832e-39
2.3970225 1.1030031 -0.060242668 8.937874e-39
2.3773165 1.1015471 -0.056829367 1.2891136e-38
2.3896804 1.1059557 -0.067520238 1.022787e-38
2.364938 1.1041075 -0.063185915 1.5470802e-38
2.288626 1.099857 -0.053363521 1.2989458e-38
2.3881207 1.1092294 -0.075540297 1.2897935e-38
2.3684416 1.1077206 -0.071997754 1.7957552e-38
2.3498895 1.1060941 -0.068159021 1.2980445e-38
2.3926175 1.1117264 -0.081614241 9.7694143e-39
2.3616343 1.1106719 -0.079268456 1.7773153e-38
2.3361268 1.1085086 -0.074168682 1.1323089e-38
2.3418601 1.1126971 -0.084371604 1.7126328e-38
2.3958025 1.1183475 -0.097786531 9.311313e-39
2.3343456 1.1152202 -0.090600073 1.8694022e-38
2.3157425 1.1137193 -0.087068908 1.5649773e-38
2.1044896 1.1009152 -0.057340354 1.8370687e-39
2.3284485 1.1180609 -0.097593494 1.8325611e-38
2.305023 1.1161542 -0.093105726 1.7311077e-38
2.2885332 1.1146796 -0.089623004 1.0951049e-38
2.276051 1.1147952 -0.089999907 1.1782228e-38
2.0959427 1.103225 -0.063054964 6.6250939e-39
2.3723862 1.122521 -0.10817223 1.7682401e-38
2.2900612 1.1178563 -0.097382016 1.3991999e-38
2.0811384 1.1050048 -0.067520477 1.2523791e-38
2.3315701 1.1236773 -0.11130832 1.7957193e-38
2.3030398 1.1211414 -0.10532035 1.8509644e-38
2.2799151 1.1192077 -0.1007644 1.7400761e-38
2.2758386 1.1214166 -0.10619842 1.7125968e-38
2.2527769 1.1194628 -0.10159335 1.3713318e-38
2.2359428 1.118003 -0.098149255 1.2796035e-38
2.3299377 1.1268851 -0.11916742 1.7864993e-38
2.3071783 1.1249206 -0.11453388 1.8325607e-38
2.2756948 1.1231047 -0.1103289 1.5930702e-38
2.2560563 1.1229864 -0.11018788 1.5557228e-38
2.0653377 1.10982 -0.07941822 1.2247201e-38
2.2989814 1.1275345 -0.12098954 1.8509279e-38
2.2746353 1.1254125 -0.11598244 1.8325961e-38
2.2598195 1.1251326 -0.11540908 1.4177822e-38
2.2446406 1.1253527 -0.11606241 1.5833074e-38
2.2269034 1.1237919 -0.11237811 1.2609119e-38
2.038801 1.1104159 -0.081076302 1.2246494e-38
2.3080783 1.1317582 -0.13125293 1.814122e-38
2.284903 1.1297214 -0.12644513 1.8325256e-38
2.256747 1.1272091 -0.12051198 1.8508922e-38
2.2144516 1.1250485 -0.11554573 1.1963416e-38
2.0444362 1.1131756 -0.087784432 1.132634e-38
2.3652592 1.1391033 -0.14878896 1.7496209e-38
2.3199582 1.136122 -0.14183766 1.7864996e-38
2.3025866 1.1345823 -0.13820244 1.8141217e-38
2.2771521 1.1323178 -0.13285467 1.8049018e-38
2.2551432 1.1303269 -0.12815058 1.7957535e-38
2.2335451 1.1283716 -0.12353058 1.8233767e-38
2.2137051 1.1276914 -0.12201619 1.1225096e-38
2.2056284 1.1274446 -0.12147355 1.1504957e-38
2.0218048 1.1136594 -0.089138307 1.1602195e-38
2.6840334 1.1642376 -0.20786837 1.7033447e-38
2.5751672 1.1586255 -0.19496086 9.8458299e-39
2.3475266 1.139913 -0.1509034 1.6760457e-38
2.3248131 1.1399276 -0.15111049 1.7681319e-38
2.3009508 1.1377637 -0.145997 1.786535e-38
2.280473 1.1359047 -0.14160407 1.7864987e-38
2.2535176 1.1334435 -0.13578659 1.7864624e-38
2.2319543 1.1314625 -0.13110341 1.8417074e-38
2.2136123 1.1310124 -0.13014068 1.6023244e-38
2.204191 1.1300081 -0.12775521 1.1867954e-38
2.017957 1.116273 -0.095561005 1.1693669e-38
2.6106346 1.1632516 -0.20601024 1.7221838e-38
2.5952585 1.1620408 -0.20316429 1.4828329e-38
2.3922873 1.1465865 -0.16689058 1.6207979e-38
2.3790975 1.1457375 -0.16491309 1.7404734e-38
2.3485627 1.1429192 -0.15824924 1.7588413e-38
2.3219051 1.1430486 -0.15876673 1.768096e-38
2.3031001 1.1413115 -0.15465932 1.8048663e-38
2.27881 1.1390555 -0.14932376 1.8048664e-38
2.2518709 1.1365588 -0.14341985 1.7956101e-38
2.2166615 1.1338376 -0.13702844 1.6116503e-38
2.2107322 1.1339345 -0.13731061 1.7864243e-38
2.0076809 1.1182623 -0.10050454 1.1601472e-38
2.6340802 1.1681317 -0.2177707 1.7031998e-38
2.597306 1.1653755 -0.21130583 1.8049075e-38
2.5544405 1.1617622 -0.20279042 1.0402207e-38
2.4054079 1.1515841 -0.17901674 1.1054731e-38
2.3898129 1.1501557 -0.17563987 1.6575332e-38
2.3773582 1.149012 -0.17293601 1.7404374e-38
2.3468676 1.1461551 -0.16617754 1.7496213e-38
2.320776 1.1445903 -0.16254678 1.5288204e-38
2.3022854 1.1432691 -0.15945415 1.5563349e-38
2.2830455 1.142877 -0.15864003 1.7956107e-38
2.2706318 1.141219 -0.15467805 1.712815e-38
2.2521195 1.1399705 -0.15176356 1.8139418e-38
2.2340384 1.1382738 -0.14774965 1.8323809e-38
2.2091002 1.1370054 -0.14483488 1.8508913e-38
2.1920345 1.1353972 -0.14102918 1.6754671e-38
2.1771832 1.1341239 -0.13802698 1.0766636e-38
1.9925684 1.1198896 -0.10459912 1.1508923e-38
2.4324014 1.1564318 -0.19067155 1.679253e-39
2.4221492 1.1561605 -0.19008505 1.0869606e-38
2.4032023 1.1549834 -0.18734841 1.6022144e-38
2.3430762 1.1493458 -0.17401102 1.7588763e-38
2.30674 1.145957 -0.16599569 1.7128154e-38
2.2862673 1.1458842 -0.16597164 1.7404022e-38
2.2769871 1.1456237 -0.16540471 1.7956107e-38
2.2554836 1.1435605 -0.16052005 1.8047941e-38
2.2309108 1.1423305 -0.15769635 1.8140498e-38
2.2039733 1.1397268 -0.15153006 1.8140495e-38
2.190392 1.138445 -0.14849713 1.8324155e-38
2.1706617 1.136483 -0.14384645 1.104573e-38
2.6991887 1.1810995 -0.24900128 1.721783e-38
2.6623557 1.1776446 -0.2408275 1.7585166e-38
2.637413 1.1762099 -0.23750624 1.7584443e-38
2.5999401 1.1731646 -0.23033941 1.7767764e-38
2.5718727 1.170503 -0.22404043 1.804687e-38
2.4169688 1.1585946 -0.19607824 1.096076e-38
2.4014776 1.1582993 -0.19547275 1.6297302e-38
2.3390148 1.1522818 -0.1812239 1.6943758e-38
2.3209059 1.1506007 -0.177248 1.777244e-38
2.3102326 1.1500424 -0.17596297 1.7496208e-38
2.2670166 1.1471934 -0.16931979 1.7128151e-38
2.2588634 1.1471683 -0.16931936 1.8047942e-38
2.2388225 1.1458203 -0.16617298 1.7771355e-38
2.2160571 1.1437675 -0.16132328 1.7771714e-38
2.1993828 1.1426363 -0.15868188 1.8048295e-38
2.1823986 1.1409879 -0.15477799 1.8323091e-38
2.1646512 1.1392128 -0.15056971 1.343636e-38
2.8469954 1.1958611 -0.28399637 1.0129982e-38
2.6966066 1.1837641 -0.25553879 1.6572836e-38
2.6671975 1.1818999 -0.25120059 1.7768844e-38
2.6367526 1.1790224 -0.24439138 1.786032e-38
2.5980763 1.1767188 -0.23904794 1.8044708e-38
2.5700543 1.1740241 -0.23266728 1.7492969e-38
2.4152012 1.1619186 -0.20422263 1.3077986e-38
2.3952601 1.1607524 -0.20152046 1.6852275e-38
2.3680451 1.1583617 -0.19587743 1.6576775e-38
2.3683226 1.1584973 -0.19620685 1.7404729e-38
2.3503973 1.1569455 -0.19254591 1.7863911e-38
2.3308907 1.1550535 -0.1880652 1.7772073e-38
2.3119924 1.1532211 -0.18372539 1.777243e-38
2.2718682 1.1492912 -0.17441449 1.7680956e-38
2.2577572 1.1496285 -0.17534617 1.6944127e-38
2.2427289 1.1480938 -0.17170519 1.7220707e-38
2.2116587 1.145014 -0.16440578 1.749621e-38
2.194315 1.1453476 -0.16535264 1.8047937e-38
2.1735623 1.1425132 -0.15857545 1.5837058e-38
2.1594033 1.1419337 -0.15726484 1.7401823e-38
2.1371741 1.1397307 -0.15204345 1.2329645e-38
1.9662672 1.1262243 -0.12029296 1.1507121e-38
2.6959856 1.1868598 -0.26311633 1.7493341e-38
2.6294196 1.1830008 -0.25417838 1.7492612e-38
2.5961876 1.1802721 -0.24775389 1.7861036e-38
2.5682104 1.1775441 -0.24129173 1.7400779e-38
2.5463674 1.1754301 -0.23628527 1.6940872e-38
2.440784 1.1664 -0.21499212 3.3333794e-39
2.348659 1.1601956 -0.20050958 1.7772076e-38
2.3291643 1.1582785 -0.19596714 1.7863914e-38
2.3102779 1.1564218 -0.19156761 1.7772074e-38
2.2762594 1.1530495 -0.18357506 1.7588406e-38
2.2570121 1.1523013 -0.18188977 1.786391e-38
2.2406316 1.1506599 -0.17799804 1.8048654e-38
2.213043 1.1479436 -0.17156167 1.8048661e-38
2.187583 1.1479046 -0.17165816 1.8047223e-38
2.1750126 1.1455282 -0.16593997 1.5010897e-38
2.155365 1.1443471 -0.16319852 1.7588033e-38
2.1405411 1.1433718 -0.16092499 1.6572432e-38
2.1283176 1.1420711 -0.15783539 1.4449446e-38
2.7936471 1.1988615 -0.29173791 1.6573907e-38
2.7368109 1.1933484 -0.27868059 1.7401502e-38
2.6950941 1.1901219 -0.27110243 1.7125629e-38
2.6736875 1.189087 -0.26873222 1.6940533e-38
2.6584146 1.1871724 -0.26416418 1.7860678e-38
2.615665 1.1833947 -0.25524521 1.7216751e-38
2.5489986 1.1793807 -0.24592906 1.7493338e-38
2.5220447 1.1767156 -0.23961337 1.6941963e-38
2.4961288 1.1736693 -0.23235683 1.3353569e-38
2.4754558 1.1716125 -0.22748144 6.7331466e-39
2.4507656 1.1709576 -0.22606559 6.0913169e-39
2.4152167 1.1676623 -0.21827242 1.4278718e-38
2.4081042 1.1666795 -0.21592203 1.6114352e-38
2.3936846 1.1654001 -0.2129012 1.7680965e-38
2.3683133 1.1629035 -0.20698577 1.7588406e-38
2.3400908 1.1627479 -0.20681758 1.777172e-38
2.3151639 1.1602683 -0.20094001 1.7955749e-38
2.3021064 1.1589622 -0.19784348 1.7679879e-38
2.2745442 1.1562029 -0.1913017 1.7679879e-38
2.2552962 1.1554372 -0.18957382 1.7680239e-38
2.2338581 1.1532713 -0.18443714 1.7956105e-38
2.2113533 1.151022 -0.17910454 1.7864269e-38
2.1764629 1.1485432 -0.17330439 1.5376803e-38
2.1652126 1.1489635 -0.17441714 1.7954663e-38
2.1488769 1.1473111 -0.17049821 1.7955375e-38
2.1234756 1.1449707 -0.16496445 1.6111112e-38
2.1135497 1.1437351 -0.1620169 1.2700956e-38
1.9485384 1.1306127 -0.13116179 1.086318e-38
1.945866 1.1305525 -0.13103448 1.0679157e-38
2.8617253 1.2076905 -0.31282166 1.0773896e-38
2.7435689 1.197458 -0.28868231 1.6573926e-38
2.7068558 1.193849 -0.28013095 1.657248e-38
2.6808648 1.1932044 -0.27875 1.7769566e-38
2.6564786 1.1908029 -0.27305964 1.7769206e-38
2.6260066 1.1878084 -0.26596424 1.8136908e-38
2.5947227 1.184713 -0.25862822 1.8044352e-38
2.5715284 1.1824287 -0.25321534 1.758517e-38
2.5547116 1.1836513 -0.25633258 1.7585529e-38
2.5246289 1.1806394 -0.24919188 1.7494055e-38
2.5069897 1.1773245 -0.24121606 1.6664663e-38
2.4951279 1.1783739 -0.24387267 1.593212e-38
2.4707658 1.1766242 -0.23977609 1.3445754e-38
2.4298124 1.1725104 -0.23002189 1.4550263e-38
2.3900137 1.1685405 -0.22061068 1.7496578e-38
2.330008 1.1637826 -0.20942466 1.4918345e-38
2.313381 1.1634709 -0.2087875 1.786391e-38
2.300355 1.1621512 -0.20565751 1.7679161e-38
2.2667451 1.1587242 -0.19752811 1.7588046e-38
2.2535589 1.1585722 -0.19725581 1.7679881e-38
2.2096419 1.1540993 -0.18664521 1.7956464e-38
2.1855741 1.1517575 -0.18109816 1.8139058e-38
2.1481507 1.1488374 -0.1742373 1.5192769e-38
2.1415772 1.149718 -0.17644124 1.8047212e-38
2.114635 1.1469377 -0.1698429 1.7586582e-38
2.1088099 1.146356 -0.1684639 1.4910068e-38
1.9398924 1.1323532 -0.13548414 1.1139761e-38
2.8635774 1.2115407 -0.32222632 1.105119e-38
2.7288492 1.199771 -0.2944515 1.666539e-38
2.7201414 1.1979811 -0.29013851 1.7493343e-38
2.6788902 1.1968654 -0.28772041 1.7769209e-38
2.6545172 1.1944324 -0.28195268 1.7953596e-38
2.631216 1.1921064 -0.27643853 1.8044712e-38
2.5996218 1.1889352 -0.26891923 1.7952874e-38
2.5848079 1.1874732 -0.26545489 1.7584808e-38
2.5661559 1.1879436 -0.26674607 1.6940893e-38
2.5260503 1.1838436 -0.25701928 1.6757936e-38
2.5133262 1.1832489 -0.2556603 1.758697e-38
2.4916344 1.1810592 -0.25046769 1.7403299e-38
2.4730673 1.1804713 -0.24916953 1.6575707e-38
2.4303911 1.1760896 -0.23877299 1.6850856e-38
2.384433 1.1715922 -0.22811827 1.4642837e-38
2.3631043 1.169301 -0.22267421 1.7588047e-38
2.3329015 1.1662016 -0.21531999 1.7679524e-38
2.3059266 1.1653662 -0.21348004 1.7035958e-38
2.3031285 1.1658493 -0.21468298 1.7771353e-38
2.274657 1.1628958 -0.20767276 1.7679877e-38
2.2566454 1.1617409 -0.20498346 1.7218905e-38
2.2329926 1.1594639 -0.19959153 1.7127791e-38
2.2072122 1.1572222 -0.1943026 1.7863913e-38
2.1838634 1.1548021 -0.18855844 1.7863548e-38
2.1639276 1.1527303 -0.18364128 1.777135e-38
2.129951 1.1509973 -0.17965809 1.7126702e-38
2.1138332 1.1492965 -0.17561907 1.7494404e-38
2.1064794 1.1496495 -0.17653801 1.6940856e-38
2.0907135 1.148182 -0.17306712 1.3066471e-38
1.9305753 1.1335336 -0.13844199 1.0770987e-38
2.7082009 1.2023461 -0.30090591 1.7401509e-38
2.6779683 1.2007769 -0.29729566 1.7677726e-38
2.6611569 1.1990727 -0.29325348 1.7953234e-38
2.6371977 1.1966466 -0.28749967 1.8045426e-38
2.5976739 1.1924915 -0.27763352 1.78614e-38
2.569675 1.1900083 -0.27177018 1.7307866e-38
2.5473454 1.1879499 -0.26690331 1.7124918e-38
2.5026436 1.184934 -0.25986305 1.712636e-38
2.4897649 1.184487 -0.25886673 1.7772077e-38
2.4598448 1.1826791 -0.25466987 1.7587689e-38
2.4285476 1.1794441 -0.24699256 1.758733e-38
2.3860035 1.1748573 -0.23609304 1.4642482e-38
2.3637884 1.1728201 -0.23127718 1.7588052e-38
2.3349197 1.1698393 -0.22420309 1.7863554e-38
2.3179479 1.1686531 -0.22142971 1.7127427e-38
2.3058975 1.168775 -0.22181845 1.7127073e-38
2.2939227 1.1675372 -0.21888103 1.7126713e-38
2.2589259 1.1646637 -0.212116 1.7771716e-38
2.2320714 1.1609739 -0.20329224 1.7127436e-38
2.2246652 1.162279 -0.20654075 1.7772076e-38
2.1934247 1.1590031 -0.19876316 1.7863191e-38
2.1821318 1.1578455 -0.19601661 1.7771354e-38
2.1622286 1.1557505 -0.19104172 1.7771341e-38
2.1401367 1.1538751 -0.18662098 1.7127061e-38
2.123379 1.1522986 -0.18289053 1.7401477e-38
2.1057684 1.1516156 -0.18135291 1.74944e-38
2.090102 1.1499397 -0.17737153 1.5280987e-38
1.926458 1.1358775 -0.14420685 1.0680223e-38
2.7490935 1.2105812 -0.32074219 1.67565e-38
2.7147505 1.2060399 -0.30989242 1.6388808e-38
2.6765883 1.2038752 -0.30488482 1.721711e-38
2.6591785 1.2027156 -0.30217963 1.7861757e-38
2.6352322 1.2002585 -0.29634967 1.8045786e-38
2.5939407 1.1960912 -0.28646687 1.7769559e-38
2.5627484 1.1927549 -0.27854082 1.7401497e-38
2.5406322 1.1904855 -0.27315652 1.7493698e-38
2.5026131 1.187869 -0.26704261 1.7770638e-38
2.4866545 1.1867708 -0.26447651 1.7311109e-38
2.4611058 1.1858706 -0.26246735 1.7587687e-38
2.4370315 1.1840042 -0.25808308 1.7955752e-38
2.4067562 1.1805533 -0.24987026 1.740294e-38
2.3906679 1.1791759 -0.24662167 1.7772078e-38
2.3707845 1.1771051 -0.24170633 1.7772081e-38
2.3474507 1.1746528 -0.2358834 1.786355e-38
2.322453 1.1720517 -0.22970916 1.7679879e-38
2.2984657 1.1704433 -0.22595561 1.4642119e-38
2.2977178 1.1706851 -0.22655287 1.7679879e-38
2.2589147 1.1670383 -0.21792446 1.6943402e-38
2.2357025 1.1645371 -0.21198139 1.6943046e-38
2.2150142 1.1632491 -0.20898671 1.482615e-38
2.1916685 1.1620592 -0.20625184 1.7679514e-38
2.1770895 1.1605208 -0.20259856 1.7679876e-38
2.1605086 1.1587697 -0.19844002 1.7863184e-38
2.1393616 1.1565399 -0.1931452 1.7771348e-38
2.1230345 1.1553987 -0.19047666 1.7218535e-38
2.1066792 1.1538421 -0.18679224 1.7310718e-38
2.0863919 1.1521326 -0.18276383 1.758478e-38
1.9230386 1.1379056 -0.14919357 1.0954654e-38
1.9191647 1.138015 -0.14949024 1.0863195e-38
2.8144336 1.2175651 -0.33733359 1.4730379e-38
2.7134879 1.2091628 -0.31754109 1.7217473e-38
2.6798849 1.2061141 -0.31033689 1.6757229e-38
2.6519532 1.2053914 -0.30877981 1.7584809e-38
2.6332407 1.2038693 -0.3051973 1.7953593e-38
2.5966363 1.2001545 -0.29638639 1.7953233e-38
2.553911 1.195559 -0.28546694 1.7586248e-38
2.532146 1.193297 -0.28009808 1.7495134e-38
2.4942312 1.1907885 -0.27424756 1.8140148e-38
2.4760461 1.1893142 -0.27077854 1.7495497e-38
2.4122391 1.1824958 -0.25458032 1.7127796e-38
2.3850033 1.1820599 -0.25371948 1.7771718e-38
2.3689406 1.180385 -0.24974352 1.7588046e-38
2.3512936 1.1780895 -0.24426146 1.7127792e-38
2.3287077 1.1761014 -0.23956841 1.7863548e-38
2.3050413 1.1741942 -0.23508157 1.7311092e-38
2.2781184 1.1722677 -0.23057164 1.7127073e-38
2.2559769 1.1695886 -0.22418541 1.7772073e-38
2.2443511 1.1683751 -0.22130476 1.7679526e-38
2.2233188 1.1661249 -0.21595888 1.7587324e-38
2.1989436 1.1659814 -0.21579146 1.6851196e-38
2.1814525 1.1643308 -0.21188581 1.758732e-38
2.1645467 1.1625206 -0.20758538 1.7770987e-38
2.1482351 1.1607752 -0.2034383 1.7862465e-38
2.1212487 1.1578647 -0.19652237 1.7770991e-38
2.099448 1.1550231 -0.18973581 1.7402207e-38
2.0911429 1.1557328 -0.19153425 1.8046486e-38
2.0758932 1.1540943 -0.1876415 1.6754301e-38
2.0566216 1.1522446 -0.18326189 1.325162e-38
1.9117116 1.1400641 -0.15455909 1.0954651e-38
2.827955 1.2230827 -0.35072839 1.5007687e-38
2.7190578 1.2136613 -0.32850337 1.7033083e-38
2.6816618 1.2097375 -0.3191869 1.7585891e-38
2.6546309 1.2071493 -0.31305942 1.7033803e-38
2.5642672 1.2005155 -0.29751346 1.7770645e-38
2.5378513 1.1977106 -0.29085135 1.7771002e-38
2.5160108 1.1954088 -0.28538555 1.7771361e-38
2.4876106 1.1932536 -0.2803275 1.7220705e-38
2.4709485 1.1919655 -0.27730229 1.7956108e-38
2.4387271 1.1885105 -0.26909378 1.7864637e-38
2.412142 1.1856976 -0.26241329 1.7955751e-38
2.3682663 1.1832517 -0.25676101 1.7127802e-38
2.3489974 1.1819249 -0.25366059 1.7311462e-38
2.335804 1.1803825 -0.2499869 1.7956105e-38
2.3081231 1.1768939 -0.24166219 1.7219266e-38
2.2718134 1.174746 -0.23668166 1.7863192e-38
2.2423363 1.1715751 -0.22914736 1.7679519e-38
2.2277071 1.1700031 -0.22541216 1.7587326e-38
2.2029312 1.167438 -0.21932454 1.6851561e-38
2.1628058 1.1655484 -0.21500488 1.7586959e-38
2.1505721 1.1636555 -0.21046676 1.7034511e-38
2.1368284 1.1627135 -0.20826611 1.7770631e-38
2.1166024 1.1611288 -0.20454206 1.7217816e-38
2.0981805 1.1597574 -0.20132612 1.7862102e-38
2.0796247 1.1577164 -0.19647336 1.7861736e-38
2.0641787 1.1560321 -0.19246975 1.7398938e-38
2.0489948 1.1543775 -0.18853663 1.3158309e-38
1.8976406 1.1413445 -0.15779713 1.0770985e-38
2.8341489 1.2276722 -0.36190858 1.4915487e-38
2.7699578 1.2215245 -0.34735429 1.5836349e-38
2.7442322 1.2188182 -0.3409282 1.6389155e-38
2.7119234 1.2168183 -0.3362796 1.7032728e-38
2.6555946 1.2108666 -0.32214531 1.7862479e-38
2.606425 1.2057387 -0.30997238 1.7953953e-38
2.5832872 1.2032926 -0.30416322 1.7770285e-38
2.5622756 1.2040362 -0.30614063 1.786248e-38
2.5359015 1.2012002 -0.29940218 1.7863197e-38
2.5140746 1.1988702 -0.29386714 1.795611e-38
2.4854648 1.1958206 -0.286623 1.8140861e-38
2.4690239 1.1953766 -0.28566089 1.8232694e-38
2.4368532 1.1918817 -0.27735424 1.8048665e-38
2.4064887 1.188604 -0.26956558 1.8140139e-38
2.3865838 1.1864698 -0.26449496 1.7863915e-38
2.3340039 1.1836283 -0.25794068 1.7680599e-38
2.3148301 1.1815499 -0.25300092 1.7771354e-38
2.2963827 1.1795508 -0.24824961 1.7679156e-38
2.2700422 1.1779153 -0.24444777 1.7864626e-38
2.2372949 1.1743261 -0.23591468 1.7771355e-38
2.2058198 1.1709232 -0.22782807 1.7311453e-38
2.185292 1.1686673 -0.22246449 1.7587314e-38
2.1599839 1.1677666 -0.22045214 1.6942686e-38
2.1433082 1.1659005 -0.21601284 1.7034495e-38
2.1414545 1.1668569 -0.2183667 1.7033786e-38
2.1190417 1.1640321 -0.21162575 1.76788e-38
2.0983856 1.1629035 -0.20902096 1.7770628e-38
2.0828121 1.1611851 -0.2049349 1.7677704e-38
2.0624907 1.1589385 -0.19959207 1.8046493e-38
1.8931949 1.1435866 -0.16331531 1.0770264e-38
2.7627914 1.2247368 -0.35526597 1.6112931e-38
2.7021482 1.2197033 -0.34341046 1.7124206e-38
2.6518247 1.2143128 -0.33060369 1.7585175e-38
2.6089394 1.2098187 -0.31993395 1.786248e-38
2.583153 1.206986 -0.31319898 1.7217841e-38
2.5602596 1.2075559 -0.31476554 1.7863558e-38
2.5339274 1.2046889 -0.30795106 1.7955754e-38
2.5121136 1.2023306 -0.30234668 1.7956117e-38
2.4817681 1.2003796 -0.29780307 1.8140149e-38
2.4630847 1.1983321 -0.29293504 1.8232341e-38
2.442486 1.1960944 -0.28761661 1.7957191e-38
2.4046061 1.1919338 -0.27772492 1.8140499e-38
2.3847127 1.1897738 -0.27259105 1.7863914e-38
2.3536448 1.1864758 -0.26475757 1.7772434e-38
2.3377709 1.1867473 -0.26554173 1.7036318e-38
2.3130186 1.1847701 -0.26089168 1.7771716e-38
2.285382 1.1823678 -0.25522375 1.7127072e-38
2.2682493 1.1810839 -0.25221235 1.7679881e-38
2.2354968 1.1774472 -0.24356325 1.7679879e-38
2.2181356 1.175535 -0.23901631 1.7771351e-38
2.2022054 1.1738757 -0.23507759 1.767916e-38
2.1796734 1.1713897 -0.22916633 1.7586961e-38
2.1538029 1.1690413 -0.22361691 1.7034151e-38
2.1403205 1.1688343 -0.22321223 1.7034509e-38
2.1222246 1.1675522 -0.22021265 1.7586237e-38
2.094903 1.1651332 -0.21450117 1.6941588e-38
2.0781734 1.1637723 -0.21129833 1.7493677e-38
2.0519669 1.1610745 -0.20489661 1.730929e-38
2.0371244 1.1593356 -0.20075461 1.6293319e-38
2.0108328 1.1566949 -0.1944935 1.1137583e-38
1.8836156 1.1452454 -0.16744536 1.0586231e-38
2.7605731 1.2274356 -0.36188433 1.5652317e-38
2.6944749 1.2229146 -0.3513236 1.7308592e-38
2.6701179 1.2202737 -0.34504721 1.7586254e-38
2.6461508 1.2176745 -0.33886966 1.7770279e-38
2.583765 1.2108864 -0.32273546 1.7770281e-38
2.5556715 1.2098582 -0.32043204 1.7126723e-38
2.533864 1.2074372 -0.31467402 1.7035611e-38
2.5060232 1.2043201 -0.30725905 1.7220003e-38
2.4790397 1.2033434 -0.30507329 1.7588052e-38
2.4492829 1.2005174 -0.29838508 1.8232342e-38
2.4163864 1.1968987 -0.28978091 1.841673e-38
2.3903253 1.1937954 -0.28238627 1.7588409e-38
2.3518004 1.1897405 -0.27275804 1.7863915e-38
2.328444 1.1884689 -0.26982352 1.7680246e-38
2.3078125 1.1867083 -0.26567227 1.6944121e-38
2.2836204 1.1839544 -0.25911784 1.7035955e-38
2.2569776 1.1827186 -0.25629616 1.6943034e-38
2.2064795 1.1776071 -0.24417299 1.76788e-38
2.1944616 1.1762664 -0.24098417 1.7862112e-38
2.1779127 1.1744406 -0.23664275 1.75866e-38
2.1612666 1.1725838 -0.23222619 1.7494767e-38
2.1428943 1.1717299 -0.23027603 1.758624e-38
2.1178136 1.1693128 -0.22455253 1.7034509e-38
2.0939851 1.1665934 -0.21808004 1.7034151e-38
2.0563681 1.164426 -0.21306162 1.7676629e-38
2.0409954 1.1626852 -0.20891912 1.7953551e-38
1.876892 1.1474857 -0.17297581 1.0770611e-38
1.8678824 1.1466917 -0.17110166 8.0105255e-39
2.7592676 1.2306547 -0.3697688 1.6388801e-38
2.6724904 1.2244464 -0.3552365 1.7586618e-38
2.6357234 1.2203602 -0.34551817 1.7585894e-38
2.6118612 1.2177397 -0.33928806 1.7771364e-38
2.5772486 1.2139153 -0.33019379 1.7770644e-38
2.5595114 1.2126197 -0.32715833 1.7311465e-38
2.5305834 1.2101632 -0.32136723 1.8047592e-38
2.5089009 1.2074343 -0.31485531 1.7220352e-38
2.4955895 1.2068722 -0.31358084 1.7404746e-38
2.4631536 1.2032433 -0.30494845 1.7496585e-38
2.4397738 1.2027199 -0.30384421 1.7496571e-38
2.4000621 1.198638 -0.29415861 1.8324531e-38
2.3801987 1.1964259 -0.28889731 1.8140138e-38
2.3438559 1.1925709 -0.2797415 1.4641763e-38
2.3265321 1.191704 -0.27775154 1.7863555e-38
2.3077216 1.1896 -0.27274632 1.7863555e-38
2.2791719 1.1863608 -0.26503834 1.7772439e-38
2.2516072 1.1837044 -0.25874773 1.6944476e-38
2.224824 1.1806598 -0.25150201 1.6944118e-38
2.1926942 1.1793406 -0.24851729 1.7586961e-38
2.1761305 1.1774908 -0.24411745 1.7678435e-38
2.1594937 1.1756122 -0.23964754 1.749441e-38
2.1411211 1.1747417 -0.2376568 1.7585878e-38
2.1114535 1.1713254 -0.22952358 1.7494041e-38
2.0903499 1.168925 -0.22381085 1.7402206e-38
2.0660708 1.1663513 -0.2176982 1.6757559e-38
2.0360162 1.1652848 -0.21531558 1.7677327e-38
2.0209193 1.1635537 -0.21119498 1.7122361e-38
2.7259521 1.2311084 -0.37112984 1.6848698e-38
2.6665192 1.2274129 -0.36253822 1.6757576e-38
2.6419599 1.2249312 -0.35665286 1.7586612e-38
2.6053531 1.2208091 -0.34684509 1.7863202e-38
2.5751855 1.2174544 -0.33886659 1.7955754e-38
2.5590672 1.2162858 -0.33612952 1.7495497e-38
2.5388372 1.2130017 -0.32824841 1.7403666e-38
2.5159438 1.2123283 -0.32677379 1.804867e-38
2.4687176 1.2070265 -0.31416085 1.8141581e-38
2.398293 1.2015483 -0.30129135 1.7588416e-38
2.3782623 1.1997269 -0.29698688 1.8140498e-38
2.3524408 1.1968139 -0.29005563 1.7956108e-38
2.3284016 1.1946876 -0.28503582 1.7219265e-38
2.3091927 1.192714 -0.2803528 1.6851559e-38
2.2910726 1.1915244 -0.27757946 1.7127432e-38
2.2796052 1.1899186 -0.27373818 1.7588402e-38
2.2520885 1.1867542 -0.26620468 1.7312172e-38
2.228374 1.1840628 -0.25979972 1.7495843e-38
2.2163529 1.1827028 -0.25656372 1.7679158e-38
2.1855941 1.1818026 -0.25459328 1.7771346e-38
2.1690223 1.1799303 -0.2501384 1.7678793e-38
2.1524014 1.1780314 -0.24561895 1.7678075e-38
2.1363389 1.1767964 -0.24271885 1.6665362e-38
2.1146388 1.1748714 -0.23817362 1.7493685e-38
2.086925 1.1712468 -0.22951603 1.6113631e-38
2.0629487 1.1690764 -0.22438776 1.6849749e-38
2.0251956 1.1670203 -0.219643 1.6941221e-38
2.0224032 1.1669189 -0.21941578 1.6663905e-38
1.8657553 1.1522353 -0.18467832 1.0585864e-38
2.764524 1.2379007 -0.38745421 1.6573551e-38
2.7238152 1.2348409 -0.38027626 1.6940888e-38
2.6984787 1.2320144 -0.37355304 1.7125637e-38
2.6493795 1.2268132 -0.36120051 1.6850498e-38
2.568198 1.220551 -0.34649399 1.7771728e-38
2.5139139 1.2158008 -0.33528322 1.8416739e-38
2.4923005 1.2133557 -0.32946512 1.8232702e-38
2.4667418 1.2104406 -0.32252738 1.8141581e-38
2.4344678 1.2069825 -0.31431139 1.6484591e-38
2.4251497 1.2057354 -0.31133097 1.8232696e-38
2.4044998 1.203887 -0.30696523 1.7587689e-38
2.383729 1.2040025 -0.3074044 1.8048664e-38
2.3639188 1.2017394 -0.30201793 1.8048301e-38
2.3337307 1.1976417 -0.2922219 1.731183e-38
2.3145552 1.1960455 -0.28846186 1.7863914e-38
2.2964284 1.1952455 -0.28664169 1.7588762e-38
2.2679882 1.1919346 -0.2787568 1.7771716e-38
2.2502487 1.1899006 -0.27391532 1.7588042e-38
2.2039323 1.1845926 -0.26128 1.7218907e-38
2.1788023 1.1844362 -0.26108718 1.7679153e-38
2.1573546 1.182254 -0.25591063 1.6850478e-38
2.1424792 1.1802075 -0.25101647 1.74944e-38
2.1243343 1.1774268 -0.24435149 1.6942312e-38
2.0823522 1.1744479 -0.23738106 1.675792e-38
2.0670695 1.1725876 -0.23294573 1.6757918e-38
2.0009472 1.1674168 -0.22079553 1.7585133e-38
1.8597138 1.1537393 -0.18840271 1.0585865e-38
1.8590277 1.1543189 -0.18982601 1.049367e-38
2.7835162 1.2440298 -0.40230367 1.6574272e-38
2.7604337 1.2429816 -0.39991358 1.6941966e-38
2.7240953 1.2386019 -0.38947436 1.6389155e-38
2.7056766 1.2369124 -0.38548028 1.7125631e-38
2.6809876 1.2341236 -0.37884438 1.7309674e-38
2.6393871 1.2292576 -0.36725506 1.7586975e-38
2.598592 1.2247306 -0.35648888 1.7771368e-38
2.5661182 1.2240857 -0.35515609 1.7864281e-38
2.5440304 1.2199762 -0.34527028 1.8232701e-38
2.5098 1.2184076 -0.34169114 1.7496935e-38
2.4981298 1.2178366 -0.34038228 1.8324538e-38
2.4729323 1.2149265 -0.33345377 1.8233062e-38
2.4306588 1.2100816 -0.32192096 1.8049742e-38
2.4140041 1.2081975 -0.31743777 1.8049379e-38
2.3829236 1.2057949 -0.31179515 1.4643206e-38
2.3610806 1.204185 -0.30802143 1.7496216e-38
2.3442051 1.2029449 -0.30511513 1.795611e-38
2.321106 1.2008466 -0.30015668 1.7218906e-38
2.296566 1.1981667 -0.29378599 1.6576418e-38
2.2671266 1.1953392 -0.28709158 1.7312895e-38
2.2550974 1.1939497 -0.28378323 1.7587682e-38
2.237042 1.1918508 -0.27878499 1.7495485e-38
2.2136858 1.1891321 -0.27231088 1.7495122e-38
2.1844735 1.1856213 -0.26394287 1.7035232e-38
2.1653314 1.1845547 -0.26147836 1.418078e-38
2.1433163 1.1828028 -0.25735885 1.6850112e-38
2.1219149 1.1810085 -0.25313115 1.6941591e-38
2.104758 1.1797246 -0.25011975 1.6665721e-38
2.0952649 1.1791914 -0.24888679 1.730965e-38
2.0742784 1.1766784 -0.24289806 1.7217813e-38
2.0497296 1.1736233 -0.2356101 1.6757558e-38
2.0300672 1.1715798 -0.23075931 1.6757199e-38
2.0213168 1.1704483 -0.22805756 1.740076e-38
1.997344 1.1695147 -0.2259544 1.6021057e-38
1.9831671 1.1676886 -0.22159444 1.5280278e-38
1.8537729 1.155969 -0.19390191 1.0033062e-38
2.7236147 1.2424837 -0.39897329 1.6480998e-38
2.7081277 1.2411772 -0.39589396 1.7033797e-38
2.5965128 1.2283032 -0.36524355 1.7771369e-38
2.5661824 1.2269583 -0.36218253 1.7404402e-38
2.543473 1.2257901 -0.35949641 1.7495493e-38
2.5198324 1.2226223 -0.35192528 1.8233422e-38
2.48752 1.2197024 -0.34502631 1.7680249e-38
2.470938 1.2183545 -0.34185421 1.8325252e-38
2.4215541 1.2125982 -0.32814574 1.8049743e-38
2.4084342 1.2111055 -0.32459307 1.8233048e-38
2.381232 1.2077119 -0.31649697 1.7495859e-38
2.3713756 1.2074096 -0.31583193 1.722034e-38
2.3518085 1.2066532 -0.31412897 1.7404736e-38
2.2501433 1.1967225 -0.29060325 1.7495845e-38
2.232105 1.1945999 -0.28554693 1.7495485e-38
2.193964 1.1901078 -0.27484664 1.7219261e-38
2.171499 1.1876614 -0.26903161 1.694303e-38
2.1451349 1.1855142 -0.2639778 1.7034867e-38
2.1268938 1.1841229 -0.26071203 1.629839e-38
2.1250241 1.1837071 -0.25970888 1.6850117e-38
2.1043808 1.1828152 -0.25768301 1.6572794e-38
2.0884032 1.1811008 -0.25360969 1.6205808e-38
2.0751204 1.1799424 -0.25087607 1.7125253e-38
2.0449789 1.1764295 -0.24251001 1.6573165e-38
2.0321193 1.174826 -0.23868458 1.6573164e-38
2.0118113 1.1723216 -0.23271148 1.657316e-38
2.0008307 1.1722965 -0.2327328 1.6849018e-38
1.9815143 1.1697013 -0.2265304 1.2982218e-38
1.8552219 1.157073 -0.19659162 1.0310004e-38
1.8496727 1.1572427 -0.19704832 9.756825e-39
2.7768404 1.2515838 -0.42083266 1.7033806e-38
2.658963 1.2393291 -0.39174411 1.6849405e-38
2.5944085 1.2318749 -0.37399665 1.7955038e-38
2.5672417 1.2295004 -0.36839274 1.7035602e-38
2.4939444 1.2222179 -0.35113126 1.786536e-38
2.4689198 1.2217818 -0.35025322 1.8324889e-38
2.4319322 1.2173789 -0.33976191 1.7496571e-38
2.4153206 1.2155639 -0.33544722 1.8233415e-38
2.4022174 1.2140547 -0.33185437 1.8140504e-38
2.3709671 1.2108438 -0.32423556 1.7311462e-38
2.3328457 1.2068015 -0.3146348 1.4274058e-38
2.3188035 1.2055368 -0.31164727 1.8047949e-38
2.2731221 1.2005109 -0.29969728 1.7035238e-38
2.2302554 1.1977316 -0.29322189 1.740365e-38
2.2159128 1.1960689 -0.28926265 1.7218547e-38
2.1851039 1.1927444 -0.28136271 1.6390222e-38
2.1680572 1.1904737 -0.27593648 1.6850837e-38
2.1512229 1.1890893 -0.27267703 1.6758278e-38
2.1249249 1.1866046 -0.26679742 1.6758282e-38
2.1039569 1.1842939 -0.26130286 1.6113993e-38
2.0973592 1.18356 -0.25955772 1.6850112e-38
2.0498714 1.1799985 -0.25120378 1.71249e-38
2.0396135 1.1787894 -0.24832332 1.7124903e-38
2.0072985 1.1749794 -0.23924716 1.5927444e-38
2.0171633 1.1764717 -0.24282321 1.6204023e-38
2.6991816 1.2480562 -0.41278863 1.7401864e-38
2.6585128 1.2431357 -0.40105927 1.6757209e-38
2.5698836 1.2329266 -0.37675413 1.7956834e-38
2.5553868 1.2312605 -0.37278771 1.8140861e-38
2.5123305 1.2275944 -0.36414453 1.8325256e-38
2.4906323 1.2250419 -0.35806423 1.8416726e-38
2.4042869 1.2178628 -0.34115419 1.7588772e-38
2.3705487 1.2142792 -0.33264196 1.7219982e-38
2.3541901 1.2119228 -0.32700127 1.7956108e-38
2.3172407 1.2091297 -0.32044762 1.7404016e-38
2.2891045 1.2052369 -0.31113747 1.7128148e-38
2.2730594 1.2035218 -0.3070631 1.7588042e-38
2.2529855 1.2013401 -0.30187732 1.6943045e-38
2.1925631 1.1966648 -0.2908963 1.7402929e-38
2.1451693 1.1909236 -0.27720979 1.7494404e-38
2.1268396 1.1899555 -0.2749798 1.7402207e-38
2.104233 1.1873558 -0.26879072 1.5560467e-38
2.09443 1.1860349 -0.26563358 1.7033781e-38
2.0736527 1.1835139 -0.25962368 1.7125619e-38
2.0372698 1.1817212 -0.25551268 1.7124537e-38
2.0198815 1.1795781 -0.25040114 1.7124537e-38
1.9802622 1.1752145 -0.24002613 1.19677e-38
1.8475581 1.1613959 -0.20722388 1.0125979e-38
1.8488216 1.1623057 -0.20943998 1.0493677e-38
2.8014717 1.259311 -0.43954855 1.6757939e-38
2.7387197 1.2535212 -0.42585912 1.7401865e-38
2.662925 1.2478386 -0.41253006 1.7494418e-38
2.5668404 1.2363269 -0.38509479 1.4366623e-38
2.5554383 1.2365392 -0.38570014 1.8140145e-38
2.5258925 1.233013 -0.37729725 1.8417807e-38
2.496314 1.2294638 -0.3688381 1.8509288e-38
2.4710288 1.2264286 -0.36160442 1.8508207e-38
2.4467602 1.2242844 -0.3565422 1.4642487e-38
2.3977416 1.2201638 -0.34683216 1.7404026e-38
2.3754511 1.2180189 -0.34175327 1.7956471e-38
2.3516316 1.2151576 -0.33493358 1.4457737e-38
2.3275321 1.2135919 -0.33128557 1.8047944e-38
2.2957897 1.2097048 -0.32201612 1.7771718e-38
2.2711132 1.2066985 -0.31484836 1.7586966e-38
2.2528367 1.2044935 -0.30959255 1.7494771e-38
2.225385 1.2012663 -0.30190518 1.7311818e-38
2.2137291 1.1998888 -0.29862338 1.7403288e-38
2.193702 1.2001379 -0.29938361 1.7495482e-38
2.1737187 1.197681 -0.293524 1.7311092e-38
2.1459258 1.1942571 -0.28535849 1.7402209e-38
2.1250043 1.192959 -0.2823405 1.740221e-38
2.1166825 1.1919729 -0.27999124 1.7401491e-38
2.0796397 1.1874316 -0.26916173 1.6941588e-38
2.0613983 1.185177 -0.26378399 1.7124896e-38
2.0371234 1.1832396 -0.25922811 1.3442845e-38
2.0354795 1.1846129 -0.26259968 1.7032343e-38
1.844853 1.1645639 -0.21499372 1.0494389e-38
2.7877305 1.2633464 -0.44952375 1.6941254e-38
2.7621322 1.2603278 -0.44233274 1.7401504e-38
2.7309785 1.2567401 -0.43379143 1.7494417e-38
2.6966414 1.2526264 -0.42398751 1.7586612e-38
2.6542523 1.2486833 -0.41466171 1.381345e-38
2.6162302 1.2454578 -0.407058 1.7402946e-38
2.5685029 1.2397825 -0.39353502 1.4274425e-38
2.5491765 1.2388122 -0.39130768 1.7219992e-38
2.5262446 1.2356733 -0.38380215 1.4458816e-38
2.5060329 1.2342969 -0.3805874 1.7681688e-38
2.486609 1.2322834 -0.37580839 1.7956837e-38
2.4645131 1.2294217 -0.36897501 1.8324531e-38
2.4358146 1.2259324 -0.3606559 1.8232339e-38
2.4152191 1.223452 -0.35474354 1.8140504e-38
2.3904307 1.2210323 -0.34901172 1.7126716e-38
2.3668845 1.2205237 -0.34794497 1.7956474e-38
2.3531702 1.2183563 -0.34274647 1.4457737e-38
2.344763 1.2160901 -0.33726668 1.7127075e-38
2.2999475 1.2136759 -0.33169892 1.7863552e-38
2.2844124 1.2112077 -0.32577837 1.3997468e-38
2.2774196 1.2110205 -0.3253729 1.7770997e-38
2.2472453 1.2072967 -0.31649154 1.7679163e-38
2.2234464 1.2043816 -0.30954018 1.7403292e-38
2.1928542 1.2027553 -0.3057926 1.7034879e-38
2.1718409 1.2007421 -0.30102664 1.7494407e-38
2.1457341 1.1976424 -0.29364082 1.6850122e-38
2.1179991 1.1946408 -0.28650734 1.5929248e-38
2.112087 1.194604 -0.28646225 1.7218172e-38
2.0925384 1.1922717 -0.28090432 1.6942301e-38
