# .PCD v0.7 - Point Cloud Data file format
VERSION 0.7
FIELDS x y z rgb
SIZE 4 4 4 4
TYPE F F F F
COUNT 1 1 1 1
WIDTH 1215
HEIGHT 1
VIEWPOINT 0 0 0 1 0 0 0
POINTS 1215
DATA ascii
1.3623834 1.478156 -1.6124755 1.842856e-39
1.3604724 1.4813715 -1.6053202 1.5666265e-39
1.3585614 1.4845871 -1.5981648 1.8425029e-39
1.3566505 1.4878027 -1.5910095 1.9346985e-39
1.3332449 1.4953316 -1.5735058 1.3811548e-39
1.3470956 1.5038806 -1.5552326 1.2896822e-39
1.3451847 1.5070962 -1.5480773 1.2896822e-39
1.3432738 1.5103117 -1.5409219 1.6562941e-39
1.3324729 1.5146129 -1.5310242 2.7804564e-40
1.331054 1.5178643 -1.5238093 8.2941595e-40
1.3660372 1.4580761 -1.6568294 9.307444e-39
1.3553337 1.4636725 -1.644084 0
1.3499696 1.4664638 -1.6377258 1.3811604e-39
1.3485541 1.4697045 -1.6305346 1.0138016e-39
1.3594295 1.4700031 -1.6303083 1.5666265e-39
1.3575186 1.4732187 -1.623153 1.7484898e-39
1.3556075 1.4764342 -1.6159977 1.8410441e-39
1.3536966 1.4796498 -1.6088423 1.5669768e-39
1.3517857 1.4828653 -1.601687 1.7506604e-39
1.3498747 1.486081 -1.5945315 1.5669768e-39
1.3479637 1.4892966 -1.5873762 1.5666293e-39
1.3370388 1.4946162 -1.5752314 1.5666293e-39
1.3422308 1.4989433 -1.5659102 1.3825841e-39
1.3403198 1.5021589 -1.5587548 1.2903885e-39
1.3278303 1.5067676 -1.5481129 5.5318219e-40
1.3264132 1.5100194 -1.5408975 5.5318219e-40
1.3249956 1.513271 -1.5336822 6.4502329e-40
1.3481631 1.4608191 -1.6500821 0
1.346746 1.4640708 -1.6428667 1.3814995e-39
1.3410897 1.4683722 -1.6331722 1.0141575e-39
1.3526537 1.4682814 -1.6338305 7.4045171e-40
1.3469207 1.4779282 -1.6123645 9.219563e-40
1.3450098 1.4811437 -1.6052091 9.219563e-40
1.3430989 1.4843593 -1.5980538 1.1063476e-39
1.331422 1.4896274 -1.5859926 3.6843079e-40
1.3254042 1.4939649 -1.5762043 1.85836e-40
1.3257554 1.502634 -1.5571315 2.7804004e-40
1.3316331 1.5036528 -1.5551217 1.1056385e-39
1.329722 1.5068684 -1.5479662 1.105291e-39
1.3631214 1.4511824 -1.6718916 2.2307745e-38
1.3611963 1.4544216 -1.6646833 9.1835496e-41
1.3350159 1.4724894 -1.623867 7.3577838e-40
1.342056 1.4729909 -1.623042 1.2871641e-39
1.3267678 1.4817871 -1.6030698 2.7588064e-40
1.3253529 1.4850389 -1.5958543 3.673574e-40
1.3239383 1.4882908 -1.5886388 9.185091e-41
1.3225234 1.4915425 -1.5814234 3.7975188e-43
1.3305902 1.4922844 -1.5801097 2.7554012e-40
1.3286792 1.4955 -1.5729544 2.7623797e-40
1.3267683 1.4987154 -1.5657991 7.258726e-43
1.3248574 1.5019311 -1.5586437 7.3469798e-40
1.3229464 1.5051466 -1.5514884 5.5282345e-40
1.3562953 1.4494479 -1.67544 2.3509886e-38
1.3543702 1.4526873 -1.6682315 6.5433716e-39
1.3524451 1.4559267 -1.6610233 0
1.339102 1.4648379 -1.6408749 2.0250809e-39
1.3371911 1.4680536 -1.6337194 1.2903885e-39
1.3352801 1.471269 -1.6265641 2.1176324e-39
1.3244438 1.4767147 -1.6141454 1.1981929e-39
1.3314582 1.4777002 -1.6122534 1.1981929e-39
1.3295473 1.4809158 -1.6050981 1.7484898e-39
1.3276362 1.4841315 -1.5979426 9.5082305e-41
1.3257252 1.487347 -1.5907873 6.4501908e-40
1.3177873 1.4924909 -1.5791477 5.5283046e-40
1.3311316 1.4540232 -1.6643696 1.2076556e-38
1.3297185 1.4572749 -1.6571543 9.2188469e-39
1.322871 1.4633206 -1.6435722 1.3815023e-39
1.3214587 1.4665725 -1.6363566 1.0127198e-39
1.3200464 1.4698244 -1.6291411 4.6097955e-40
1.3186342 1.4730763 -1.6219257 5.5317658e-40
1.3173584 1.4748381 -1.6179962 3.6843219e-40
1.3159437 1.4781011 -1.610756 1.8403813e-40
1.3227714 1.4791942 -1.6086203 1.8404094e-40
1.3208605 1.4824097 -1.6014649 5.6051939e-45
1.3189496 1.4856253 -1.5943093 1.8369341e-40
1.3170384 1.4888409 -1.587154 1.6815582e-44
1.3151275 1.4920564 -1.5799989 9.1845305e-41
1.3132166 1.495272 -1.5728434 7.0064923e-45
1.3223896 1.4543892 -1.6632173 1.189144e-38
1.3293724 1.4549633 -1.6622299 9.1835496e-40
1.3200114 1.4592828 -1.652349 1.1971097e-39
1.318597 1.4625459 -1.6451086 1.1967523e-39
1.3167344 1.4674413 -1.6342567 7.3721051e-40
1.3153206 1.4707043 -1.6270167 9.2052277e-40
1.3098425 1.473502 -1.6206397 7.3721051e-40
1.3039622 1.477896 -1.610733 6.4501488e-40
1.3071916 1.4796815 -1.6069298 9.2125985e-40
1.3140846 1.480688 -1.6049869 1.1974866e-39
1.3090382 1.4838543 -1.597816 3.6842799e-40
1.3071717 1.4887744 -1.5869094 3.6842799e-40
1.3057549 1.4920492 -1.5796432 2.7658689e-40
1.2026639 1.559918 -1.4261338 1.0326655e-38
1.3196183 1.4517705 -1.668873 1.2169474e-38
1.3181998 1.4550457 -1.6616061 2.6704363e-39
1.3300421 1.4539627 -1.6644596 0
1.3110875 1.4612075 -1.6477579 1.1967509e-39
1.3092248 1.4661084 -1.6368935 1.0127198e-39
1.3078125 1.4693717 -1.6296532 9.2052277e-40
1.3223417 1.4669201 -1.6356264 2.0254368e-39
1.3204166 1.4701595 -1.6284181 1.1981929e-39
1.3126781 1.476891 -1.6132909 5.5281925e-40
1.3165663 1.4766383 -1.6140014 8.2941034e-40
1.3061823 1.4813447 -1.6032282 2.7658689e-40
1.3043077 1.4862827 -1.5922821 1.8403673e-40
1.3028857 1.4895695 -1.5849891 9.1841101e-41
1.3058363 1.49183 -1.580129 0
1.2037739 1.5567564 -1.4331386 9.6838006e-39
1.1646303 1.5674164 -1.408118 9.9549952e-39
1.3270665 1.4457495 -1.6824244 2.3508092e-38
1.3251414 1.4489888 -1.6752161 1.6592322e-38
1.3232163 1.4522283 -1.6680077 0
1.3193661 1.4587069 -1.6535912 2.3016636e-39
1.3174409 1.4619464 -1.6463828 1.8410441e-39
1.3155158 1.4651858 -1.6391745 1.472263e-39
1.3135908 1.4684252 -1.6319661 6.4536941e-40
1.3009968 1.4750814 -1.6168122 2.765939e-40
1.3097405 1.4749039 -1.6175495 4.5917748e-40
1.2986108 1.4799991 -1.6058908 0
1.2967362 1.4849427 -1.5949323 0
1.3039651 1.484622 -1.5959246 5.6051939e-45
1.30204 1.4878614 -1.5887164 1.821688e-44
1.1640929 1.5672694 -1.4084203 9.5862169e-39
1.1480221 1.5731218 -1.3948985 7.0054427e-39
1.3183154 1.4472544 -1.6787643 2.2307742e-38
1.297464 1.4552742 -1.6602809 1.0109163e-39
1.3144652 1.4537331 -1.6643478 2.0257829e-39
1.3125399 1.4569725 -1.6571394 1.2903885e-39
1.3106148 1.4602119 -1.6499311 1.1974838e-39
1.3086897 1.4634513 -1.6427227 1.1981929e-39
1.3067647 1.4666907 -1.6355145 1.3800674e-39
1.3048396 1.4699301 -1.6283063 8.2941034e-40
1.3029145 1.4731693 -1.6210978 1.8404094e-40
1.3009893 1.4764087 -1.6138895 1.8404094e-40
1.2990642 1.4796481 -1.6066812 1.8369341e-40
1.1909522 1.5534985 -1.4398036 8.7470255e-39
1.1891441 1.5565408 -1.4330336 8.757496e-39
1.1725926 1.562633 -1.4189647 1.1794569e-38
1.1708082 1.5656358 -1.4122832 1.1880311e-38
1.18372 1.565668 -1.4127238 1.3352197e-38
1.1819121 1.5687103 -1.4059539 2.3495508e-38
1.3076391 1.4519986 -1.6678959 0
1.3037889 1.4584774 -1.6534793 2.3938592e-39
1.3018638 1.4617168 -1.6462711 1.6562941e-39
1.2999387 1.4649563 -1.6390626 4.6097815e-40
1.2980136 1.4681956 -1.6318543 2.1664074e-42
1.2960883 1.471435 -1.6246459 1.1056385e-39
1.2941633 1.4746743 -1.6174377 6.4501908e-40
1.1845413 1.5518696 -1.443136 5.796408e-39
1.1827333 1.5549119 -1.4363661 3.7695601e-39
1.1809253 1.5579542 -1.4295962 1.0105492e-39
1.1773092 1.564039 -1.4160563 2.3497652e-38
1.1873965 1.5701017 -1.4031076 1.9249805e-38
1.2824093 1.4526143 -1.6655407 1.2167671e-38
1.2988881 1.4535036 -1.6642358 0
1.296963 1.456743 -1.6570275 9.237892e-40
1.2950379 1.4599824 -1.6498193 1.2010865e-39
1.2931128 1.4632217 -1.642611 2.3967332e-39
1.2828587 1.4698775 -1.6275508 8.3155853e-40
1.2772837 1.4726894 -1.621139 4.6062923e-40
1.2758681 1.4759771 -1.6138446 5.5246612e-40
1.2744523 1.4792647 -1.6065502 3.6842799e-40
1.1859297 1.5485489 -1.4505017 1.1880639e-38
1.1822885 1.5546761 -1.4368677 7.2603908e-39
1.1727064 1.5593677 -1.4261585 1.5465544e-38
1.1786473 1.5608031 -1.4232336 2.3501994e-38
1.175006 1.5669302 -1.4095997 1.9892655e-38
1.2778263 1.4533662 -1.663704 1.0322318e-38
1.292062 1.4517692 -1.667784 7.3898876e-40
1.2753481 1.4582022 -1.6529582 1.8439406e-40
1.2725201 1.4647779 -1.6383687 1.5669726e-39
1.2843616 1.4647267 -1.6389508 2.6733201e-39
1.2682781 1.4746413 -1.6164846 9.2160457e-40
1.1968292 1.540397 -1.4688812 1.5562334e-38
1.1872289 1.5452058 -1.4579136 1.5288965e-38
1.1758331 1.5530357 -1.4402232 7.7217151e-39
1.1721919 1.5591629 -1.4265893 2.1643314e-38
1.2852362 1.4500347 -1.6713322 2.3509527e-38
1.2833111 1.453274 -1.664124 1.6122707e-38
1.2813861 1.4565134 -1.6569157 4.33277e-39
1.1788958 1.546639 -1.4544283 1.5281412e-38
1.4314662 1.5694772 -1.4141538 0
1.4235272 1.5685557 -1.415868 0
1.43222 1.5702472 -1.4124886 0
1.4242257 1.5693192 -1.4142148 0
1.4059032 1.573115 -1.4051318 0
1.4091161 1.5642401 -1.4247987 0
1.4261461 1.5676733 -1.4179144 0
1.3952625 1.5520653 -1.4510545 0
1.3935165 1.5584675 -1.4368898 0
1.4011217 1.5633122 -1.426525 0
1.4095876 1.5650002 -1.423144 0
1.4078176 1.5714914 -1.4087822 0
1.3922486 1.5656075 -1.4211196 0
1.4006532 1.5673114 -1.4177011 0
1.3997682 1.5705571 -1.4105203 0
1.3833752 1.567903 -1.415714 0
1.3917186 1.5696228 -1.4122584 0
1.4092659 1.5699056 -1.4123309 0
1.391945 1.5704463 -1.4104544 0
1.3700237 1.5563772 -1.4405611 0
1.3756196 1.5677541 -1.4157345 0
1.3657748 1.5750405 -1.3993026 0
1.3717995 1.4603342 -1.652086 5.5282345e-40
1.3645369 1.4560969 -1.6611273 8.4077908e-45
1.3636397 1.4593871 -1.6538481 0
1.3246114 1.5112014 -1.5382236 3.7835059e-43
1.3463528 1.5532176 -1.4465795 0
1.3661386 1.4495797 -1.6755397 0
1.3563769 1.4551498 -1.6628892 9.1845305e-41
1.3554796 1.4584401 -1.65561 0
1.348217 1.4542027 -1.6646513 1.8404094e-40
1.3473198 1.4574929 -1.6573719 0
1.3331761 1.479342 -1.6087068 0
1.3322849 1.4826099 -1.6014767 5.6051939e-45
1.3217603 1.4911873 -1.5821751 7.258726e-43
1.3208752 1.4944329 -1.5749943 1.821688e-44
1.3497084 1.4476726 -1.6790874 0
1.3400571 1.4532557 -1.6664131 7.3756504e-40
1.3391601 1.4565457 -1.6591338 1.8439126e-40
1.3382628 1.459836 -1.6518544 5.6051939e-45
1.3328797 1.4795767 -1.6081784 5.6051939e-45
1.3319825 1.4828669 -1.600899 4.2038954e-45
1.321507 1.4914728 -1.5815364 5.6051939e-45
1.3206159 1.4947408 -1.5743062 1.821688e-44
1.3274965 1.4993175 -1.5645024 9.1845305e-41
1.3396868 1.4533439 -1.6662041 0
1.3301028 1.4588888 -1.6536162 9.1845305e-41
1.3292056 1.4621788 -1.646337 0
1.3237374 1.4513613 -1.669937 5.5317378e-40
1.3314718 1.4523903 -1.6679779 2.7658689e-40
1.307971 1.4797877 -1.6067268 0
1.3102795 1.5007135 -1.5607468 3.657389e-43
1.3155774 1.4504142 -1.6716989 5.5282345e-40
1.3232565 1.4514369 -1.6697518 1.8404094e-40
1.3159448 1.4471709 -1.6788541 5.5282345e-40
1.3150414 1.4504832 -1.6715257 9.1845305e-41
1.3141383 1.4537958 -1.6641968 0
1.3086301 1.5047801 -1.5517281 3.657389e-43
1.3077297 1.4462173 -1.6806281 5.6051939e-45
1.3068264 1.4495298 -1.6732994 8.2976067e-40
1.3059231 1.4528422 -1.6659709 5.5317378e-40
1.3110743 1.4950795 -1.5731825 1.4012985e-45
1.3075476 1.4461465 -1.6807768 5.5424157e-40
1.3066379 1.4494826 -1.6733958 4.6026909e-40
1.2968048 1.455201 -1.6604161 4.6026909e-40
1.2959014 1.4585134 -1.6530875 4.6026909e-40
1.2949983 1.4618258 -1.645759 9.1845305e-41
1.2940949 1.4651382 -1.6384302 7.0064923e-45
1.2931917 1.4684505 -1.6311018 1.4012985e-45
1.2913852 1.4750755 -1.6164446 0
1.2904819 1.4783878 -1.609116 0
1.2992738 1.4451861 -1.6825633 1.2914451e-39
1.2983642 1.4485222 -1.6751822 1.1056385e-39
1.2885897 1.4542475 -1.6621898 8.2976067e-40
1.2867831 1.4608723 -1.6475327 1.8404094e-40
1.28588 1.4641846 -1.6402042 8.4077908e-45
1.2849766 1.4674971 -1.6328756 5.6051939e-45
1.2840735 1.4708095 -1.6255471 4.2038954e-45
1.2831701 1.4741219 -1.6182184 4.2038954e-45
1.282267 1.4774343 -1.6108898 1.4012985e-45
1.2883575 1.4852188 -1.5939922 0
1.286538 1.4918909 -1.5792304 0
1.2910001 1.4442259 -1.6843498 0
1.2900903 1.4475619 -1.6769688 1.1056385e-39
1.2803745 1.4532939 -1.6639638 8.2941034e-40
1.278568 1.4599187 -1.6493067 2.7589044e-40
1.2776648 1.4632311 -1.641978 1.9618179e-44
1.2767615 1.4665436 -1.6346494 5.6051939e-45
1.2758583 1.469856 -1.6273209 0
1.274955 1.4731683 -1.6199924 0
1.2740517 1.4764807 -1.6126637 0
1.281903 1.4775864 -1.6105405 0
1.2809933 1.4809225 -1.6031597 0
1.2800837 1.4842585 -1.5957788 0
1.279174 1.4875945 -1.5883979 0
1.2869931 1.4888183 -1.5860132 0
1.1806606 1.5463654 -1.4551005 8.8341625e-39
1.2818167 1.4466016 -1.6787553 9.1836197e-40
1.2809069 1.4499377 -1.6713743 1.1056385e-39
1.2694497 1.4622777 -1.6437519 2.7623797e-40
1.2685465 1.46559 -1.6364233 8.4077908e-45
1.2676431 1.4689025 -1.6290947 0
1.26674 1.4722148 -1.6217661 1.4012985e-45
1.2736293 1.476626 -1.6123271 0
1.2727195 1.4799621 -1.6049461 0
1.2718098 1.4832982 -1.5975653 0
1.2709001 1.4866341 -1.5901845 0
1.2786608 1.4878511 -1.5878124 0
1.273543 1.4456413 -1.6805419 8.2651947e-40
1.2726333 1.4489774 -1.6731609 3.7237825e-40
1.2717236 1.4523133 -1.6657799 2.7623797e-40
1.2612346 1.4613241 -1.6455258 0
1.2603314 1.4646366 -1.6381972 5.6051939e-45
1.2594281 1.4679489 -1.6308686 1.4012985e-45
1.2585249 1.4712611 -1.62354 0
1.2626264 1.4856738 -1.5919709 0
1.2703283 1.4868841 -1.5896115 0
1.1812273 1.5381516 -1.4732069 9.6653875e-39
1.2634497 1.451353 -1.6675665 1.751717e-39
1.26254 1.454689 -1.6601856 1.4726133e-39
1.2616303 1.4580251 -1.6528049 2.7623797e-40
1.251213 1.4669954 -1.6326424 9.1845305e-41
1.2579914 1.4713693 -1.6232811 1.4012985e-45
1.2570817 1.4747053 -1.6159 0
1.2552624 1.4813774 -1.6011384 0
1.2543527 1.4847134 -1.5937574 0
1.253443 1.4880495 -1.5863765 0
1.1567752 1.5467877 -1.4532241 2.2019994e-38
1.1559308 1.5498846 -1.4463726 2.1282442e-38
1.1550863 1.5529814 -1.4395211 2.1008006e-38
1.146439 1.5606195 -1.4223617 4.8856299e-39
1.1455998 1.5636967 -1.4155533 5.6289529e-39
1.2542663 1.4537287 -1.6619722 7.3722733e-40
1.2533566 1.4570647 -1.6545912 2.7589044e-40
1.2524469 1.4604008 -1.6472104 5.5317378e-40
1.2429979 1.4660418 -1.6344162 1.8439126e-40
1.2420946 1.4693543 -1.6270877 4.2038954e-45
1.2411914 1.4726666 -1.6197591 1.4012985e-45
1.248808 1.473745 -1.6176866 0
1.2478983 1.4770811 -1.6103058 0
1.2469887 1.4804171 -1.6029248 0
1.246079 1.4837532 -1.5955439 0
1.2451693 1.4870892 -1.588163 0
1.2442596 1.4904252 -1.5807821 0
1.164804 1.5394832 -1.4696244 2.118698e-38
1.1565216 1.544259 -1.4587816 2.156081e-38
1.1556715 1.5473766 -1.4518838 2.0916156e-38
1.1548213 1.5504943 -1.4449862 2.1008003e-38
1.1400654 1.5561981 -1.4318435 8.7535318e-39
1.1393504 1.5586835 -1.426343 4.4286076e-39
1.2459924 1.4527683 -1.6637588 1.5669768e-39
1.2450827 1.4561043 -1.6563778 1.1056385e-39
1.244173 1.4594405 -1.6489969 6.4501908e-40
1.2432634 1.4627765 -1.641616 2.7623797e-40
1.2423537 1.4661126 -1.634235 1.8439126e-40
1.2329762 1.4717131 -1.6215329 0
1.2405343 1.4727846 -1.6194731 0
1.2396246 1.4761207 -1.6120923 0
1.2387148 1.4794568 -1.6047114 0
1.2378051 1.4827929 -1.5973305 5.6051939e-45
1.2368954 1.4861288 -1.5899495 0
1.2359858 1.489465 -1.5825686 0
1.2274268 1.4946798 -1.5707481 0
1.1652621 1.5337561 -1.4822516 1.823594e-38
1.1570201 1.5385797 -1.4713053 2.1555772e-38
1.1561642 1.5417182 -1.4643614 2.054451e-38
1.1553084 1.5448567 -1.4574176 2.0361915e-38
1.1544524 1.5479952 -1.4504737 2.0270438e-38
1.1371084 1.5540495 -1.436457 7.4631559e-39
1.1527408 1.5542721 -1.436586 6.9135554e-39
1.2368091 1.455144 -1.6581643 9.2160738e-40
1.2358994 1.4584801 -1.6507833 1.1056385e-39
1.2349896 1.4618161 -1.6434026 8.2941034e-40
1.23408 1.4651521 -1.6360216 5.5282345e-40
1.2247611 1.4707595 -1.6233068 1.8693041e-40
1.2171494 1.4758718 -1.6117495 9.219563e-41
1.2229545 1.4773843 -1.6086496 0
1.2160842 1.4822544 -1.5976552 0
1.2156092 1.4864622 -1.588372 0
1.2286216 1.4851685 -1.5917361 0
1.2277119 1.4885045 -1.5843551 0
1.2192875 1.4940277 -1.5718611 0
1.2187529 1.4972402 -1.5647674 1.4012985e-45
1.2154771 1.5004334 -1.5576068 0
1.2149457 1.5036454 -1.550514 0
1.1816767 1.521214 -1.5105158 8.4754721e-39
1.1574266 1.5328466 -1.4839436 1.96182e-38
1.156565 1.536006 -1.4769536 2.1373895e-38
1.1483804 1.5408146 -1.4660422 2.054451e-38
1.1475246 1.5439532 -1.4590982 2.091581e-38
1.1466687 1.5470917 -1.4521544 1.9439233e-38
1.1458129 1.5502301 -1.4452106 1.0407301e-38
1.1449571 1.5533687 -1.4382668 7.2826939e-39
1.2276256 1.4575198 -1.6525699 1.2903885e-39
1.2267159 1.4608558 -1.6451889 9.2160738e-40
1.2258062 1.4641919 -1.6378081 5.5282345e-40
1.2248964 1.4675279 -1.630427 8.4077908e-45
1.2239867 1.4708639 -1.6230462 4.2038954e-45
1.205811 1.4783965 -1.6057419 1.4012985e-45
1.2052836 1.4815863 -1.598698 0
1.2047559 1.4847764 -1.5916538 0
1.2042278 1.4879664 -1.5846095 1.4012985e-45
1.2194383 1.4875442 -1.5861416 1.4012985e-45
1.2031703 1.4943471 -1.5705194 0
1.2078607 1.4965736 -1.5658034 0
1.2073314 1.4997845 -1.5587128 0
1.2068017 1.5029957 -1.5516219 0
1.1736826 1.5202861 -1.512242 9.2069079e-39
1.1577408 1.5270598 -1.4966967 1.6666469e-38
1.1495911 1.5319371 -1.4856355 1.9896216e-38
1.1487294 1.5350965 -1.4786454 2.1097681e-38
1.1405966 1.5399113 -1.4677229 2.027079e-38
1.1397408 1.5430498 -1.4607791 2.0363713e-38
1.1388849 1.5461882 -1.4538351 1.9164078e-38
1.1380291 1.5493268 -1.4468913 9.7619314e-39
1.1444218 1.5508934 -1.4436954 7.3748895e-39
1.2193518 1.4565594 -1.6543565 4.5920551e-40
1.2184421 1.4598955 -1.6469755 7.3650846e-40
1.2175324 1.4632316 -1.6395946 5.5282345e-40
1.2166227 1.4665676 -1.6322136 2.7589044e-40
1.215713 1.4699037 -1.6248326 5.521172e-40
1.2065244 1.4754773 -1.6121973 2.7658689e-40
1.1971974 1.4809421 -1.5997958 3.5873241e-43
1.1966712 1.4841315 -1.5927533 0
1.1961447 1.4873209 -1.5857103 0
1.1928606 1.4904898 -1.5786033 1.4012985e-45
1.1923373 1.4936787 -1.5715616 1.4012985e-45
1.1918133 1.4968679 -1.5645195 2.8025969e-45
1.1498535 1.5261444 -1.4983996 1.8327458e-38
1.1417553 1.5310277 -1.4873275 2.1004033e-38
1.1408938 1.5341871 -1.4803374 2.054486e-38
1.1400323 1.5373464 -1.4733473 1.9809094e-38
1.1319569 1.5421462 -1.4624597 2.0363381e-38
1.1311011 1.5452847 -1.4555159 1.8148865e-38
1.1302452 1.5484233 -1.448572 9.9474002e-39
1.1365862 1.5499839 -1.4453874 7.558922e-39
1.2184145 1.4565961 -1.6542385 1.4693679e-39
1.2174984 1.4599558 -1.6468053 0
1.208349 1.4656073 -1.6340001 0
1.2074393 1.4689434 -1.6266191 9.1845305e-41
1.2065296 1.4722793 -1.6192384 0
1.1974061 1.4778361 -1.6066426 9.1845305e-41
1.1965029 1.4811485 -1.5993141 7.0064923e-45
1.1955996 1.4844609 -1.5919855 0
1.1946964 1.4877734 -1.5846567 4.2038954e-45
1.1937931 1.4910858 -1.5773281 1.4012985e-45
1.1928898 1.4943981 -1.5699996 1.4012985e-45
1.1919866 1.4977106 -1.5626709 0
1.1500241 1.5202978 -1.5112786 1.6851229e-38
1.1419661 1.5252289 -1.5001028 1.9066448e-38
1.13392 1.5301182 -1.4890193 2.0820002e-38
1.1330583 1.5332776 -1.4820293 2.0359044e-38
1.1321968 1.5364369 -1.4750392 1.990094e-38
1.1313353 1.5395963 -1.4680492 2.0086055e-38
1.1304739 1.5427557 -1.4610592 1.7965197e-38
1.1296123 1.545915 -1.4540693 1.0224692e-38
1.1287507 1.5490744 -1.4470792 7.1004704e-39
1.2000751 1.4646469 -1.6357867 9.219563e-40
1.1991655 1.467983 -1.6284057 6.4501908e-40
1.1982558 1.471319 -1.6210247 4.6097815e-40
1.1973461 1.474655 -1.613644 1.8404094e-40
1.1882877 1.480195 -1.6010878 2.7658689e-40
1.1873845 1.4835074 -1.5937593 9.1845305e-41
1.1864811 1.4868199 -1.5864307 5.6051939e-45
1.1855779 1.4901322 -1.579102 5.6051939e-45
1.1846746 1.4934447 -1.5717734 1.4012985e-45
1.1737493 1.5045164 -1.546964 2.9387359e-39
1.1420848 1.5193763 -1.512993 1.8880962e-38
1.1340787 1.5243133 -1.5018059 1.9989499e-38
1.1332116 1.5274936 -1.4947697 2.0637776e-38
1.1252227 1.5323681 -1.4837211 2.0453033e-38
1.1243612 1.5355275 -1.4767312 1.9716192e-38
1.1234996 1.5386869 -1.4697411 1.9809466e-38
1.1226382 1.5418463 -1.4627512 1.768861e-38
1.1217766 1.5450056 -1.4557611 9.1197695e-39
1.1899819 1.4703587 -1.6228113 6.4501908e-40
1.1890723 1.4736947 -1.6154305 6.4396251e-40
1.1881626 1.4770308 -1.6080496 2.7623797e-40
1.1791693 1.4825538 -1.5955331 2.7589044e-40
1.178266 1.4858663 -1.5882046 8.4077908e-45
1.1773628 1.4891787 -1.5808759 0
1.1425843 1.5133511 -1.5262783 1.7126727e-38
1.1417053 1.5165744 -1.5191466 1.9525648e-38
1.133273 1.5216559 -1.5076247 2.0820005e-38
1.1253242 1.5265781 -1.4964727 2.0638132e-38
1.124457 1.5297585 -1.4894365 2.0084971e-38
1.1235898 1.5329386 -1.4824004 1.9806945e-38
1.115664 1.5377773 -1.471433 1.9808747e-38
1.1148026 1.5409367 -1.4644431 1.7135434e-38
1.1209882 1.5424794 -1.4612918 7.8293964e-39
1.1817083 1.4693984 -1.6245978 5.5282345e-40
1.1807985 1.4727343 -1.6172169 5.5282345e-40
1.1709543 1.4816003 -1.597307 9.1845305e-41
1.170051 1.4849128 -1.5899783 9.1845305e-41
1.1345901 1.5124232 -1.5280044 1.8511113e-38
1.1337111 1.5156466 -1.5208727 2.0079891e-38
1.1253339 1.5207344 -1.509339 2.1002967e-38
1.1244609 1.5239356 -1.5022566 2.0359044e-38
1.1165698 1.5288429 -1.4911397 2.0083904e-38
1.1227152 1.5303377 -1.4880919 1.9808017e-38
1.1218423 1.5335388 -1.4810096 1.9624346e-38
1.1209693 1.5367399 -1.4739271 1.6398575e-38
1.1200963 1.5399411 -1.4668448 7.4620432e-39
1.134051 1.5095799 -1.5342431 1.9710022e-38
1.1257168 1.5147187 -1.522599 2.0542314e-38
1.1248378 1.5179421 -1.5154674 2.0729974e-38
1.1239588 1.5211654 -1.5083357 1.9992059e-38
1.115649 1.5262151 -1.4968885 1.9992056e-38
1.114776 1.5294163 -1.4898062 1.9621832e-38
1.1130301 1.5358185 -1.4756414 1.4922751e-38
1.1268865 1.5053999 -1.543162 1.8325265e-38
1.1186016 1.5105674 -1.5314567 1.9802231e-38
1.1177225 1.5137907 -1.5243251 2.0726715e-38
1.1168436 1.5170141 -1.5171936 2.0822173e-38
1.1159645 1.5202376 -1.5100619 1.9806945e-38
1.1150856 1.5234609 -1.5029304 1.9991693e-38
1.1142066 1.5266842 -1.4957987 1.9344534e-38
1.118837 1.5044656 -1.5449002 1.9433087e-38
1.117952 1.5077113 -1.5377192 2.0356503e-38
1.1170669 1.5109569 -1.5305383 2.045122e-38
1.1088492 1.5160862 -1.5189196 2.0545216e-38
1.1079702 1.5193096 -1.5117881 1.9899493e-38
1.1070912 1.5225329 -1.5046566 1.9990963e-38
1.1062123 1.5257564 -1.4975249 1.8976112e-38
1.1107875 1.5035312 -1.5466383 2.0541616e-38
1.1099025 1.5067769 -1.5394573 2.045085e-38
1.1090174 1.5100226 -1.5322765 2.045122e-38
1.1008549 1.5151583 -1.5206457 1.9806226e-38
1.0999759 1.5183817 -1.5135143 1.9712951e-38
1.099097 1.521605 -1.5063827 1.9713294e-38
1.1099784 1.5006337 -1.5529858 2.0450494e-38
1.101853 1.5058427 -1.5411955 2.0358298e-38
1.1009679 1.5090883 -1.5340146 2.0358667e-38
1.1000829 1.5123339 -1.5268338 1.9806929e-38
1.0991979 1.5155795 -1.519653 1.9896977e-38
1.1018738 1.4996929 -1.5547358 1.9896241e-38
1.0938034 1.5049083 -1.5429336 2.026503e-38
1.0929184 1.5081539 -1.5357528 1.9806576e-38
1.0920334 1.5113995 -1.5285718 1.9898043e-38
1.0911484 1.5146452 -1.521391 1.9898043e-38
1.092878 1.5020201 -1.5492557 2.0540894e-38
1.0848689 1.5072197 -1.5374908 2.0173907e-38
1.288067 1.4548496 -1.6608435 0
1.2856325 1.5440738 -1.464305 0
1.2931107 1.5455953 -1.4612517 5.0613836e-39
1.285956 1.5498945 -1.451503 5.9912544e-39
1.2934362 1.5514498 -1.4483749 4.7854903e-39
1.2598509 1.4922932 -1.5772872 0
1.2604901 1.5037925 -1.5519949 0
1.2609694 1.512417 -1.5330256 0
1.2611291 1.5152918 -1.5267025 0
1.261289 1.5181665 -1.5203795 0
1.2614487 1.5210415 -1.5140564 0
1.2616086 1.5239164 -1.5077333 0
1.2690331 1.5252656 -1.5050569 0
1.2691938 1.5281575 -1.4986963 0
1.2693545 1.5310493 -1.4923359 0
1.2695153 1.5339411 -1.4859754 0
1.269676 1.5368329 -1.479615 0
1.2698368 1.5397247 -1.4732544 0
1.2699974 1.5426166 -1.4668939 0
1.2780354 1.5439848 -1.4642001 3.6734198e-40
1.2781972 1.546895 -1.4577991 8.0156094e-39
1.2856318 1.5484329 -1.4547079 8.2947172e-39
1.2523463 1.4922051 -1.5771836 0
1.2525061 1.49508 -1.5708606 0
1.2526659 1.4979548 -1.5645374 0
1.2528256 1.5008297 -1.5582144 0
1.2529854 1.5037045 -1.5518913 0
1.2531453 1.5065794 -1.5455682 0
1.2533051 1.5094541 -1.5392451 0
1.2534648 1.512329 -1.532922 0
1.260841 1.5136096 -1.5303947 0
1.2537844 1.5180787 -1.5202758 0
1.2611624 1.5193934 -1.5176736 0
1.2613232 1.5222852 -1.511313 0
1.2614839 1.525177 -1.5049527 0
1.2616446 1.5280689 -1.4985921 0
1.2618054 1.5309608 -1.4922317 0
1.269791 1.5322547 -1.4896992 0
1.2699528 1.5351648 -1.4832984 0
1.2701145 1.5380751 -1.4768974 0
1.2624483 1.5425282 -1.4667897 0
1.2776648 1.5424887 -1.4674792 3.4944124e-39
1.2778275 1.545416 -1.4610409 9.1273547e-39
1.2858214 1.5468559 -1.4581873 1.0138642e-38
1.2446816 1.4892423 -1.5834031 0
1.2448415 1.4921172 -1.5770801 0
1.2450013 1.494992 -1.5707569 0
1.2451611 1.4978667 -1.5644339 0
1.2453208 1.5007417 -1.5581107 0
1.2526488 1.5019538 -1.5557324 0
1.2528096 1.5048457 -1.5493718 0
1.2529705 1.5077375 -1.5430113 0
1.253131 1.5106293 -1.5366509 0
1.2532918 1.5135212 -1.5302904 0
1.2534525 1.5164131 -1.52393 0
1.2536134 1.5193049 -1.5175694 0
1.261547 1.5205245 -1.5151986 0
1.2617087 1.5234348 -1.5087975 0
1.2618705 1.526345 -1.5023965 0
1.2620322 1.5292553 -1.4959955 0
1.2621939 1.5321655 -1.4895945 0
1.2623557 1.5350758 -1.4831935 0
1.2625175 1.537986 -1.4767925 0
1.2548991 1.5424395 -1.4666855 0
1.2700233 1.5423992 -1.4673737 8.6584761e-39
1.2701859 1.5453264 -1.4609354 8.9429761e-39
1.2573378 1.4515638 -1.66686 0
1.2371771 1.4891543 -1.5832995 0
1.2373369 1.4920292 -1.5769764 0
1.2374966 1.494904 -1.5706533 0
1.2376565 1.4977788 -1.5643302 0
1.2378162 1.5006536 -1.5580072 0
1.2450999 1.5018654 -1.5556281 0
1.2452607 1.5047572 -1.5492676 0
1.2454213 1.5076491 -1.5429071 0
1.2533026 1.5087943 -1.5406978 0
1.2534643 1.5117046 -1.5342968 0
1.2536261 1.5146149 -1.5278957 0
1.2537879 1.5175252 -1.5214946 0
1.2539496 1.5204353 -1.5150937 0
1.2541114 1.5233457 -1.5086926 0
1.2542732 1.526256 -1.5022916 0
1.2615682 1.5276731 -1.4994605 0
1.2617308 1.5306004 -1.493022 0
1.2618935 1.5335277 -1.4865836 0
1.2620562 1.5364549 -1.4801452 0
1.262219 1.5393822 -1.4737067 6.1687863e-39
1.2623817 1.5423095 -1.4672682 8.9382495e-39
1.2625443 1.5452368 -1.4608297 8.6095778e-42
1.2361042 1.4757503 -1.6127683 0
1.2362649 1.478642 -1.6064079 0
1.2367471 1.4873176 -1.5873264 0
1.2369077 1.4902093 -1.580966 0
1.2370685 1.4931012 -1.5746055 0
1.2372293 1.495993 -1.5682449 0
1.23739 1.4988849 -1.5618844 0
1.2375507 1.5017768 -1.5555239 0
1.2453818 1.5028846 -1.553395 0
1.252625 1.5041653 -1.5508624 0
1.2527876 1.5070926 -1.5444241 0
1.2529504 1.5100199 -1.5379856 0
1.253113 1.5129472 -1.5315472 0
1.2532758 1.5158744 -1.5251088 0
1.2534385 1.5188017 -1.5186702 0
1.2536011 1.521729 -1.5122318 0
1.2537639 1.5246562 -1.5057933 0
1.2616061 1.5259655 -1.5032218 0
1.2617699 1.5289112 -1.4967427 0
1.2619336 1.5318569 -1.4902638 0
1.269189 1.53336 -1.4872419 8.2651947e-40
1.2624248 1.540694 -1.4708267 9.4950709e-39
1.2496597 1.4492869 -1.6715689 0
1.2422173 1.4543121 -1.6602104 0
1.228555 1.4756618 -1.6126641 0
1.2287158 1.4785535 -1.6063037 0
1.2288765 1.4814453 -1.5999432 0
1.2290373 1.4843372 -1.5935826 0
1.2291979 1.4872291 -1.5872222 0
1.2293587 1.4901209 -1.5808618 0
1.2295195 1.4930127 -1.5745012 0
1.2296802 1.4959046 -1.5681407 0
1.2374611 1.4969751 -1.5660923 0
1.2446579 1.4982212 -1.5636339 0
1.2448205 1.5011485 -1.5571954 0
1.2526066 1.5023097 -1.5549473 0
1.2527704 1.5052553 -1.5484684 0
1.2529341 1.5082011 -1.5419893 0
1.2530979 1.5111468 -1.5355104 0
1.2532616 1.5140924 -1.5290314 0
1.2604668 1.515493 -1.5262334 0
1.2606317 1.5184557 -1.519717 0
1.2607963 1.5214183 -1.5132006 0
1.2687581 1.5257436 -1.5039934 0
1.2421335 1.4521425 -1.6649836 0
1.2279229 1.4619628 -1.6427995 0
1.221006 1.4755732 -1.6125599 0
1.2211667 1.478465 -1.6061995 0
1.2213274 1.4813569 -1.599839 0
1.2214881 1.4842488 -1.5934784 0
1.2216489 1.4871405 -1.5871179 0
1.2218097 1.4900323 -1.5807576 0
1.2219703 1.4929242 -1.5743971 0
1.2221311 1.495816 -1.5680366 0
1.2368536 1.4952042 -1.5699668 0
1.2370163 1.4981315 -1.5635283 0
1.2447531 1.4992738 -1.5613201 0
1.2449168 1.5022194 -1.5548412 0
1.2450805 1.5051652 -1.5483621 0
1.2522388 1.5065142 -1.5456758 0
1.2524035 1.5094769 -1.5391594 0
1.2525681 1.5124396 -1.532643 0
1.2527328 1.5154023 -1.5261266 0
1.2604789 1.516709 -1.5235567 0
1.2682269 1.5180526 -1.5209056 0
1.2687271 1.5270512 -1.5011134 4.7869294e-39
1.2344438 1.4520524 -1.6648775 0
1.2270968 1.4570601 -1.653561 0
1.2272596 1.4599873 -1.6471226 0
1.2204875 1.464784 -1.6362936 0
1.2206492 1.4676943 -1.6298926 0
1.213457 1.4754847 -1.6124556 0
1.2136177 1.4783765 -1.6060953 0
1.2212963 1.4793353 -1.6042886 0
1.2214581 1.4822456 -1.5978875 0
1.2216198 1.4851558 -1.5914865 0
1.2217815 1.4880661 -1.5850854 0
1.2219433 1.4909763 -1.5786844 0
1.222105 1.4938866 -1.5722834 0
1.2367359 1.4932922 -1.5741719 0
1.2368997 1.4962379 -1.5676929 0
1.2370634 1.4991837 -1.5612139 0
1.2441753 1.5004981 -1.5586017 0
1.2443401 1.5034608 -1.5520854 0
1.2445047 1.5064235 -1.5455689 0
1.2521993 1.5076743 -1.54312 0
1.252365 1.5106555 -1.536563 0
1.2600631 1.5119616 -1.5339924 0
1.2267541 1.4519621 -1.6647713 0
1.2269179 1.4549079 -1.6582924 0
1.2270815 1.4578536 -1.6518134 0
1.2197806 1.4628251 -1.6405786 0
1.2199434 1.4657522 -1.6341401 0
1.2132137 1.4705155 -1.6233866 0
1.2059078 1.4753962 -1.6123514 0
1.2060686 1.4782879 -1.605991 0
1.2136991 1.4792463 -1.6041837 0
1.2138608 1.4821565 -1.5977826 0
1.2140225 1.4850667 -1.5913817 0
1.2141843 1.487977 -1.5849806 0
1.2143461 1.4908873 -1.5785795 0
1.2214075 1.4920977 -1.5761943 0
1.2290462 1.493202 -1.5740658 0
1.22921 1.4961478 -1.5675868 0
1.2293737 1.4990934 -1.5611078 0
1.2364413 1.5004073 -1.558495 0
1.2366059 1.50337 -1.5519786 0
1.2442514 1.504602 -1.5495695 0
1.2444171 1.507583 -1.5430125 0
1.2445828 1.5105642 -1.5364556 0
1.2522328 1.5118698 -1.5338844 0
1.2259077 1.4499505 -1.6691668 0
1.2192283 1.4548177 -1.6581862 1.4012985e-45
1.2193919 1.4577633 -1.6517073 0
1.2195557 1.4607091 -1.6452283 0
1.2123017 1.4656627 -1.6340348 4.2038954e-45
1.2056167 1.4704264 -1.6232817 0
1.2057785 1.4733366 -1.6168807 0
1.2059402 1.4762468 -1.6104797 0
1.2129526 1.4773717 -1.608281 0
1.2131152 1.480299 -1.6018425 0
1.2132779 1.4832264 -1.595404 0
1.2134407 1.4861536 -1.5889658 0
1.2136034 1.4890809 -1.5825272 0
1.221193 1.4901662 -1.5804386 0
1.2213566 1.4931118 -1.5739597 0
1.2215204 1.4960576 -1.5674806 0
1.2216841 1.4990033 -1.5610015 0
1.2287071 1.5003166 -1.5583882 0
1.2288718 1.5032793 -1.5518719 0
1.2364693 1.5045106 -1.5494621 0
1.2440689 1.5057788 -1.5469712 0
1.2516707 1.5070838 -1.5443993 0
1.2181736 1.4498597 -1.6690601 0
1.2183383 1.4528226 -1.6625437 0
1.2185029 1.4557853 -1.6560273 0
1.2186676 1.4587479 -1.6495109 0
1.2120296 1.4635646 -1.6386431 0
1.2121934 1.4665104 -1.6321641 0
1.212357 1.469456 -1.6256852 0
1.2125207 1.4724017 -1.6192063 0
1.2053111 1.4772822 -1.6081755 0
1.2130119 1.4812388 -1.5997694 0
1.2131757 1.4841845 -1.5932903 0
1.2133393 1.4871303 -1.5868114 0
1.2203143 1.4883751 -1.584347 0
1.2204789 1.4913378 -1.5778306 0
1.2206438 1.4943005 -1.5713142 0
1.2208084 1.4972632 -1.5647978 0
1.2283558 1.4984571 -1.5624684 0
1.2285213 1.5014383 -1.5559115 0
1.2360718 1.5026873 -1.5534605 0
1.2436246 1.5039734 -1.5509285 0
1.1671424 1.5360262 -1.4773283 3.319351e-39
1.2179223 1.4506675 -1.6672717 7.0064923e-45
1.2107688 1.4556946 -1.6559205 0
1.2041762 1.4605287 -1.645016 0
1.2110981 1.46162 -1.6428877 0
1.2045037 1.4664202 -1.632058 0
1.2046674 1.4693658 -1.625579 0
1.2048311 1.4723115 -1.6191001 0
1.2049949 1.4752572 -1.6126212 0
1.2051586 1.4782029 -1.6061422 0
1.2053224 1.4811487 -1.5996631 0
1.2122508 1.4823589 -1.597273 0
1.2124155 1.4853216 -1.5907567 0
1.2125802 1.4882845 -1.5842402 0
1.2127448 1.4912472 -1.5777239 0
1.2129096 1.4942098 -1.5712074 0
1.2130742 1.4971725 -1.5646911 0
1.2205734 1.4983658 -1.562361 0
1.2207391 1.5013469 -1.5558041 0
1.2282416 1.5025955 -1.5533525 0
1.235746 1.503881 -1.5508196 0
1.2103058 1.4535574 -1.6606073 0
1.2031994 1.4585665 -1.6492974 0
1.203364 1.4615294 -1.6427809 0
1.2035286 1.464492 -1.6362644 0
1.1969777 1.4692757 -1.6254728 0
1.1971414 1.4722214 -1.6189939 0
1.1973052 1.475167 -1.612515 0
1.1974689 1.4781128 -1.6060359 0
1.2045168 1.4822682 -1.5971663 0
1.204846 1.4881938 -1.5841335 0
1.2051754 1.4941192 -1.5711007 0
1.2053401 1.4970819 -1.5645843 0
1.2129569 1.5012556 -1.5556966 0
1.2204112 1.5025038 -1.5532444 0
1.1954651 1.4584758 -1.6491907 1.4012985e-45
1.1956298 1.4614387 -1.6426741 0
1.1957945 1.4644012 -1.6361578 0
1.1959591 1.4673641 -1.6296413 0
1.1961238 1.4703267 -1.623125 0
1.1896154 1.4750769 -1.6124088 0
1.189779 1.4780226 -1.6059297 0
1.1966178 1.4792148 -1.6035759 0
1.1967825 1.4821776 -1.5970595 0
1.1902703 1.4868597 -1.5864929 0
1.1974411 1.4940284 -1.5709939 0
1.1976058 1.4969912 -1.5644776 0
1.2053403 1.5041456 -1.5490322 0
1.205506 1.5071267 -1.5424753 0
1.2056718 1.5101079 -1.5359185 0
1.2058375 1.5130891 -1.5293615 3.2285917e-42
1.181107 1.4602582 -1.6446974 1.4012985e-45
1.1878957 1.4613479 -1.6425673 0
1.1880603 1.4643106 -1.6360509 0
1.188225 1.4672734 -1.6295345 0
1.1883898 1.4702361 -1.6230183 0
1.1885544 1.4731988 -1.6165018 0
1.1820894 1.4779325 -1.6058236 0
1.1822532 1.4808782 -1.5993447 0
1.1973925 1.5010731 -1.5554817 0
1.1978896 1.5100167 -1.5358109 0
1.1195865 1.5538119 -1.4362856 7.3756532e-39
1.1871247 1.4562649 -1.6537281 0
1.1801616 1.4612572 -1.6424606 0
1.1803262 1.4642199 -1.6359441 0
1.1804909 1.4671826 -1.6294278 0
1.1806556 1.4701453 -1.6229115 0
1.1808203 1.4731079 -1.6163951 0
1.180985 1.4760708 -1.6098787 0
1.1811496 1.4790335 -1.6033623 0
1.1813142 1.4819963 -1.596846 0
1.1819729 1.4938471 -1.5707803 0
1.1821377 1.4968097 -1.5642638 0
1.1823024 1.4997724 -1.5577475 0
1.1901073 1.5099254 -1.5357035 0
1.1795083 1.4591547 -1.6470637 1.2611686e-44
1.1796739 1.4621359 -1.6405067 0
1.1727568 1.467092 -1.629321 0
1.1729214 1.4700546 -1.6228046 0
1.1730862 1.4730173 -1.6162883 0
1.1732508 1.47598 -1.609772 0
1.1734155 1.4789428 -1.6032555 0
1.1735802 1.4819055 -1.5967392 0
1.1737448 1.4848682 -1.5902227 0
1.1739094 1.487831 -1.5837064 0
1.1740742 1.4907937 -1.5771899 0
1.1819937 1.5038719 -1.5487099 0
1.1821594 1.506853 -1.542153 0
1.1894233 1.5081356 -1.5396171 7.1746481e-43
1.1224202 1.5270317 -1.4953592 2.0318786e-39
1.1160231 1.5313908 -1.4855086 6.7194265e-39
1.104779 1.5480878 -1.4483014 9.7723864e-39
1.1049334 1.5508648 -1.4421935 9.3103293e-39
1.1718917 1.4620446 -1.6403993 0
1.1720574 1.4650258 -1.6338423 0
1.1651872 1.4699639 -1.6226979 0
1.1653521 1.4729266 -1.6161816 0
1.1725545 1.4739691 -1.6141717 0
1.1656814 1.478852 -1.6031488 0
1.165846 1.4818149 -1.5966324 0
1.1660107 1.4847775 -1.590116 0
1.1661754 1.4877403 -1.5835996 0
1.16634 1.490703 -1.5770832 0
1.1665046 1.4936657 -1.5705668 0
1.1666694 1.4966284 -1.5640503 0
1.1668341 1.4995911 -1.557534 0
1.1669987 1.5025539 -1.5510175 0
1.1671634 1.5055165 -1.5445012 0
1.1743771 1.5067618 -1.5420456 0
1.1815929 1.5080438 -1.5395088 4.6097815e-40
1.1215539 1.5253938 -1.4989309 4.0515434e-39
1.1030356 1.5382966 -1.4697896 1.0048245e-38
1.1031908 1.5410892 -1.4636474 1.0048247e-38
1.0975296 1.5480028 -1.4482013 9.8645821e-39
1.097684 1.5507798 -1.4420934 9.3103293e-39
1.1641095 1.4619534 -1.6402918 0
1.1642752 1.4649345 -1.6337349 0
1.1644408 1.4679157 -1.6271781 0
1.1646066 1.4708966 -1.6206212 0
1.1647723 1.4738779 -1.6140643 0
1.1579474 1.4787614 -1.603042 0
1.158112 1.4817241 -1.5965257 0
1.1582767 1.4846869 -1.5900092 0
1.1584413 1.4876496 -1.5834928 0
1.1586061 1.4906123 -1.5769764 0
1.1587707 1.493575 -1.57046 0
1.1589353 1.4965377 -1.5639436 0
1.1591001 1.4995005 -1.5574272 0
1.1592648 1.5024631 -1.5509108 0
1.1594294 1.5054258 -1.5443944 0
1.1665949 1.5066705 -1.5419381 0
1.1667606 1.5096517 -1.5353812 0
1.1079841 1.5325091 -1.4827276 9.3063482e-39
1.1016737 1.5368352 -1.472953 1.0048245e-38
1.1018299 1.5396434 -1.4667765 9.9560518e-39
1.1019859 1.5424516 -1.4606 1.0230841e-38
1.0962112 1.5465888 -1.4512624 1.0047894e-38
1.0904347 1.5506949 -1.4419934 9.3106824e-39
1.1564928 1.4648433 -1.6336275 0
1.1566585 1.4678243 -1.6270707 0
1.1568244 1.4708055 -1.6205138 0
1.1569901 1.4737866 -1.6139568 0
1.1571556 1.4767678 -1.6073999 0
1.1573213 1.4797488 -1.6008431 0
1.1505426 1.4845961 -1.5899024 0
1.1507072 1.4875588 -1.5833859 0
1.1508719 1.4905216 -1.5768696 0
1.1510366 1.4934843 -1.5703532 0
1.1512012 1.4964471 -1.5638368 0
1.151366 1.4994098 -1.5573204 0
1.1515306 1.5023725 -1.550804 0
1.1516953 1.5053352 -1.5442877 0
1.1006089 1.5324227 -1.4826258 9.9513617e-39
1.1007658 1.5352478 -1.4764118 1.0323036e-38
1.1009228 1.5380731 -1.4701979 9.9556987e-39
1.094655 1.5423657 -1.4604988 9.9556987e-39
1.0948112 1.5451739 -1.4543222 9.5876364e-39
1.0949672 1.547982 -1.4481457 9.0340969e-39
1.0951233 1.5507903 -1.441969 4.8877977e-39
1.1488764 1.4677331 -1.6269633 0
1.1490421 1.4707142 -1.6204063 0
1.1492077 1.4736954 -1.6138494 0
1.1493734 1.4766765 -1.6072924 0
1.1426438 1.4815427 -1.596312 0
1.1428084 1.4845054 -1.5897956 0
1.1429732 1.4874681 -1.5832793 0
1.1431378 1.4904308 -1.5767628 0
1.1433024 1.4933937 -1.5702463 0
1.1434671 1.4963562 -1.56373 0
1.1436319 1.4993191 -1.5572135 0
1.1437966 1.5022818 -1.5506972 0
1.1439612 1.5052445 -1.5441809 0
1.1441258 1.5082072 -1.5376644 0
1.1113551 1.5192815 -1.5119841 4.598232e-39
1.0992951 1.5251327 -1.4986237 8.8435582e-39
1.0994531 1.5279751 -1.4923722 9.2137952e-39
1.0932336 1.5323361 -1.4825239 9.5858218e-39
1.0933906 1.5351614 -1.47631 1.0599981e-38
1.0935476 1.5379866 -1.4700961 9.9556987e-39
1.0937047 1.5408118 -1.4638822 9.7727396e-39
1.0938617 1.5436369 -1.4576683 9.5876364e-39
1.0940188 1.5464622 -1.4514543 8.665313e-39
1.0877925 1.5507044 -1.4418678 3.5985064e-39
1.14126 1.470623 -1.6202989 0
1.1414256 1.4736041 -1.6137419 0
1.1415913 1.4765853 -1.607185 0
1.141757 1.4795665 -1.6006281 0
1.1419228 1.4825475 -1.5940711 0
1.1352389 1.4873775 -1.5831724 0
1.1354035 1.4903402 -1.5766561 0
1.1355683 1.4933028 -1.5701396 0
1.1357329 1.4962656 -1.5636232 0
1.1358976 1.4992284 -1.5571069 0
1.1360623 1.5021911 -1.5505904 0
1.136227 1.5051539 -1.5440741 0
1.1300623 1.509704 -1.5338117 1.2856969e-39
1.1101805 1.5176228 -1.5155891 8.0130758e-39
1.0918754 1.5250458 -1.4985211 9.0286725e-39
1.0920335 1.5278879 -1.4922698 1.0044264e-38
1.0921915 1.5307301 -1.4860185 9.9564022e-39
1.0923494 1.5335724 -1.4797671 1.0047894e-38
1.0925075 1.5364147 -1.4735157 9.7716676e-39
1.0863296 1.5407252 -1.4637804 9.5879896e-39
1.0864866 1.5435505 -1.4575665 9.4053962e-39
1.0866436 1.5463758 -1.4513525 8.3890835e-39
1.0868007 1.5492009 -1.4451385 2.308834e-39
1.1470703 1.4666487 -1.6292791 0
1.147238 1.4696667 -1.6226411 0
1.1406075 1.4745893 -1.6115403 0
1.1339748 1.4794751 -1.6005206 0
1.1341405 1.4824562 -1.5939637 0
1.1275048 1.4872868 -1.5830657 0
1.1276695 1.4902495 -1.5765493 0
1.1278341 1.4932122 -1.5700327 0
1.1279987 1.4961749 -1.5635165 0
1.1281635 1.4991376 -1.557 0
1.1283282 1.5021003 -1.5504837 0
1.1284928 1.5050631 -1.5439672 0
1.115564 1.5113342 -1.5296481 4.6871976e-39
1.0900598 1.5206765 -1.508069 9.3945782e-39
1.0902185 1.5235343 -1.5017833 9.3063482e-39
1.0846138 1.527801 -1.4921674 1.0136112e-38
1.0847719 1.5306432 -1.485916 1.0232989e-38
1.0849298 1.5334854 -1.4796646 9.9560518e-39
1.0850879 1.5363276 -1.4734132 1.0323036e-38
1.0852457 1.5391698 -1.467162 9.7720179e-39
1.0854037 1.5420121 -1.4609107 9.129168e-39
1.0792683 1.5462893 -1.4512506 8.2950886e-39
1.073131 1.5505323 -1.4416654 2.2166384e-39
1.1324435 1.4684983 -1.6246272 0
1.1393596 1.4695743 -1.6225324 0
1.1327771 1.4744976 -1.6114323 0
1.1329437 1.4774971 -1.6048348 0
1.1263583 1.482365 -1.5938562 0
1.1197706 1.4871961 -1.5829589 0
1.1266897 1.4883274 -1.5807424 0
1.1268553 1.4913085 -1.5741855 0
1.127021 1.4942896 -1.5676286 0
1.1204293 1.4990469 -1.5568933 0
1.120594 1.5020096 -1.5503769 0
1.1145192 1.5065778 -1.5400784 1.102026e-39
1.0949216 1.514554 -1.5217412 6.9989197e-39
1.0825995 1.520589 -1.507966 9.3048993e-39
1.0827584 1.5234468 -1.5016804 9.9517176e-39
1.0829172 1.5263046 -1.4953947 9.953884e-39
1.0773523 1.5305562 -1.4858136 1.0323392e-38
1.0832348 1.5320202 -1.4828234 9.9560518e-39
1.0776681 1.5362407 -1.4733108 9.7720179e-39
1.0778261 1.5390829 -1.4670595 9.4039542e-39
1.0779841 1.5419251 -1.4608082 9.0348214e-39
1.078142 1.5447673 -1.4545568 7.9252298e-39
1.0840291 1.5463094 -1.451395 1.7556616e-39
1.1313133 1.4664639 -1.6290616 0
1.1314811 1.4694819 -1.6224235 0
1.1316488 1.4725 -1.6157856 0
1.1251134 1.4774052 -1.6047267 0
1.1252801 1.4804049 -1.5981292 0
1.1187418 1.485255 -1.5871919 0
1.1189073 1.4882361 -1.580635 0
1.119073 1.4912173 -1.5740781 0
1.1192389 1.4941984 -1.5675211 0
1.1194046 1.4971795 -1.5609642 0
1.1066657 1.5035421 -1.5464512 0
1.0939231 1.5098338 -1.5320941 5.6094986e-39
1.0873725 1.5144656 -1.5216368 8.8428295e-39
1.0813363 1.5189294 -1.5115697 9.5836441e-39
1.0752982 1.5233593 -1.5015774 1.0043916e-38
1.075457 1.5262172 -1.4952916 1.0415588e-38
1.0756159 1.529075 -1.4890059 1.0783662e-38
1.0757747 1.5319327 -1.4827204 1.0048247e-38
1.0702486 1.5361536 -1.4732084 9.6794663e-39
1.0704067 1.5389959 -1.4669571 9.402878e-39
1.0705646 1.541838 -1.4607058 8.5741964e-39
1.0707226 1.5446802 -1.4544544 8.1056554e-39
1.1236026 1.4693896 -1.6223148 0
1.1237702 1.4724076 -1.6156768 0
1.1172831 1.4773134 -1.6046185 0
1.1174498 1.4803131 -1.5980211 0
1.1109594 1.4851636 -1.5870845 0
1.111125 1.4881448 -1.5805277 0
1.1112907 1.4911261 -1.5739706 0
1.1114565 1.4941071 -1.5674137 0
1.1116222 1.4970883 -1.5608567 0
1.0923138 1.5052108 -1.5422084 2.2083567e-39
1.0863259 1.5097446 -1.5319892 7.2715409e-39
1.0798234 1.514377 -1.5215328 8.6609788e-39
1.0738317 1.5188414 -1.511466 9.6751335e-39
1.067838 1.5232719 -1.5014743 1.0136112e-38
1.0679967 1.5261296 -1.4951887 1.0784365e-38
1.0681556 1.5289874 -1.488903 1.0507786e-38
1.0683144 1.5318453 -1.4826174 1.0047894e-38
1.0684733 1.5347031 -1.4763316 9.5869204e-39
1.0686321 1.5375609 -1.4700462 9.493273e-39
1.0687909 1.5404187 -1.4637605 8.4820008e-39
1.0633031 1.5445933 -1.4543519 7.1869431e-39
1.1158919 1.4723152 -1.615568 0
1.1094528 1.4772216 -1.6045104 0
1.1096195 1.4802212 -1.597913 0
1.1031771 1.4850724 -1.5869771 0
1.1033428 1.4880534 -1.5804201 0
1.1035086 1.4910347 -1.5738631 0
1.1036743 1.4940159 -1.5673062 2.0225361e-39
1.097227 1.4987749 -1.5565729 3.8621145e-39
1.0846721 1.5051212 -1.5421029 6.2591813e-39
1.0787288 1.5096556 -1.5318842 8.474047e-39
1.0722743 1.5142884 -1.5214285 9.2170196e-39
1.072435 1.5171803 -1.5150679 9.6776517e-39
1.0664867 1.5216283 -1.5050395 1.032015e-38
1.0666465 1.524503 -1.4987164 1.0968762e-38
1.0668062 1.527378 -1.4923933 1.0415232e-38
1.0669659 1.5302527 -1.4860702 1.0415232e-38
1.0671258 1.5331275 -1.4797471 9.8624171e-39
1.0672855 1.5360024 -1.4734241 9.3088916e-39
1.0674453 1.5388771 -1.4671011 8.389452e-39
1.0614895 1.543189 -1.4573717 6.3614985e-39
1.1150757 1.4701686 -1.6202617 1.4012985e-45
1.1081812 1.4752408 -1.6088213 0
1.1017891 1.4801294 -1.5978049 1.4012985e-44
1.095395 1.4849811 -1.5868696 0
1.0955607 1.4879622 -1.5803127 9.1835496e-40
1.0891635 1.4927588 -1.569499 5.0660583e-39
1.0893283 1.4957215 -1.5629826 5.2461055e-39
1.0834328 1.5003259 -1.5526116 6.1677143e-39
1.0770307 1.5050317 -1.5419974 6.7234034e-39
1.0711316 1.5095665 -1.5317794 9.3038147e-39
1.0647253 1.5142 -1.5213243 9.8631177e-39
1.0648859 1.5170918 -1.5149637 1.0230472e-38
1.0650467 1.5199836 -1.5086032 1.0137926e-38
1.0591419 1.5244151 -1.4986126 1.0417037e-38
1.0593016 1.5272897 -1.4922897 1.0415232e-38
1.0594615 1.5301647 -1.4859666 1.0322674e-38
1.0596212 1.5330396 -1.4796435 9.7698627e-39
1.059781 1.5359143 -1.4733205 9.0341025e-39
1.0599407 1.5387892 -1.4669974 8.940102e-39
1.0601006 1.541664 -1.4606743 4.5226179e-39
1.1003028 1.4751483 -1.6087124 9.8090893e-45
1.093959 1.4800376 -1.5976968 0
1.0876127 1.4848899 -1.5867622 5.9851223e-39
1.0877784 1.4878711 -1.5802052 7.6442863e-39
1.0814294 1.492668 -1.5693922 6.9038374e-39
1.0815941 1.4956307 -1.5628757 6.1677143e-39
1.0692264 1.5020148 -1.5483303 7.4584559e-39
1.0633725 1.5065671 -1.5380756 8.0134234e-39
1.0635344 1.5094775 -1.5316745 1.0227209e-38
1.0636961 1.5123878 -1.5252734 1.0323021e-38
1.0638578 1.5152979 -1.5188724 1.0415222e-38
1.0640196 1.5182083 -1.5124714 1.0598903e-38
1.0576584 1.522787 -1.5021385 1.0324841e-38
1.0578191 1.5256788 -1.495778 1.0415232e-38
1.0579799 1.5285707 -1.4894176 1.0414869e-38
1.0521164 1.5329516 -1.4795399 9.5854714e-39
1.0522763 1.5358263 -1.4732168 8.5738433e-39
1.052436 1.5387012 -1.4668939 8.0185031e-39
1.0525959 1.541576 -1.4605707 3.9669302e-39
1.0924243 1.4750561 -1.6086038 0
1.0796648 1.4818175 -1.5932117 7.5521159e-39
1.0798306 1.4847987 -1.5866548 8.4758462e-39
1.0799962 1.4877797 -1.5800978 7.9172775e-39
1.0736952 1.4925774 -1.5692854 7.0846315e-39
1.0678897 1.4971999 -1.5588783 7.6442863e-39
1.0615848 1.5019251 -1.5482249 8.2885837e-39
1.0557753 1.506478 -1.5379707 8.8432022e-39
1.0559369 1.5093883 -1.5315696 9.953884e-39
1.0560987 1.5122986 -1.5251687 1.0414513e-38
1.0562606 1.5152088 -1.5187675 1.05989e-38
1.0564224 1.5181192 -1.5123665 1.0507433e-38
1.0501091 1.5226984 -1.5020343 1.0415238e-38
1.05027 1.5255903 -1.4956738 1.0414513e-38
1.0504308 1.5284821 -1.4893134 1.0137926e-38
1.0505915 1.5313739 -1.4829528 9.3092447e-39
1.0507523 1.5342658 -1.4765924 8.5738433e-39
1.050913 1.5371575 -1.4702319 7.5593214e-39
1.0718826 1.4817263 -1.5931041 1.0225058e-38
1.0720483 1.4847074 -1.5865473 9.0290228e-39
1.072214 1.4876885 -1.5799904 7.9169103e-39
1.0659611 1.4924867 -1.5691786 7.1793425e-39
1.0661258 1.4954493 -1.5626622 8.4744029e-39
1.0603635 1.5000554 -1.5522931 8.9343063e-39
1.0541059 1.5047628 -1.5416809 9.3988942e-39
1.0542685 1.5076901 -1.5352426 1.0687486e-38
1.0485016 1.5122095 -1.5250638 1.0415222e-38
1.0486634 1.5151198 -1.5186626 1.05989e-38
1.0488251 1.51803 -1.5122616 1.0691099e-38
1.048987 1.5209403 -1.5058607 1.0415232e-38
1.0491488 1.5238506 -1.4994595 1.0414513e-38
1.0493106 1.5267608 -1.4930586 1.0135408e-38
1.0494722 1.5296711 -1.4866575 9.2170477e-39
1.049634 1.5325813 -1.4802566 8.2039817e-39
1.0497956 1.5354917 -1.4738555 5.9974019e-39
1.0577328 1.4835079 -1.588621 1.0502356e-38
1.0642661 1.4846162 -1.5864398 9.672237e-39
1.0708013 1.4857613 -1.5841776 8.0123458e-39
1.0645975 1.4905784 -1.573326 7.8272328e-39
1.0583916 1.4953587 -1.5625554 8.9346748e-39
1.0585563 1.4983214 -1.5560391 9.4871241e-39
1.0528377 1.5029109 -1.5457079 1.0136459e-38
1.0466269 1.5076004 -1.5351371 1.0136112e-38
1.0467895 1.5105277 -1.5286986 1.0873324e-38
1.0410662 1.5150307 -1.5185578 1.0598903e-38
1.0412279 1.517941 -1.5121568 1.0875491e-38
1.0413897 1.5208513 -1.5057557 1.0598903e-38
1.0415514 1.5237615 -1.4993547 1.0230838e-38
1.0417132 1.5266718 -1.4929537 9.4925541e-39
1.041875 1.529582 -1.4865526 8.6653102e-39
1.0479285 1.5310186 -1.4836295 8.3872842e-39
1.0544749 1.5323678 -1.4809183 4.6141129e-39
1.0564839 1.4845248 -1.5863323 1.0132496e-38
1.0629708 1.4856695 -1.5840695 9.1187003e-39
1.0568154 1.4904871 -1.5732185 9.0268704e-39
1.056981 1.4934683 -1.5666616 9.3023811e-39
1.0508221 1.4982307 -1.5559322 9.9477505e-39
1.0509869 1.5011934 -1.5494159 1.0874383e-38
1.0453118 1.5057664 -1.5391228 1.0873677e-38
1.039148 1.5104381 -1.5285931 1.1148471e-38
1.0393107 1.5133654 -1.5221546 1.0691096e-38
1.0336307 1.5178519 -1.5120518 1.0507784e-38
1.0337925 1.5207621 -1.5056509 1.0414869e-38
1.0339543 1.5236723 -1.4992497 9.9546113e-39
1.0399615 1.5250746 -1.4964008 9.0344529e-39
1.0401243 1.5280018 -1.4899625 8.2043349e-39
1.0402869 1.530929 -1.4835241 7.100511e-39
1.0614139 1.4837404 -1.5882547 9.7647858e-39
1.0615816 1.4867585 -1.5816166 9.672237e-39
1.055474 1.4915767 -1.5707663 9.5789694e-39
1.0556407 1.4945763 -1.5641689 1.0316893e-38
1.0495301 1.4993392 -1.5534403 1.1149172e-38
1.0496958 1.5023204 -1.5468833 1.0965519e-38
1.0435821 1.5070282 -1.5362762 1.1149206e-38
1.0437468 1.5099909 -1.5297599 1.0875138e-38
1.0381131 1.5145134 -1.5195796 1.0507784e-38
1.0440762 1.5159163 -1.5167272 1.0596737e-38
1.0442407 1.5188791 -1.5102108 1.0045727e-38
1.0444056 1.5218418 -1.5036944 8.8497043e-39
1.0445702 1.5248045 -1.497178 7.6511625e-39
1.0389317 1.5292418 -1.487185 5.6289753e-39
1.0600705 1.4786311 -1.5994503 9.6801754e-39
1.0478104 1.4944845 -1.5640608 1.0594919e-38
1.0417478 1.499248 -1.5533328 1.1149541e-38
1.0419136 1.5022292 -1.5467759 1.1149909e-38
1.0420792 1.5052103 -1.5402189 1.0691096e-38
1.0360126 1.5099003 -1.5296531 1.0783293e-38
1.0361773 1.5128629 -1.5231367 1.05989e-38
1.0363421 1.5158256 -1.5166204 9.6773041e-39
1.0365067 1.5187883 -1.5101039 9.2159659e-39
1.0429077 1.5201161 -1.5074344 8.6638753e-39
1.0368359 1.5247138 -1.4970713 7.1909088e-39
1.0401467 1.4973923 -1.5573552 1.1149541e-38
1.0403135 1.5003918 -1.5507578 1.1241383e-38
1.0342971 1.5051191 -1.5401115 1.1242106e-38
1.0344628 1.5081003 -1.5335546 1.05989e-38
1.0346285 1.5110815 -1.5269977 1.0322674e-38
