# .PCD v0.7 - Point Cloud Data file format
VERSION 0.7
FIELDS x y z rgb
SIZE 4 4 4 4
TYPE F F F F
COUNT 1 1 1 1
WIDTH 1005
HEIGHT 1
VIEWPOINT 0 0 0 1 0 0 0
POINTS 1005
DATA ascii
-0.36042202 -0.36587241 2.8317893 2.0462427e-38
-0.36052623 -0.36060685 2.8321652 2.2488548e-38
-0.34769014 -0.76089323 2.8049555 2.0914696e-38
-0.34779435 -0.75562763 2.8053315 2.2120452e-38
-0.34789848 -0.7503621 2.8057072 2.3224642e-38
-0.3480027 -0.74509656 2.8060832 2.258072e-38
-0.34810686 -0.73983097 2.806459 2.2765118e-38
-0.34821102 -0.73456544 2.8068349 2.2673638e-38
-0.34831515 -0.7292999 2.8072107 2.3134974e-38
-0.34841931 -0.72403431 2.8075864 2.2952027e-38
-0.34852353 -0.71876878 2.8079624 2.3508085e-38
-0.34862769 -0.71350324 2.8083382 2.3509886e-38
-0.34873194 -0.70823771 2.8087144 2.2859832e-38
-0.34883603 -0.70297205 2.8090899 1.9448603e-38
-0.35237142 -0.69361347 2.8088293 1.631072e-38
-0.35247469 -0.68839204 2.809202 1.5756815e-38
-0.35257807 -0.68317074 2.8095748 1.621813e-38
-0.35596702 -0.67415386 2.8093286 1.6585117e-38
-0.36128515 -0.5676257 2.8160427 1.8524492e-38
-0.36138669 -0.56248915 2.8164091 1.889362e-38
-0.36148837 -0.55735248 2.816776 1.8892551e-38
-0.36158997 -0.55221581 2.8171425 1.889327e-38
-0.36169165 -0.54707921 2.8175094 1.8800716e-38
-0.36179319 -0.5419426 2.8178759 1.8708157e-38
-0.36189494 -0.53680593 2.8182428 1.8524486e-38
-0.36199647 -0.53166926 2.8186092 1.8891113e-38
-0.3595531 -0.49288902 2.8222671 1.8614888e-38
-0.35965559 -0.48771015 2.8226368 1.833974e-38
-0.35975802 -0.48253113 2.8230064 1.8708157e-38
-0.35660672 -0.47953799 2.8241103 1.8707801e-38
-0.35670993 -0.47431654 2.8244824 1.9535044e-38
-0.35681325 -0.46909517 2.8248553 1.9443551e-38
-0.35691658 -0.46387383 2.8252282 1.8062027e-38
-0.3570199 -0.45865253 2.8256009 1.7968772e-38
-0.35712317 -0.45343122 2.8259735 1.8984001e-38
-0.35722643 -0.44820982 2.8263462 1.8247176e-38
-0.35732982 -0.44298851 2.826719 1.8523408e-38
-0.35404474 -0.43969434 2.8278825 1.8247901e-38
-0.35414895 -0.43442881 2.8282588 1.8525208e-38
-0.35425302 -0.42916313 2.8286343 1.7973835e-38
-0.35435724 -0.42389759 2.8290102 1.8340459e-38
-0.35446146 -0.41863206 2.8293862 1.7972037e-38
-0.35456556 -0.4133665 2.8297617 1.788056e-38
-0.35466981 -0.40810096 2.830138 1.7789443e-38
-0.35477391 -0.40283543 2.8305135 1.7972756e-38
-0.35487813 -0.39756986 2.8308895 1.7972753e-38
-0.35498235 -0.39230433 2.8312654 1.7974905e-38
-0.35508642 -0.38703874 2.831641 1.8066748e-38
-0.35519069 -0.3817732 2.8320172 1.9631901e-38
-0.35529479 -0.37650767 2.8323927 1.8804334e-38
-0.35539901 -0.37124214 2.8327689 1.9814875e-38
-0.35887927 -0.36466819 2.8323095 1.9448634e-38
-0.35898253 -0.35944682 2.8326819 2.0829025e-38
-0.34266713 -0.76626295 2.8059349 1.3906011e-38
-0.34390873 -0.75934404 2.8061228 1.852046e-38
-0.34287557 -0.75573182 2.8066869 2.2209401e-38
-0.34297973 -0.75046629 2.8070626 2.2579622e-38
-0.34466767 -0.74294567 2.8071728 2.1568017e-38
-0.34318802 -0.73993516 2.8078141 2.2857682e-38
-0.34329224 -0.73466963 2.8081901 2.2674011e-38
-0.34339646 -0.72940409 2.8085661 2.2952027e-38
-0.34002376 -0.72845346 2.8095737 2.3227904e-38
-0.3436048 -0.71887302 2.8093178 2.3508444e-38
-0.34370896 -0.71360743 2.8096936 2.3508809e-38
-0.34381306 -0.70834184 2.8100693 2.2769084e-38
-0.34391728 -0.70307624 2.8104453 1.9360006e-38
-0.34402141 -0.69781077 2.8108211 1.5944446e-38
-0.34855434 -0.6874333 2.8103623 1.4744087e-38
-0.34770054 -0.68327403 2.8109188 1.5848624e-38
-0.35112903 -0.67425632 2.8106618 1.6860615e-38
-0.35914719 -0.59038717 2.8148856 1.6774563e-38
-0.35658836 -0.56259078 2.8177314 1.6681295e-38
-0.35699487 -0.54204422 2.8191981 1.6128843e-38
-0.35709646 -0.53690755 2.8195648 1.5854051e-38
-0.35719815 -0.53177088 2.8199315 1.6589821e-38
-0.35750291 -0.51636106 2.8210311 1.640614e-38
-0.35760453 -0.51122445 2.8213978 1.640614e-38
-0.35770619 -0.50608778 2.8217645 1.6222109e-38
-0.35461268 -0.49817055 2.8232305 1.6496904e-38
-0.35471514 -0.49299148 2.8236001 1.640579e-38
-0.35481763 -0.48781264 2.8239701 1.631431e-38
-0.35492006 -0.48263359 2.8243396 1.6774563e-38
-0.35172918 -0.47964126 2.825454 1.6957162e-38
-0.35183245 -0.47441986 2.8258266 1.704972e-38
-0.35193571 -0.46919847 2.8261993 1.6774194e-38
-0.3520391 -0.46397716 2.8265722 1.3733518e-38
-0.35214236 -0.45875582 2.8269448 1.4566168e-38
-0.35224569 -0.45353454 2.8273175 1.6867835e-38
-0.35234901 -0.44831318 2.8276904 1.7234822e-38
-0.35245228 -0.44309181 2.828063 1.714155e-38
-0.34912595 -0.43979853 2.8292379 1.7049357e-38
-0.34923011 -0.43453294 2.8296137 1.7326667e-38
-0.34933433 -0.42926735 2.8299897 1.7144074e-38
-0.34943846 -0.42400178 2.8303654 1.7235188e-38
-0.34954268 -0.41873622 2.8307414 1.6684535e-38
-0.3496469 -0.41347072 2.8311174 1.6867128e-38
-0.349751 -0.40820515 2.8314931 1.6500504e-38
-0.34985521 -0.40293965 2.8318691 1.6867128e-38
-0.34995928 -0.39767402 2.8322446 1.7234469e-38
-0.3500635 -0.39240846 2.8326206 1.7512131e-38
-0.35016772 -0.38714296 2.8329966 1.7329904e-38
-0.35027188 -0.38187739 2.8333724 1.7976353e-38
-0.35037607 -0.37661186 2.8337483 1.6963277e-38
-0.35048017 -0.37134629 2.8341238 1.4286745e-38
-0.3540017 -0.36477146 2.8336532 1.4561499e-38
-0.35410503 -0.35955015 2.8340261 1.5296564e-38
-0.33411834 -0.77634639 2.8075294 1.5379699e-38
-0.33774853 -0.76636714 2.8072906 1.3906011e-38
-0.33785263 -0.76110154 2.8076661 1.9811909e-38
-0.33795682 -0.75583601 2.808042 2.0549879e-38
-0.33888444 -0.74896932 2.8083127 2.1197773e-38
-0.33816519 -0.74530488 2.8087938 2.1475098e-38
-0.33930507 -0.73869389 2.8089859 2.1106327e-38
-0.33964577 -0.73256707 2.8093626 2.1015569e-38
-0.33998722 -0.72643769 2.8097389 2.1477617e-38
-0.33506376 -0.72855854 2.8109405 2.2490339e-38
-0.33868602 -0.71897709 2.810673 2.3507362e-38
-0.33879024 -0.71371156 2.811049 2.3508451e-38
-0.33889437 -0.70844603 2.8114247 2.304531e-38
-0.33899859 -0.70318043 2.8118007 1.9544399e-38
-0.33910275 -0.6979149 2.8121765 1.5391631e-38
-0.34271976 -0.68859863 2.8118901 1.5572407e-38
-0.34282303 -0.68337733 2.8122625 1.5848624e-38
-0.34965596 -0.67056167 2.8113539 1.6860615e-38
-0.35219654 -0.54214585 2.8205202 1.640579e-38
-0.35229817 -0.53700912 2.8208869 1.6130998e-38
-0.35270473 -0.51646268 2.8223536 1.6682367e-38
-0.35280627 -0.51132607 2.8227201 1.6590172e-38
-0.34977481 -0.49827299 2.8245635 1.6681295e-38
-0.3498773 -0.49309397 2.8249333 1.6774212e-38
-0.34997976 -0.48791507 2.8253028 1.6683093e-38
-0.35008225 -0.48273608 2.8256726 1.6959314e-38
-0.34685171 -0.47974455 2.826798 1.6864607e-38
-0.34695503 -0.47452319 2.8271706 1.7234472e-38
-0.3470583 -0.46930179 2.8275433 1.705078e-38
-0.34716162 -0.46408045 2.8279161 1.493206e-38
-0.34726495 -0.45885915 2.8282888 1.4658364e-38
-0.34389475 -0.45569935 2.8294659 1.7144421e-38
-0.34399885 -0.45043379 2.8298414 1.7787996e-38
-0.34410307 -0.44516826 2.8302174 1.7510333e-38
-0.34420723 -0.43990269 2.8305933 1.7049357e-38
-0.34431136 -0.43463713 2.8309691 1.7326667e-38
-0.34441558 -0.42937151 2.8313451 1.7144074e-38
-0.34451973 -0.42410594 2.8317208 1.7327383e-38
-0.34462389 -0.41884038 2.8320966 1.6776731e-38
-0.34472808 -0.41357487 2.8324726 1.6959324e-38
-0.34483224 -0.40830931 2.8328483 1.6868926e-38
-0.34493646 -0.40304381 2.8332243 1.705152e-38
-0.34157678 -0.39935356 2.8344393 1.7234469e-38
-0.34168178 -0.39404377 2.8348179 1.7512131e-38
-0.34524897 -0.38724712 2.8343518 1.74221e-38
-0.34535313 -0.38198155 2.8347278 1.760721e-38
-0.34545729 -0.37671602 2.8351035 1.5948765e-38
-0.3455615 -0.37145048 2.8354795 1.1244649e-38
-0.34566557 -0.36618489 2.835855 1.1887824e-38
-0.34576979 -0.36091933 2.836231 1.3083871e-38
-0.33282959 -0.76647127 2.8086455 1.4089679e-38
-0.33458355 -0.75932842 2.8087084 1.7319407e-38
-0.33303797 -0.7559402 2.8093972 2.1283482e-38
-0.33314225 -0.75067466 2.8097734 2.1288186e-38
-0.33324632 -0.74540907 2.810149 2.1197788e-38
-0.33335048 -0.74014354 2.8105247 2.1475445e-38
-0.3341974 -0.73246253 2.8108807 2.0463464e-38
-0.33453962 -0.72632694 2.8112571 2.0371281e-38
-0.33010367 -0.72866356 2.8123071 2.1567662e-38
-0.33376727 -0.71908134 2.8120284 2.2121915e-38
-0.33387136 -0.71381575 2.8124042 2.2766212e-38
-0.33397558 -0.70855021 2.8127801 2.2401024e-38
-0.33407968 -0.70328456 2.8131557 1.9178864e-38
-0.33418393 -0.69801909 2.8135319 1.4840622e-38
-0.33930877 -0.68741965 2.8129261 1.4100168e-38
-0.33794552 -0.68348062 2.8136065 1.4558625e-38
-0.34571022 -0.67050546 2.8124518 1.5201469e-38
-0.34709328 -0.55765736 2.8207421 1.6406503e-38
-0.34719497 -0.55252069 2.8211091 1.6590172e-38
-0.34729651 -0.54738408 2.8214755 1.6589818e-38
-0.34739825 -0.54224747 2.8218424 1.7144071e-38
-0.34473196 -0.50873351 2.8251572 1.6498705e-38
-0.34483448 -0.50355452 2.825527 1.6682014e-38
-0.34493691 -0.49837545 2.8258965 1.6498702e-38
-0.3450394 -0.49319643 2.8262663 1.6866408e-38
-0.34514183 -0.48801753 2.8266358 1.6683096e-38
-0.34524435 -0.48283854 2.8270056 1.7051159e-38
-0.3419742 -0.47984785 2.8281417 1.6774215e-38
-0.34207746 -0.47462642 2.8285143 1.769509e-38
-0.34218085 -0.46940511 2.8288872 1.7418137e-38
-0.34228411 -0.46418375 2.8292599 1.5025723e-38
-0.33887175 -0.46106905 2.8304453 1.4382518e-38
-0.33897585 -0.45580351 2.8308208 1.7329902e-38
-0.33908013 -0.45053798 2.831197 1.788056e-38
-0.33918425 -0.44527242 2.8315728 1.7419229e-38
-0.33928847 -0.44000688 2.8319488 1.7050804e-38
-0.33939263 -0.43474132 2.8323245 1.7143718e-38
-0.33949673 -0.42947564 2.8327 1.6960403e-38
-0.33960098 -0.42421013 2.8330762 1.7144793e-38
-0.33970514 -0.41894457 2.833452 1.6868926e-38
-0.3398093 -0.41367906 2.833828 1.6960403e-38
-0.33991346 -0.4084135 2.8342037 1.6869282e-38
-0.34001759 -0.40314794 2.8345795 1.6960759e-38
-0.33661664 -0.39945859 2.8358057 1.7235185e-38
-0.33672175 -0.39414886 2.836185 1.7329183e-38
-0.33682677 -0.38883907 2.8365638 1.7514652e-38
-0.33693182 -0.38352931 2.8369429 1.6961828e-38
-0.34053847 -0.37682018 2.8364587 1.4843126e-38
-0.34064269 -0.37155464 2.8368347 9.6761901e-39
-0.33724695 -0.36760011 2.8380799 1.1420714e-38
-0.34085107 -0.36102352 2.8375864 1.1972468e-38
-0.32913885 -0.75922638 2.8102255 1.6859147e-38
-0.32811925 -0.75604439 2.8107529 2.0361525e-38
-0.32956058 -0.74895269 2.8108983 2.0459145e-38
-0.32832757 -0.74551326 2.8115046 2.0552419e-38
-0.32998222 -0.73867881 2.8115709 2.0093235e-38
-0.32493341 -0.73938817 2.8129158 2.0739328e-38
-0.32503852 -0.73407841 2.8132949 2.0370199e-38
-0.32514358 -0.72876865 2.813674 2.036912e-38
-0.32884845 -0.71918553 2.8133838 2.1291795e-38
-0.32895261 -0.71391994 2.8137596 2.2397071e-38
-0.32905674 -0.70865434 2.8141353 2.2308827e-38
-0.32916096 -0.70338875 2.8145113 1.8256549e-38
-0.32926506 -0.69812328 2.8148868 1.4103057e-38
-0.33390301 -0.68732101 2.8144319 1.4007975e-38
-0.33306807 -0.68358392 2.8149507 1.4466429e-38
-0.34037465 -0.67041445 2.8139377 1.4648298e-38
-0.34229493 -0.55775899 2.8220644 1.6314308e-38
-0.34239653 -0.55262232 2.8224311 1.6590172e-38
-0.33999646 -0.50365698 2.82686 1.6682014e-38
-0.34009895 -0.49847794 2.8272297 1.6498702e-38
-0.34020141 -0.49329889 2.8275993 1.6774212e-38
-0.34030384 -0.48811999 2.8279691 1.6406509e-38
-0.34040627 -0.48294097 2.8283386 1.6958605e-38
-0.33709669 -0.47995117 2.8294859 1.6681661e-38
-0.33719996 -0.47472975 2.8298583 1.7511059e-38
-0.33730328 -0.46950841 2.8302312 1.7234106e-38
-0.33384871 -0.46643877 2.8314245 1.4472549e-38
-0.3339529 -0.46117324 2.8318005 1.3091779e-38
-0.33405712 -0.4559077 2.8321764 1.6777087e-38
-0.33416122 -0.45064214 2.832552 1.7603975e-38
-0.33426544 -0.4453766 2.8329282 1.7327033e-38
-0.33436957 -0.44011104 2.8333039 1.7050804e-38
-0.33447373 -0.43484548 2.8336797 1.6959327e-38
-0.33457795 -0.42957985 2.8340557 1.6776012e-38
-0.33468205 -0.42431426 2.8344312 1.6776012e-38
-0.33478633 -0.41904876 2.8348074 1.6776731e-38
-0.33489046 -0.41378322 2.8351831 1.6776012e-38
-0.33499467 -0.40851766 2.8355591 1.6684532e-38
-0.33509883 -0.40325215 2.8359349 1.6776368e-38
-0.33165655 -0.39956364 2.8371725 1.7235185e-38
-0.3317616 -0.39425388 2.8375514 1.7513933e-38
-0.33186662 -0.38894409 2.8379304 1.7699043e-38
-0.33197162 -0.3836343 2.8383093 1.6961828e-38
-0.3320767 -0.37832463 2.8386884 1.373678e-38
-0.33218175 -0.37301487 2.8390675 9.5839945e-39
-0.3322868 -0.36770514 2.8394463 1.1328519e-38
-0.33593217 -0.36112767 2.8389416 1.1050152e-38
-0.33666134 -0.32426876 2.8415725 0
-0.33676562 -0.31900322 2.8419487 0
-0.322992 -0.76667964 2.8113563 1.3626535e-38
-0.32309616 -0.76141411 2.8117321 1.8056256e-38
-0.32320037 -0.75614852 2.812108 2.0270418e-38
-0.32330459 -0.75088298 2.812484 2.1380016e-38
-0.32340866 -0.74561745 2.8128595 2.0736458e-38
-0.32351288 -0.74035186 2.8132355 2.0829373e-38
-0.31997338 -0.73949319 2.8142827 2.073718e-38
-0.32007843 -0.73418343 2.8146617 2.0093252e-38
-0.32018349 -0.72887367 2.8150406 1.990994e-38
-0.32028845 -0.72356391 2.8154194 2.1015192e-38
-0.32039356 -0.71825415 2.8157985 2.1200326e-38
-0.32049853 -0.71294439 2.8161774 2.0741499e-38
-0.32424209 -0.70349294 2.8158665 1.724564e-38
-0.32434627 -0.69822747 2.8162425 1.2628287e-38
-0.32783249 -0.68798751 2.8160634 1.2439919e-38
-0.32819045 -0.68368721 2.8162944 1.2807242e-38
-0.33526084 -0.67086655 2.8153203 1.3452611e-38
-0.33536243 -0.66572994 2.8156869 1.5481641e-38
-0.33749646 -0.55786061 2.8233864 1.6223188e-38
-0.33464617 -0.52965438 2.8263445 1.6222838e-38
-0.33474866 -0.52447546 2.8267143 1.6131361e-38
-0.33526096 -0.4985804 2.8285627 1.6499421e-38
-0.33536345 -0.49340135 2.8289325 1.6959677e-38
-0.33546591 -0.48822248 2.8293021 1.6867481e-38
-0.3321158 -0.48527575 2.830457 1.7512131e-38
-0.33221918 -0.48005447 2.8308299 1.7051154e-38
-0.33232245 -0.47483307 2.8312025 1.7419216e-38
-0.33242577 -0.4696117 2.8315752 1.7142626e-38
-0.32892987 -0.46654293 2.8327799 1.4653344e-38
-0.32903403 -0.46127737 2.8331556 1.382251e-38
-0.32913825 -0.45601186 2.8335316 1.6867484e-38
-0.32924247 -0.45074633 2.8339076 1.7145873e-38
-0.3293466 -0.44548076 2.8342834 1.705152e-38
-0.32945082 -0.44021523 2.8346593 1.6959324e-38
-0.32955492 -0.43494964 2.8350348 1.6959324e-38
-0.32965913 -0.42968401 2.8354108 1.7144071e-38
-0.32976332 -0.42441848 2.8357868 1.6684532e-38
-0.32986748 -0.41915292 2.8361626 1.6777087e-38
-0.32997164 -0.41388738 2.8365386 1.6868207e-38
-0.32648638 -0.41028824 2.8377812 1.6777087e-38
-0.32659137 -0.40497842 2.83816 1.6776368e-38
-0.32669646 -0.39966869 2.8385391 1.695968e-38
-0.32680151 -0.39435893 2.8389182 1.7422097e-38
-0.32690653 -0.38904914 2.8392973 1.74221e-38
-0.32701159 -0.38373938 2.8396761 1.5854778e-38
-0.32711661 -0.37842968 2.8400552 1.3644234e-38
-0.32722166 -0.37311992 2.8404341 9.3988942e-39
-0.32732671 -0.36781019 2.8408132 1.1144856e-38
-0.3274318 -0.36250043 2.8411922 1.141966e-38
-0.33111748 -0.3559663 2.8406727 1.1601493e-38
-0.3312217 -0.35070068 2.8410487 1.0948208e-38
-0.33195102 -0.31384188 2.8436799 1.4693679e-39
-0.33205509 -0.30857629 2.8440554 2.0207635e-39
-0.33215931 -0.30331075 2.8444314 2.8526569e-39
-0.33226347 -0.29804522 2.8448071 6.8105978e-39
-0.319166 -0.76007295 2.8129246 1.6858793e-38
-0.31828156 -0.75625271 2.8134632 2.045517e-38
-0.31959108 -0.74978566 2.8135974 2.027403e-38
-0.31848994 -0.74572158 2.8142152 2.0552065e-38
-0.31490821 -0.74490798 2.8152702 2.0184003e-38
-0.31501323 -0.73959827 2.8156493 2.009181e-38
-0.31511828 -0.73428851 2.8160281 1.972483e-38
-0.3152234 -0.72897869 2.8164074 1.9633353e-38
-0.31532848 -0.72366899 2.8167865 2.1107389e-38
-0.31543347 -0.71835923 2.8171654 2.1200326e-38
-0.3155385 -0.71304941 2.8175445 2.028052e-38
-0.31932327 -0.70359713 2.8172216 1.5678674e-38
-0.31942749 -0.69833165 2.8175976 1.2443895e-38
-0.31953171 -0.69306606 2.8179736 1.3268595e-38
-0.32331297 -0.6837905 2.8176384 1.2807242e-38
-0.32719386 -0.67488635 2.8172472 1.2623216e-38
-0.33056405 -0.66583157 2.817009 1.4098706e-38
-0.33269814 -0.55796224 2.8247087 1.59466e-38
-0.32703173 -0.49582174 2.8310556 1.6683449e-38
-0.32713506 -0.49060044 2.8314283 1.6498699e-38
-0.32723832 -0.48537907 2.8318009 1.7051154e-38
-0.32734159 -0.48015773 2.8321736 1.7235185e-38
-0.32744491 -0.47493637 2.8325462 1.7419216e-38
-0.32754818 -0.46971497 2.8329189 1.7050429e-38
-0.32401115 -0.46664712 2.8341353 1.4837736e-38
-0.32411528 -0.46138155 2.834511 1.3545565e-38
-0.32421944 -0.45611602 2.8348868 1.695968e-38
-0.32432365 -0.45085049 2.8352628 1.7053676e-38
-0.32442781 -0.44558492 2.8356388 1.6959324e-38
-0.32453194 -0.44031936 2.8360145 1.65909e-38
-0.3246361 -0.4350538 2.8363903 1.6959324e-38
-0.32474038 -0.4297882 2.8367665 1.7236267e-38
-0.32484448 -0.42452264 2.837142 1.6869282e-38
-0.3249487 -0.41925707 2.837518 1.6869282e-38
-0.32505283 -0.41399154 2.8378937 1.6776012e-38
-0.32152623 -0.41039327 2.8391478 1.6869282e-38
-0.32163125 -0.40508348 2.8395269 1.6868563e-38
-0.32173637 -0.39977375 2.839906 1.695968e-38
-0.32184136 -0.39446396 2.8402848 1.7329902e-38
-0.32194644 -0.3891542 2.8406639 1.7145873e-38
-0.3220515 -0.38384447 2.841043 1.557819e-38
-0.32215652 -0.37853473 2.8414218 1.3275092e-38
-0.32226157 -0.373225 2.8418009 9.9520665e-39
-0.32236665 -0.36791524 2.84218 1.169803e-38
-0.32247159 -0.36260542 2.8425586 1.1788443e-38
-0.32619876 -0.35607049 2.8420281 1.1878078e-38
-0.32992414 -0.34962389 2.8414912 1.0579784e-38
-0.31201008 -0.76789719 2.8143065 1.3166994e-38
-0.31698933 -0.75699276 2.8137646 1.8333199e-38
-0.31709266 -0.75177139 2.8141375 2.0180378e-38
-0.31412455 -0.74968463 2.8151205 1.9996714e-38
-0.31357118 -0.74582577 2.8155704 2.0364785e-38
-0.31367528 -0.74056023 2.8159459 1.9996707e-38
-0.31005323 -0.7397033 2.8170159 1.990416e-38
-0.31015828 -0.73439354 2.817395 1.9536822e-38
-0.31026334 -0.72908378 2.8177738 1.9998879e-38
-0.31036836 -0.72377396 2.8181529 2.055205e-38
-0.31047341 -0.71846426 2.818532 2.0460597e-38
-0.31057844 -0.71315449 2.8189108 1.8709599e-38
-0.31068349 -0.70784473 2.8192899 1.6320071e-38
-0.31450874 -0.69843578 2.818953 1.1060942e-38
-0.3146129 -0.69317025 2.8193288 1.2345916e-38
-0.31843549 -0.6838938 2.8189824 1.2530311e-38
-0.32246357 -0.67403728 2.8186235 1.2253734e-38
-0.32576579 -0.66593319 2.8183312 1.317499e-38
-0.32779828 -0.56320047 2.8256643 1.5856204e-38
-0.32497036 -0.5298593 2.8290105 1.5578187e-38
-0.3250728 -0.52468038 2.8293803 1.6039166e-38
-0.32548273 -0.50396436 2.8308592 1.6407225e-38
-0.32558519 -0.49878532 2.8312287 1.6040242e-38
-0.32215431 -0.49592507 2.8323996 1.6776362e-38
-0.32225752 -0.4907037 2.832772 1.6683816e-38
-0.3223609 -0.48548239 2.8331449 1.7051522e-38
-0.32246423 -0.48026106 2.8335178 1.7144074e-38
-0.32256743 -0.47503963 2.8338902 1.7512128e-38
-0.32267082 -0.46981832 2.8342631 1.7051154e-38
-0.31909227 -0.46675128 2.8354902 1.5942284e-38
-0.31919655 -0.46148574 2.8358665 1.6582619e-38
-0.31930071 -0.45622021 2.8362422 1.7879119e-38
-0.3194049 -0.45095468 2.8366182 1.6961122e-38
-0.31950906 -0.44568911 2.8369939 1.6868926e-38
-0.31961322 -0.44042355 2.8373697 1.6868926e-38
-0.31971744 -0.43515801 2.8377457 1.7143718e-38
-0.3198216 -0.42989236 2.8381214 1.7327386e-38
-0.31992579 -0.42462683 2.8384974 1.7144793e-38
-0.31635621 -0.42111778 2.8397567 1.6685611e-38
-0.31646112 -0.41580805 2.8401353 1.6684885e-38
-0.31656617 -0.41049829 2.8405144 1.6869282e-38
-0.31667119 -0.4051885 2.8408933 1.6960403e-38
-0.31677625 -0.39987874 2.8412724 1.6776731e-38
-0.31688136 -0.39456901 2.8416514 1.7421737e-38
-0.31698632 -0.38925919 2.8420303 1.7513577e-38
-0.31709149 -0.38394952 2.8424096 1.4842071e-38
-0.31719652 -0.37863979 2.8427887 1.2541124e-38
-0.31730157 -0.37333006 2.8431675 9.862389e-39
-0.31740659 -0.3680203 2.8435466 1.1606194e-38
-0.31751165 -0.36271051 2.8439257 1.2068251e-38
-0.32127994 -0.35617465 2.8433833 1.188314e-38
-0.32504666 -0.34972718 2.8428352 1.2709285e-38
-0.31279749 -0.75641948 2.8149705 1.6950988e-38
-0.31221512 -0.75187474 2.8154812 1.9535009e-38
-0.30854815 -0.75119549 2.8165498 2.0455889e-38
-0.30865237 -0.74592996 2.8169258 1.9811611e-38
-0.30498812 -0.74511808 2.8180037 1.9627923e-38
-0.30509314 -0.73980832 2.8183827 1.925879e-38
-0.30519813 -0.73449862 2.8187616 1.8891453e-38
-0.30530316 -0.7291888 2.8191404 1.8892171e-38
-0.30540827 -0.72387904 2.8195198 1.9629735e-38
-0.30551332 -0.71856934 2.8198986 1.9538639e-38
-0.30561835 -0.71325952 2.8202777 1.7879838e-38
-0.30572346 -0.70794976 2.8206568 1.3831149e-38
-0.30958992 -0.69853997 2.8203082 1.0783996e-38
-0.30969405 -0.69327444 2.8206842 1.1792742e-38
-0.31355801 -0.68399715 2.8203263 1.2530311e-38
-0.31726357 -0.67497355 2.819993 1.2713273e-38
-0.32096732 -0.66603482 2.8196533 1.2161197e-38
-0.31982505 -0.54549873 2.8292346 1.5487427e-38
-0.32013237 -0.52996171 2.8303435 1.5578187e-38
-0.32043988 -0.5144248 2.8314528 1.5762937e-38
-0.32054231 -0.50924587 2.8318224 1.6038444e-38
-0.32064474 -0.50406682 2.8321919 1.6223194e-38
-0.31727678 -0.49602833 2.8337436 1.6684166e-38
-0.3173801 -0.49080703 2.8341162 1.6499423e-38
-0.31748337 -0.48558569 2.8344889 1.6867131e-38
-0.31758669 -0.48036435 2.8348618 1.705152e-38
-0.31768996 -0.47514296 2.8352342 1.7512128e-38
-0.31779322 -0.46992156 2.8356068 1.7051154e-38
-0.31417358 -0.46685547 2.8368459 1.538911e-38
-0.31427777 -0.46158993 2.8372219 1.6490064e-38
-0.31438193 -0.4563244 2.8375976 1.7786922e-38
-0.31448603 -0.4510588 2.8379734 1.7053676e-38
-0.31459025 -0.44579327 2.8383493 1.6868926e-38
-0.31469437 -0.44052771 2.8387251 1.6868926e-38
-0.31479859 -0.43526217 2.8391011 1.7143718e-38
-0.31490275 -0.42999652 2.8394768 1.6866408e-38
-0.31500691 -0.42473096 2.8398526 1.6683816e-38
-0.31511113 -0.41946542 2.8402286 1.6593416e-38
-0.31150103 -0.41591311 2.8415022 1.6684885e-38
-0.31160608 -0.41060334 2.841881 1.6684532e-38
-0.31171116 -0.40529358 2.8422604 1.6868207e-38
-0.31181628 -0.39998385 2.8426394 1.6500504e-38
-0.31192127 -0.39467406 2.8430183 1.7513933e-38
-0.31202635 -0.3893643 2.8433974 1.7605772e-38
-0.31213135 -0.38405454 2.8437762 1.4749874e-38
-0.31223637 -0.37874481 2.8441551 1.2448928e-38
-0.31234142 -0.37343508 2.8445342 9.9545847e-39
-0.31244639 -0.36812529 2.844913 1.1329966e-38
-0.31625697 -0.36154434 2.8443627 1.1883859e-38
-0.31636125 -0.35627887 2.844739 1.1975336e-38
-0.32016918 -0.34983048 2.8441792 1.409222e-38
-0.30735636 -0.75632018 2.8164861 1.7318681e-38
-0.30733755 -0.75197798 2.8168252 1.9441011e-38
-0.30479711 -0.74966401 2.8177073 1.8429017e-38
-0.30373353 -0.74603415 2.8182809 1.9255543e-38
-0.30002803 -0.74522316 2.8193705 1.8980015e-38
-0.30013299 -0.7399134 2.8197494 1.861088e-38
-0.3002381 -0.73460364 2.8201284 1.8335014e-38
-0.30034313 -0.72929382 2.8205075 1.8244267e-38
-0.30044818 -0.72398406 2.8208864 1.8796723e-38
-0.3005532 -0.71867436 2.8212655 1.8797456e-38
-0.30065832 -0.71336466 2.8216445 1.5019984e-38
-0.30076331 -0.70805478 2.8220234 1.3087448e-38
-0.30467108 -0.69864416 2.8216636 1.0047834e-38
-0.30477524 -0.69337857 2.8220394 1.1515431e-38
-0.30487946 -0.68811297 2.8224154 1.2069699e-38
-0.316136 -0.67104489 2.8206072 1.1792385e-38
-0.31616899 -0.66613644 2.8209755 1.1976039e-38
-0.32379249 -0.63350987 2.8213701 1.7053673e-38
-0.31570435 -0.50934833 2.8331556 1.548779e-38
-0.3123993 -0.49613166 2.8350875 1.6593421e-38
-0.3125025 -0.49091029 2.8354599 1.6500504e-38
-0.31260583 -0.48568895 2.8358326 1.6315752e-38
-0.31270915 -0.48046765 2.8362055 1.6684535e-38
-0.31281242 -0.47524625 2.8365781 1.7329185e-38
-0.31291574 -0.47002488 2.8369508 1.6774563e-38
-0.30925468 -0.4669596 2.838201 1.4652994e-38
-0.30935889 -0.46169409 2.838577 1.5851167e-38
-0.30946311 -0.45642859 2.838953 1.751178e-38
-0.30956724 -0.45116302 2.8393288 1.7144793e-38
-0.3096714 -0.44589746 2.8397045 1.6868926e-38
-0.30977556 -0.4406319 2.8400803 1.6961122e-38
-0.30987978 -0.43536636 2.8404562 1.6961122e-38
-0.30998397 -0.43010074 2.8408322 1.6500504e-38
-0.30633086 -0.42663762 2.8421109 1.6684532e-38
-0.30643591 -0.42132789 2.84249 1.6869282e-38
-0.30654094 -0.41601816 2.8428688 1.6869282e-38
-0.30664599 -0.4107084 2.8432479 1.6777087e-38
-0.30675107 -0.40539864 2.843627 1.7053673e-38
-0.30685607 -0.40008888 2.8440058 1.6961122e-38
-0.30696115 -0.39477912 2.8443849 1.7513577e-38
-0.30706614 -0.38946933 2.8447638 1.7882355e-38
-0.3071712 -0.38415956 2.8451428 1.4749509e-38
-0.30727634 -0.37884989 2.8455222 1.2076902e-38
-0.30738133 -0.37354013 2.845901 1.0597436e-38
-0.30748641 -0.36823037 2.8462801 1.2161522e-38
-0.31133819 -0.36164856 2.8457184 1.2070405e-38
-0.31144229 -0.356383 2.8460939 1.1148443e-38
-0.31529158 -0.34993374 2.8455229 1.317493e-38
-0.29819089 -0.76072037 2.8186884 1.7502714e-38
-0.29860637 -0.7566694 2.8188846 1.8242468e-38
-0.29932314 -0.74955785 2.8192325 1.7783287e-38
-0.29496282 -0.75063795 2.820358 1.8794567e-38
-0.29506782 -0.74532813 2.8207369 1.8519035e-38
-0.2951729 -0.74001843 2.821116 1.7965511e-38
-0.29527789 -0.73470867 2.8214948 1.8058427e-38
-0.29538298 -0.72939891 2.8218739 1.7967679e-38
-0.29548803 -0.72408915 2.822253 1.8335385e-38
-0.29559311 -0.71877939 2.8226321 1.7968056e-38
-0.29569817 -0.71346962 2.8230112 1.3636691e-38
-0.29580322 -0.70815986 2.8233902 1.1796709e-38
-0.29590824 -0.7028501 2.8237691 1.0232585e-38
-0.2960133 -0.69754034 2.8241482 1.1054453e-38
-0.29996064 -0.68821716 2.8237708 1.1239938e-38
-0.3000648 -0.68295163 2.8241465 1.160655e-38
-0.31137052 -0.66623807 2.8222973 1.0777496e-38
-0.31147218 -0.6611014 2.8226643 1.0961554e-38
-0.3190715 -0.63360989 2.8226709 1.7699043e-38
-0.31259003 -0.60459852 2.8266973 1.5854404e-38
-0.3075217 -0.49623492 2.8364313 1.6040247e-38
-0.30762503 -0.49101362 2.8368039 1.6223557e-38
-0.30772835 -0.48579228 2.8371768 1.6315752e-38
-0.30783162 -0.48057094 2.8375494 1.6315752e-38
-0.30412757 -0.47759494 2.8388047 1.6868207e-38
-0.30423173 -0.47232935 2.8391805 1.6590172e-38
-0.30433601 -0.46706384 2.8395567 1.4652994e-38
-0.30444008 -0.46179825 2.8399322 1.7049711e-38
-0.30454424 -0.45653272 2.8403082 1.7419585e-38
-0.30464846 -0.45126718 2.8406842 1.6683816e-38
-0.30475262 -0.44600162 2.8410599 1.6868926e-38
-0.30485681 -0.44073609 2.8414359 1.6868926e-38
-0.30496091 -0.43547049 2.8418114 1.6684535e-38
-0.30506513 -0.43020487 2.8421874 1.6408307e-38
-0.30137071 -0.42674264 2.8434775 1.6869282e-38
-0.30147582 -0.42143294 2.8438566 1.6961478e-38
-0.30158085 -0.41612321 2.8442357 1.6869282e-38
-0.30168584 -0.41081342 2.8446143 1.6500501e-38
-0.30179086 -0.40550366 2.8449934 1.6869282e-38
-0.30189604 -0.40019396 2.8453727 1.7053676e-38
-0.302001 -0.39488414 2.8457515 1.7605772e-38
-0.29815561 -0.39113057 2.847106 1.7974552e-38
-0.30221117 -0.38426465 2.8465097 1.4472563e-38
-0.30231613 -0.37895492 2.8468885 1.1708479e-38
-0.30242124 -0.37364519 2.8472676 1.115061e-38
-0.30710074 -0.3664051 2.8465271 1.1700908e-38
-0.3064194 -0.36175272 2.8470736 1.2162601e-38
-0.30652362 -0.35648721 2.8474495 1.1056246e-38
-0.31041411 -0.35003707 2.8468668 1.4005049e-38
-0.2897926 -0.76136249 2.8209667 1.7962288e-38
-0.28989762 -0.75605273 2.8213456 1.7777874e-38
-0.29000267 -0.75074297 2.8217247 1.7317975e-38
-0.29021281 -0.74012351 2.8224828 1.7225056e-38
-0.29031792 -0.73481375 2.8228619 1.6950262e-38
-0.29042295 -0.72950393 2.823241 1.6582208e-38
-0.29052794 -0.72419417 2.8236196 1.6674416e-38
-0.29063296 -0.71888447 2.8239987 1.6584038e-38
-0.29073802 -0.71357471 2.8243778 1.187961e-38
-0.29084307 -0.70826489 2.8247566 7.8333663e-39
-0.29094809 -0.70295519 2.8251357 8.7524163e-39
-0.29504183 -0.68832135 2.8251259 1.2246878e-38
-0.29514602 -0.68305582 2.8255019 1.1692615e-38
-0.30748683 -0.62010998 2.8269196 1.5581061e-38
-0.30758843 -0.61497331 2.8272862 1.5210834e-38
-0.30264425 -0.49633828 2.8377755 1.6038815e-38
-0.30274746 -0.49111688 2.8381479 1.6131361e-38
-0.30285084 -0.4858956 2.8385208 1.6315752e-38
-0.30295411 -0.48067427 2.8388934 1.6591619e-38
-0.29920873 -0.4776991 2.8401601 1.6684166e-38
-0.29931295 -0.47243357 2.8405361 1.5578541e-38
-0.29941705 -0.46716794 2.8409116 1.3825729e-38
-0.29952133 -0.46190247 2.8412879 1.6498702e-38
-0.2996254 -0.45663691 2.8416634 1.7053323e-38
-0.29972968 -0.45137137 2.8420396 1.677638e-38
-0.29983383 -0.44610584 2.8424153 1.7236988e-38
-0.29993793 -0.44084024 2.8427908 1.6868926e-38
-0.30004221 -0.43557471 2.8431671 1.6500504e-38
-0.30014628 -0.43030906 2.8435426 1.6500504e-38
-0.3002505 -0.42504352 2.8439188 1.6961122e-38
-0.30035466 -0.41977796 2.8442945 1.705332e-38
-0.29662076 -0.41622826 2.8456023 1.6961125e-38
-0.29672581 -0.4109185 2.8459814 1.705152e-38
-0.29683083 -0.40560874 2.8463604 1.6868576e-38
-0.29693589 -0.40029898 2.8467393 1.6868929e-38
-0.29304644 -0.39659229 2.8481019 1.7699043e-38
-0.29315251 -0.39123654 2.8484845 1.7791243e-38
-0.29725102 -0.38436967 2.8478763 1.4286748e-38
-0.29735604 -0.37905997 2.8482552 1.0232639e-38
-0.30129227 -0.37238806 2.8476772 1.179204e-38
-0.30139634 -0.36712247 2.848053 1.3173157e-38
-0.30532995 -0.36058313 2.8474653 1.2622501e-38
-0.30248529 -0.63048488 2.8275084 1.4472902e-38
-0.30258694 -0.62534821 2.8278751 1.6223907e-38
-0.30268848 -0.6202116 2.8282416 1.5581061e-38
-0.30279016 -0.61507493 2.8286085 1.5487421e-38
-0.29776675 -0.49644151 2.8391192 1.5577837e-38
-0.29787007 -0.49122021 2.8394918 1.5762937e-38
-0.29797333 -0.48599887 2.8398645 1.6039166e-38
-0.29418591 -0.48306885 2.8411398 1.6683816e-38
-0.29429001 -0.47780329 2.8415153 1.6684166e-38
-0.29439422 -0.47253773 2.8418913 1.5025367e-38
-0.29449835 -0.46727216 2.842267 1.4932077e-38
-0.29460245 -0.46200657 2.8426428 1.6590897e-38
-0.29470673 -0.45674109 2.843019 1.6961127e-38
-0.29481083 -0.4514755 2.8433945 1.6500153e-38
-0.29491508 -0.44621 2.8437707 1.6683816e-38
-0.29501924 -0.44094443 2.8441465 1.6776731e-38
-0.29512334 -0.43567884 2.844522 1.6684535e-38
-0.29522762 -0.43041325 2.8448982 1.6500504e-38
-0.29533169 -0.42514765 2.8452737 1.6868926e-38
-0.29543597 -0.41988215 2.84565 1.6500148e-38
-0.29166073 -0.41633329 2.8469689 1.6500148e-38
-0.29176569 -0.41102353 2.8473477 1.6683096e-38
-0.2918708 -0.40571377 2.8477268 1.6407599e-38
-0.28793749 -0.40205407 2.8490982 1.6500148e-38
-0.28804356 -0.3966983 2.8494809 1.7606847e-38
-0.28814948 -0.39134249 2.8498631 1.7699046e-38
-0.29398575 -0.38400576 2.8488092 1.2629383e-38
-0.29239607 -0.37916502 2.849622 9.0340969e-39
-0.29778311 -0.36637837 2.8491118 1.2712899e-38
-0.3004525 -0.36068642 2.8488092 1.2530306e-38
-0.30055588 -0.35546508 2.8491821 1.0965131e-38
-0.29399601 -0.62887502 2.8299851 1.6499475e-38
-0.29409844 -0.62369597 2.8303547 1.6772437e-38
-0.29430339 -0.61333793 2.831094 1.5299433e-38
-0.29440588 -0.60815901 2.8314638 1.3004998e-38
-0.29288924 -0.49654484 2.8404632 1.5764396e-38
-0.2929925 -0.4913235 2.8408358 1.5947699e-38
-0.29309583 -0.48610216 2.8412085 1.5763655e-38
-0.28926703 -0.48317304 2.842495 1.6682017e-38
-0.28937119 -0.47790745 2.8428707 1.5947348e-38
-0.28947535 -0.47264189 2.8432465 1.3924074e-38
-0.28565016 -0.46953595 2.8445456 1.4658026e-38
-0.28575522 -0.46422619 2.8449247 1.65909e-38
-0.28586024 -0.45891643 2.8453035 1.6684538e-38
-0.28989214 -0.45157972 2.8447502 1.6408671e-38
-0.28999624 -0.44631413 2.8451257 1.6407599e-38
-0.29010046 -0.44104862 2.8455017 1.6591619e-38
-0.29020464 -0.43578306 2.8458776 1.6500501e-38
-0.29030874 -0.43051738 2.8462534 1.6500148e-38
-0.29041296 -0.42525187 2.8466294 1.7329201e-38
-0.29051706 -0.41998625 2.8470049 1.6961125e-38
-0.28670064 -0.41643834 2.8483357 1.6685611e-38
-0.28680566 -0.41112861 2.8487146 1.6408307e-38
-0.28691071 -0.40581882 2.8490937 1.6040616e-38
-0.2829344 -0.40216002 2.850477 1.6315402e-38
-0.2830404 -0.39680424 2.8508594 1.7423901e-38
-0.27906686 -0.39300734 2.8522525 1.7608293e-38
-0.28733087 -0.38457978 2.8506095 1.3181121e-38
-0.28743598 -0.37927008 2.8509886 1.0137926e-38
-0.29191196 -0.37248793 2.8502696 1.1883863e-38
-0.28946546 -0.61344039 2.832427 1.2072586e-38
-0.28413984 -0.4938083 2.8430984 1.6039894e-38
-0.28424406 -0.48854274 2.8434744 1.6040242e-38
-0.28037488 -0.48557022 2.8447752 1.6774212e-38
-0.28047991 -0.48026049 2.8451543 1.4932836e-38
-0.28058502 -0.47495076 2.8455334 1.2725889e-38
-0.28068998 -0.46964097 2.8459122 1.4842776e-38
-0.28079504 -0.46433121 2.8462911 1.65909e-38
-0.28090006 -0.45902145 2.8466702 1.6500148e-38
-0.28100511 -0.45371169 2.847049 1.6040247e-38
-0.2811102 -0.44840196 2.8474283 1.6223206e-38
-0.28121531 -0.44309223 2.8478074 1.6406869e-38
-0.2813203 -0.43778244 2.8481863 1.6316108e-38
-0.28538999 -0.43062159 2.8476088 1.6500148e-38
-0.28549412 -0.42535603 2.8479846 1.6868223e-38
-0.2816354 -0.4218531 2.8493233 1.6961125e-38
-0.28174052 -0.41654339 2.8497024 1.650122e-38
-0.28184554 -0.41123366 2.8500814 1.6684535e-38
-0.28195059 -0.40592387 2.8504603 1.6132813e-38
-0.2779313 -0.40226603 2.8518555 1.6315402e-38
-0.27803722 -0.39691019 2.8522377 1.7516098e-38
-0.27814323 -0.39155442 2.8526201 1.7792324e-38
-0.27824914 -0.38619861 2.8530023 1.2075132e-38
-0.27835515 -0.38084286 2.8533847 1.0045729e-38
-0.28258085 -0.37406534 2.8527343 1.2620702e-38
-0.28268594 -0.36875564 2.8531134 1.464469e-38
-0.28674427 -0.36216944 2.852495 1.3171725e-38
-0.2868484 -0.35690391 2.8528707 1.20704e-38
-0.27973261 -0.3112174 2.8583546 2.5731876e-39
-0.28394648 -0.30503848 2.8576615 3.3989896e-39
-0.28044838 -0.63250667 2.8334608 1.3265741e-38
-0.28626683 -0.53067899 2.8396749 7.0914502e-39
-0.28647178 -0.52032107 2.8404143 7.0946704e-39
-0.28657421 -0.51514202 2.8407838 8.7466486e-39
-0.27922106 -0.49391246 2.8444538 1.1615575e-38
-0.27932528 -0.48864689 2.8448298 1.6499421e-38
-0.27541474 -0.48567525 2.8461418 1.7417062e-38
-0.27551982 -0.48036554 2.8465209 1.4286001e-38
-0.27562481 -0.47505575 2.8468997 1.2353858e-38
-0.27572995 -0.46974605 2.8472791 1.5021416e-38
-0.27583501 -0.46443629 2.8476582 1.5759337e-38
-0.27594003 -0.45912653 2.848037 1.6401466e-38
-0.27604508 -0.45381677 2.8484161 1.5850811e-38
-0.27615011 -0.44850701 2.8487952 1.621672e-38
-0.27625516 -0.44319725 2.849174 1.621672e-38
-0.28036696 -0.43599138 2.8485882 1.6494386e-38
-0.28047112 -0.43072572 2.848964 1.530448e-38
-0.28057534 -0.42546022 2.84934 1.6865692e-38
-0.28067949 -0.42019463 2.8497157 1.6866411e-38
-0.28078368 -0.41492912 2.8500917 1.6680942e-38
-0.28088784 -0.40966359 2.8504674 1.6771343e-38
-0.280992 -0.40439802 2.8508432 1.6864613e-38
-0.27709556 -0.40071917 2.852206 1.6403632e-38
-0.27720058 -0.39540941 2.8525851 1.8340815e-38
-0.27730557 -0.39009959 2.8529639 1.8889289e-38
-0.27324599 -0.38630456 2.8543808 1.1329633e-38
-0.27762073 -0.37417039 2.8541009 1.2894046e-38
-0.27772579 -0.36886066 2.85448 1.4736886e-38
-0.28182539 -0.36227357 2.8538501 1.3446873e-38
-0.28192961 -0.35700807 2.8542261 1.280402e-38
-0.27877626 -0.315763 2.8582699 5.5101298e-40
-0.27888134 -0.3104533 2.8586493 3.6759338e-39
-0.2794821 -0.6291824 2.8339841 1.2067198e-38
-0.2744064 -0.48875108 2.846185 1.6407225e-38
-0.27045467 -0.48578036 2.8475087 1.7324865e-38
-0.27055967 -0.48047057 2.8478875 1.2903067e-38
-0.2707698 -0.46985108 2.8486457 1.5851537e-38
-0.27087486 -0.46454132 2.8490245 1.594373e-38
-0.27503145 -0.45715779 2.8484402 1.6217073e-38
-0.27513558 -0.45189223 2.8488159 1.566642e-38
-0.2752398 -0.44662669 2.8491919 1.5756102e-38
-0.27234554 -0.39020467 2.8543308 1.8059168e-38
-0.27245057 -0.38489494 2.8547099 9.7626656e-39
-0.27255562 -0.37958521 2.8550887 8.8388442e-39
-0.27266064 -0.37427548 2.8554678 1.1972089e-38
-0.27276576 -0.36896572 2.8558469 1.4736886e-38
-0.27690655 -0.36237776 2.8552053 1.3446873e-38
-0.27701074 -0.35711226 2.8555813 1.2527435e-38
-0.27464426 -0.62928486 2.8353171 1.3445408e-38
-0.26959184 -0.48358971 2.8479161 1.4931724e-38
-0.269696 -0.47832415 2.8482919 1.2076886e-38
-0.26980022 -0.47305858 2.8486679 1.2532119e-38
-0.26990438 -0.46779302 2.8490436 2.1932117e-38
-0.27000856 -0.46252748 2.8494196 2.3504496e-38
-0.27534187 -0.39775234 2.8529201 1.8896514e-38
-0.27167532 -0.37827861 2.8554332 1.0499107e-38
-0.27198789 -0.36248195 2.8565609 1.3717329e-38
-0.27209198 -0.35721639 2.8569365 1.2897289e-38
-0.26482925 -0.30617949 2.8628724 3.7695601e-39
-0.25198519 -0.70261478 2.8359611 1.2431977e-38
-0.26980636 -0.62938732 2.8366504 1.3537604e-38
-0.2647773 -0.47842836 2.8496475 1.1892495e-38
-0.26488134 -0.47316274 2.850023 1.2808706e-38
-0.26498556 -0.46789718 2.850399 2.248529e-38
-0.26508972 -0.46263164 2.8507748 2.3509886e-38
-0.26686072 -0.37311727 2.8571644 1.8053333e-38
-0.26696488 -0.3678517 2.8575401 9.85911e-39
-0.26706901 -0.36258611 2.8579159 1.2979764e-38
-0.26717329 -0.35732061 2.8582921 1.2344115e-38
-0.2469821 -0.70272076 2.8373399 1.5291838e-38
-0.25673327 -0.63649923 2.8397272 1.326316e-38
-0.26712003 -0.52073091 2.8457463 1.2900476e-38
-0.26752985 -0.50001484 2.847225 1.0504114e-38
-0.25985837 -0.47853249 2.8510025 9.4043074e-39
-0.25996265 -0.47326693 2.8513787 1.2348063e-38
-0.26225442 -0.35742477 2.8596473 1.169984e-38
-0.24197897 -0.70282674 2.8387182 1.5568426e-38
-0.24662246 -0.68797129 2.838573 1.2241453e-38
-0.24704267 -0.66673231 2.8400891 4.328824e-39
-0.24714778 -0.66142261 2.8404682 3.2314713e-39
-0.24725276 -0.65611273 2.840847 1.6145761e-41
-0.2473578 -0.65080297 2.8412261 1.2168353e-38
-0.24303858 -0.64926869 2.8425412 1.5665662e-38
-0.25181434 -0.63660336 2.8410823 1.3908529e-38
-0.26228204 -0.52083331 2.8470793 1.1885964e-38
-0.25926316 -0.47116119 2.8517342 1.2348063e-38
-0.23686987 -0.70828843 2.8397145 1.6949208e-38
-0.2369758 -0.70293266 2.8400967 1.6398189e-38
-0.2370818 -0.69757682 2.8404791 1.5288968e-38
-0.25056353 -0.66445458 2.8392882 1.0581191e-38
-0.25066692 -0.65923327 2.8396611 1.1864037e-38
-0.25077012 -0.65401191 2.8400335 7.8131932e-39
-0.25087345 -0.64879054 2.8404064 4.1433593e-39
-0.25097683 -0.64356923 2.8407793 1.3179251e-38
-0.24679139 -0.64197308 2.8420618 1.520612e-38
-0.2511833 -0.63312644 2.8415244 1.3450796e-38
-0.25539497 -0.62451565 2.8410192 1.445993e-38
-0.2318669 -0.70839441 2.8410931 1.7686774e-38
-0.23649223 -0.69880092 2.8405483 1.6305994e-38
-0.2365974 -0.69349116 2.8409276 1.6026533e-38
-0.24114349 -0.67893618 2.8407862 1.1227653e-38
-0.24124759 -0.67367059 2.8411617 8.6465272e-39
-0.2456862 -0.66455793 2.8406324 1.0396441e-38
-0.24578947 -0.65933651 2.8410051 1.2509407e-38
-0.24589266 -0.6541152 2.8413775 7.1678322e-39
-0.24599598 -0.64889383 2.8417501 2.7600871e-39
-0.24609931 -0.64367247 2.842123 1.4009012e-38
-0.24620257 -0.63845116 2.8424954 1.539087e-38
-0.2463059 -0.63322973 2.8428683 1.3727385e-38
-0.24909498 -0.49225321 2.8529313 9.2181561e-39
-0.23132206 -0.70952547 2.841157 2.3494421e-38
-0.2314271 -0.70421576 2.841536 2.0172134e-38
-0.23153222 -0.698906 2.8419151 1.7135418e-38
-0.23163718 -0.69359618 2.842294 1.657969e-38
-0.23612042 -0.68430591 2.8417654 1.5657378e-38
-0.23622462 -0.67904037 2.8421414 1.381204e-38
-0.23632884 -0.67377478 2.8425174 9.5735422e-39
-0.24080859 -0.66466117 2.8419762 1.1321666e-38
-0.24091192 -0.65943986 2.8423488 1.1132211e-38
-0.24101517 -0.65421849 2.8427215 6.4284847e-39
-0.24530919 -0.64543653 2.8422062 1.1938615e-39
-0.24541169 -0.64025754 2.842576 1.4838089e-38
-0.24132508 -0.63855445 2.8438396 1.5115025e-38
-0.24142835 -0.63333303 2.8442123 1.3817431e-38
-0.24153173 -0.62811166 2.8445852 1.5010583e-38
-0.22625694 -0.71494031 2.8421447 2.349767e-38
-0.22636198 -0.70963055 2.8425238 2.3499103e-38
-0.22646701 -0.70432079 2.8429027 2.1278123e-38
-0.22657205 -0.69901103 2.8432817 1.8518711e-38
-0.22667709 -0.69370127 2.8436608 1.6671887e-38
-0.23120165 -0.6844101 2.8431208 1.6394943e-38
-0.23130585 -0.6791445 2.8434968 1.381204e-38
-0.23582776 -0.66998583 2.8429475 1.2708194e-38
-0.23593108 -0.66476446 2.8433201 1.3718751e-38
-0.23603435 -0.65954316 2.8436928 1.4451253e-38
-0.24047129 -0.64553905 2.8435395 2.7550649e-39
-0.24057373 -0.64036 2.843909 1.5114316e-38
-0.23644753 -0.63865775 2.8451834 1.5299417e-38
-0.23655085 -0.63343632 2.8455563 1.3817431e-38
-0.23665412 -0.62821496 2.8459289 1.5287169e-38
-0.23675744 -0.62299365 2.8463016 1.5753558e-38
-0.2347436 -0.50538111 2.8559 1.3363678e-38
-0.2166456 -0.71942389 2.8444641 2.3497969e-38
-0.22140187 -0.70973557 2.8438904 2.3496558e-38
-0.22150691 -0.70442587 2.8442695 2.2019542e-38
-0.22161195 -0.69911605 2.8446486 1.9255878e-38
-0.22171699 -0.69380629 2.8450274 1.7041363e-38
-0.22628279 -0.68451428 2.8444762 1.6027589e-38
-0.22638695 -0.67924869 2.844852 1.4642147e-38
-0.23095027 -0.67008913 2.8442914 1.4828711e-38
-0.23553085 -0.65082049 2.8445027 1.5851167e-38
-0.23156998 -0.63876104 2.8465273 1.483881e-38
-0.23167336 -0.63353968 2.8469002 1.3268574e-38
-0.23177662 -0.62831825 2.8472729 1.5382608e-38
-0.23187989 -0.62309694 2.8476455 1.5939762e-38
-0.23198327 -0.61787564 2.8480184 1.5296549e-38
-0.23208654 -0.61265421 2.8483911 1.5020682e-38
-0.22961633 -0.51601648 2.8565035 9.3055873e-39
-0.22972053 -0.51075077 2.8568795 9.5811372e-39
-0.22982469 -0.5054853 2.8572552 1.0411933e-38
-0.22549874 -0.50265497 2.8586719 1.1148469e-38
-0.230033 -0.49495417 2.8580067 8.7473787e-39
-0.2257089 -0.49203551 2.8594301 9.1838299e-40
-0.22581387 -0.48672575 2.8598089 6.0831557e-39
-0.22459249 -0.31773871 2.8731363 3.9535899e-39
-0.21174838 -0.71417403 2.8462248 2.2937262e-38
-0.21654676 -0.70453089 2.8456361 2.1189781e-38
-0.2166518 -0.69922113 2.846015 1.796514e-38
-0.21675684 -0.69391137 2.8463941 1.6856972e-38
-0.22136404 -0.68461841 2.8458316 1.5474416e-38
-0.2214682 -0.67935288 2.8462074 1.4273724e-38
-0.22607265 -0.67019242 2.8456352 1.4552126e-38
-0.23069291 -0.65092295 2.8458357 1.8063504e-38
-0.2307954 -0.64574397 2.8462055 1.7512133e-38
-0.22669254 -0.63886434 2.8478715 1.4470029e-38
-0.22679581 -0.63364297 2.8482442 1.2623205e-38
-0.22689913 -0.62842155 2.8486171 1.4645043e-38
-0.22700234 -0.62320024 2.8489892 1.4004012e-38
-0.22261405 -0.62143165 2.8503416 1.3636667e-38
-0.22720899 -0.6127575 2.8497348 1.3545552e-38
-0.2273123 -0.6075362 2.8501077 1.3729946e-38
-0.22741556 -0.60231483 2.8504803 1.4190568e-38
-0.22751889 -0.59709346 2.850853 1.4283135e-38
-0.22762221 -0.59187216 2.8512259 1.4928487e-38
-0.22498807 -0.51500499 2.8578641 8.1077756e-39
-0.22032851 -0.51337951 2.8592803 8.6591795e-39
-0.22043355 -0.50806981 2.8596594 8.4758252e-39
-0.22053859 -0.50276005 2.8600385 8.3825996e-39
-0.22064364 -0.49745029 2.8604174 9.300551e-39
-0.22085378 -0.4868308 2.8611755 7.0051106e-39
-0.22095875 -0.48152104 2.8615544 2.3506298e-38
-0.22106385 -0.47621131 2.8619335 2.3509886e-38
-0.20674543 -0.71427995 2.8476036 1.5475527e-38
-0.21158683 -0.70463598 2.847003 1.5568073e-38
-0.21169187 -0.69932622 2.8473821 1.5932167e-38
-0.21179689 -0.6940164 2.8477609 1.3631575e-38
-0.21644527 -0.6847226 2.8471868 1.4273368e-38
-0.21654949 -0.67945707 2.8475628 1.3444336e-38
-0.22119527 -0.67029577 2.8469791 1.4183336e-38
-0.22626492 -0.63030946 2.8486476 9.7662375e-39
-0.22636737 -0.62513041 2.8490171 1.0131032e-38
-0.22212487 -0.62330347 2.8503332 9.4864235e-39
-0.21769534 -0.62153584 2.851697 9.3970949e-39
-0.21779954 -0.61627036 2.852073 7.9198264e-39
-0.22243491 -0.60763949 2.8514516 8.7477598e-39
-0.22253817 -0.60241818 2.8518243 8.4755113e-39
-0.22264144 -0.59719676 2.8521969 8.5687663e-39
-0.22274476 -0.59197545 2.8525696 7.9262682e-39
-0.22284803 -0.58675402 2.8529422 8.8438833e-39
-0.22295129 -0.58153266 2.8533149 8.9368104e-39
-0.22305468 -0.57631135 2.8536878 9.1201226e-39
-0.22315794 -0.57108998 2.8540604 8.9339531e-39
-0.22385874 -0.52958375 2.8570564 9.8577213e-39
-0.22422963 -0.52334839 2.8574328 9.7655131e-39
-0.21515843 -0.52410418 2.8598893 1.1054458e-38
-0.21526341 -0.51879442 2.8602681 1.1236323e-38
-0.21536851 -0.5134846 2.8606472 1.1881336e-38
-0.21547349 -0.50817484 2.861026 1.1512181e-38
-0.21557853 -0.50286508 2.8614049 1.2067859e-38
-0.21568362 -0.49755535 2.8617842 1.2896566e-38
-0.21578874 -0.49224561 2.8621633 1.2532475e-38
-0.21589372 -0.48693585 2.8625422 1.0415627e-38
-0.21599881 -0.48162612 2.8629212 2.3505912e-38
-0.21610379 -0.47631636 2.8633001 2.3509886e-38
-0.21620889 -0.4710066 2.8636792 2.3500878e-38
-0.21631393 -0.46569687 2.8640583 2.0734662e-38
-0.2307732 -0.40243369 2.8649132 2.35019e-38
-0.22238314 -0.38458586 2.8686104 2.0367583e-38
-0.20184822 -0.70903015 2.8493643 1.372416e-38
-0.20673171 -0.69943124 2.8487484 1.4549232e-38
-0.20683675 -0.69412148 2.8491275 1.3539379e-38
-0.21152644 -0.68482679 2.848542 1.3167379e-38
-0.21163064 -0.6795612 2.848918 1.2798967e-38
-0.22142684 -0.63041186 2.8499804 1.0411607e-38
-0.22152941 -0.62523288 2.8503504 1.0776401e-38
-0.21724746 -0.62340683 2.8516774 1.0039597e-38
-0.21735071 -0.61818552 2.8520501 9.5814876e-39
-0.21745403 -0.61296409 2.8524227 8.4726401e-39
-0.21755736 -0.60774279 2.8527956 8.194586e-39
-0.21766056 -0.60252148 2.853168 7.6457507e-39
-0.21776395 -0.59730005 2.8535409 8.3840164e-39
-0.21797054 -0.58685732 2.8542862 7.6453401e-39
-0.2180738 -0.58163595 2.8546588 8.1988866e-39
-0.21381833 -0.56898451 2.856811 9.0265019e-39
-0.21392247 -0.56371891 2.8571868 7.7346841e-39
-0.21402663 -0.55845338 2.8575625 7.092532e-39
-0.21413079 -0.55318785 2.8579385 7.3698476e-39
-0.21423493 -0.54792225 2.8583143 7.3676798e-39
-0.21440026 -0.54182839 2.858737 7.1836739e-39
-0.2144433 -0.53739119 2.859066 7.6464191e-39
-0.21019822 -0.52420926 2.8612556 1.0132143e-38
-0.21030338 -0.51889944 2.861635 1.0590954e-38
-0.21040842 -0.51358962 2.8620141 1.114377e-38
-0.21051346 -0.50827992 2.8623929 1.1235953e-38
-0.2106185 -0.5029701 2.862772 1.2160055e-38
-0.21072353 -0.4976604 2.8631508 1.2896566e-38
-0.21082857 -0.49235067 2.8635299 1.2163334e-38
-0.21093369 -0.48704094 2.863909 1.0231236e-38
-0.2062985 -0.48408648 2.8654208 2.3504472e-38
-0.20640443 -0.47873062 2.865803 2.3509886e-38
-0.21124874 -0.47111163 2.8650458 2.3501958e-38
-0.21135378 -0.46580189 2.8654249 1.9167337e-38
-0.21145888 -0.46049216 2.865804 1.7330222e-38
-0.21156392 -0.45518237 2.866183 1.8158946e-38
-0.21166897 -0.44987264 2.8665619 2.3509886e-38
-0.21177401 -0.44456288 2.866941 2.3509886e-38
-0.21187904 -0.43925309 2.8673198 2.3509886e-38
-0.21198408 -0.43394327 2.8676989 2.3415522e-38
-0.21746431 -0.38469005 2.8699656 1.8799897e-38
-0.21788104 -0.36362785 2.8714693 1.0690692e-38
-0.21355987 -0.35429695 2.8733842 1.2439555e-38
-0.19695106 -0.70378035 2.851125 8.5564994e-39
-0.2018766 -0.6942265 2.8504941 1.1420714e-38
-0.20660767 -0.68493092 2.8498976 1.169406e-38
-0.2113369 -0.67572373 2.8492942 1.2890437e-38
-0.21247321 -0.61828882 2.853394 1.105589e-38
-0.21257648 -0.61306739 2.8537667 9.8576905e-39
-0.21267988 -0.60784614 2.8541396 9.3931012e-39
-0.21278307 -0.60262477 2.854512 7.6407144e-39
-0.21288639 -0.59740335 2.8548849 7.7350372e-39
-0.21298979 -0.5921821 2.8552577 8.5669517e-39
-0.21309298 -0.58696055 2.8556302 9.11835e-39
-0.21319631 -0.58173925 2.856003 1.0780029e-38
-0.21329957 -0.57651794 2.8563755 1.0596367e-38
-0.20879528 -0.57435423 2.8577905 1.1147373e-38
-0.20889944 -0.56908864 2.8581662 1.1054427e-38
-0.20460789 -0.55617285 2.8603485 8.8413876e-39
-0.20471299 -0.55086303 2.8607275 9.4871269e-39
-0.20002383 -0.54846209 2.8622115 9.8569842e-39
-0.20492306 -0.54024357 2.8614857 9.8569814e-39
-0.20502804 -0.53493375 2.8618643 1.06853e-38
-0.20513308 -0.52962404 2.8622434 1.0592751e-38
-0.20523819 -0.52431428 2.8626225 1.0959386e-38
-0.20534317 -0.51900452 2.8630013 1.0684967e-38
-0.20544827 -0.5136947 2.8633804 1.105267e-38
-0.20555331 -0.50838494 2.8637595 1.1053374e-38
-0.20565835 -0.50307518 2.8641384 1.1608701e-38
-0.20576338 -0.49776542 2.8645175 1.1885658e-38
-0.20586856 -0.49245572 2.8648968 1.1519049e-38
-0.20118937 -0.48954821 2.8664167 1.0596384e-38
-0.20129542 -0.48419246 2.8667994 1.9905529e-38
-0.20140129 -0.47883657 2.8671813 2.3400776e-38
-0.20150729 -0.47348079 2.8675637 2.1194505e-38
-0.20161328 -0.46812502 2.8679461 1.4654048e-38
-0.20649873 -0.46059719 2.8671706 1.2348766e-38
-0.20203705 -0.44670185 2.8694751 2.2672935e-38
-0.2021431 -0.44134605 2.8698578 2.3509886e-38
-0.20786437 -0.3915703 2.8720977 1.1519371e-38
-0.20796947 -0.38626057 2.8724768 1.3361494e-38
-0.20341451 -0.37707642 2.874445 1.2430585e-38
-0.20838958 -0.36502156 2.8739927 1.1980355e-38
-0.20859966 -0.35440195 2.8747506 1.1516876e-38
-0.19205385 -0.6985305 2.8528857 1.0960095e-38
-0.2016888 -0.68503511 2.8512526 1.1878453e-38
-0.20645936 -0.67582703 2.8506382 1.3443609e-38
