# .PCD v0.7 - Point Cloud Data file format
VERSION 0.7
FIELDS x y z rgb
SIZE 4 4 4 4
TYPE F F F F
COUNT 1 1 1 1
WIDTH 1030
HEIGHT 1
VIEWPOINT 0 0 0 1 0 0 0
POINTS 1030
DATA ascii
-1.0227597 1.4253712 -2.6846907 1.5494643e-38
-1.0206988 1.433643 -2.6833732 1.7427515e-38
-1.0215499 1.4415679 -2.6767757 1.7520429e-38
-1.0220048 1.4516691 -2.6695569 1.5861636e-38
-1.0150126 1.4632109 -2.6754916 1.7613349e-38
-1.0158708 1.4712007 -2.6688402 1.7521878e-38
-1.017282 1.4765257 -2.6628222 1.6139672e-38
-1.0174284 1.4895817 -2.6543248 1.5771244e-38
-1.0184454 1.4951699 -2.6488857 1.7246369e-38
-1.0162696 1.5080892 -2.6448591 1.4485184e-38
-1.0165449 1.5165689 -2.6389997 1.5127317e-38
-1.0210196 1.5191391 -2.6289318 1.6141107e-38
-1.0117185 1.5556376 -2.6235113 1.4573795e-38
-1.0119946 1.5641913 -2.6176038 1.4573794e-38
-1.0150737 1.5710037 -2.6075003 1.6416985e-38
-1.0176647 1.5740018 -2.6007202 1.7891399e-38
-1.0117313 1.5866889 -2.6039343 1.6232958e-38
-1.0086945 1.1319112 -2.8960361 1.6601352e-38
-1.0084977 1.1468327 -2.8870122 1.7799896e-38
-1.0128825 1.1709018 -2.8635771 1.7153094e-38
-1.0137199 1.1786999 -2.8570852 1.7153091e-38
-1.0092152 1.1974558 -2.8537803 1.8260519e-38
-1.0097849 1.2058564 -2.8474152 1.8168325e-38
-1.0247992 1.2229367 -2.80831 1.5218426e-38
-1.0250814 1.2310938 -2.8026409 1.5218785e-38
-1.0279807 1.2376168 -2.7930589 1.5219149e-38
-1.0282611 1.2457749 -2.7873926 1.5035837e-38
-1.0242112 1.2561131 -2.7885294 1.5218788e-38
-1.020628 1.274657 -2.7836185 1.5126945e-38
-1.0202389 1.2997994 -2.7685218 1.5128029e-38
-1.0279584 1.3112673 -2.7467241 1.7244934e-38
-1.0275776 1.3207371 -2.7414801 1.53117e-38
-1.019696 1.3336805 -2.7482116 1.5310984e-38
-1.0142049 1.3441839 -2.7519662 1.7336764e-38
-1.0232551 1.3484085 -2.7322178 1.5586849e-38
-1.0235345 1.356703 -2.7264674 1.5586489e-38
-1.0224806 1.3742812 -2.7173882 1.5955267e-38
-1.0227576 1.3826138 -2.7116182 1.6047463e-38
-1.0230349 1.3909464 -2.705848 1.6046742e-38
-1.0303301 1.3948081 -2.6896415 1.6231494e-38
-1.0210143 1.4075832 -2.6991868 1.7247438e-38
-1.0218656 1.4155082 -2.6925895 1.7705529e-38
-1.0227169 1.4234331 -2.685992 1.7062322e-38
-1.023568 1.431358 -2.6793947 1.614361e-38
-1.0244193 1.439283 -2.6727972 1.6234006e-38
-1.0216157 1.4520109 -2.6700764 1.5495373e-38
-1.017978 1.4631692 -2.6699185 1.512804e-38
-1.0187632 1.4688969 -2.664829 1.5222045e-38
-1.0258873 1.4704957 -2.6503706 1.4206812e-38
-1.0204798 1.4848764 -2.6515262 1.6232605e-38
-1.0213375 1.4928659 -2.644875 1.6878325e-38
-1.0242815 1.5023999 -2.6333132 1.7340025e-38
-1.020684 1.5137668 -2.6329486 1.715491e-38
-1.0086119 1.5460832 -2.6353936 2.1669588e-38
-1.0076568 1.5634863 -2.6262381 1.9366874e-38
-1.01123 1.5704583 -2.6151016 2.1300094e-38
-1.0196775 1.5719569 -2.5982075 1.8906263e-38
-1.0182114 1.6354584 -2.5609896 2.1024586e-38
-1.0192084 1.1158919 -2.886271 1.8537822e-38
-1.0208199 1.1342332 -2.8716795 1.7062338e-38
-1.0216504 1.1419663 -2.8652415 1.7154892e-38
-1.0224812 1.1496997 -2.8588037 1.7246736e-38
-1.0182183 1.1920475 -2.8401868 1.7154892e-38
-1.0336725 1.2018708 -2.8048208 1.5128034e-38
-1.0291257 1.2115657 -2.8073008 1.678683e-38
-1.0299565 1.2192991 -2.800863 1.7062338e-38
-1.0331422 1.2264242 -2.7903609 1.5311707e-38
-1.0316176 1.2347656 -2.787987 1.7247452e-38
-1.0324483 1.2424988 -2.7815492 1.6971224e-38
-1.0332787 1.2502321 -2.7751114 1.7246733e-38
-1.0341095 1.2579653 -2.7686737 1.7796673e-38
-1.0281079 1.2949637 -2.7567081 1.5956715e-38
-1.0310535 1.3015285 -2.7470124 1.6049635e-38
-1.0313247 1.3097636 -2.7413149 1.6141103e-38
-1.0315962 1.3179984 -2.7356169 1.6049979e-38
-1.0280716 1.328422 -2.7357087 1.5957061e-38
-1.0187763 1.3577486 -2.7347929 1.6051786e-38
-1.0196277 1.3656735 -2.7281954 1.5958161e-38
-1.0204786 1.3735985 -2.7215981 1.5589382e-38
-1.025586 1.4211479 -2.6820135 1.6970518e-38
-1.020694 1.4354532 -2.6822429 1.7063794e-38
-1.0272883 1.4369979 -2.6688187 1.872259e-38
-1.0281395 1.4449228 -2.6622214 1.9367591e-38
-1.0289904 1.4528476 -2.6556242 2.0289185e-38
-1.0296619 1.4638652 -2.6474185 1.9553062e-38
-1.0250884 1.498552 -2.6342125 2.1761424e-38
-1.020324 1.5097097 -2.6361828 1.9551625e-38
-1.0165929 1.5212849 -2.6359394 1.945943e-38
-1.0176623 1.6006156 -2.5839665 2.222096e-38
-1.0260543 1.1120353 -2.8757732 1.8999172e-38
-1.0266128 1.1202998 -2.8695152 1.8906615e-38
-1.0241393 1.1297166 -2.8682556 1.9091004e-38
-1.0246997 1.1380041 -2.8619788 1.8723297e-38
-1.0252807 1.1474696 -2.8549216 1.7617313e-38
-1.0261112 1.1552031 -2.8484836 1.7616596e-38
-1.0277725 1.1706696 -2.835608 1.7892827e-38
-1.0286031 1.1784028 -2.8291702 1.7708806e-38
-1.0373844 1.1910615 -2.8046184 1.5681938e-38
-1.0410553 1.2300638 -2.773128 1.5866684e-38
-1.0439556 1.2365212 -2.7635853 1.6328025e-38
-1.0360785 1.2480023 -2.7712293 1.7709865e-38
-1.0369091 1.2557356 -2.7647913 1.6423092e-38
-1.0280795 1.2860081 -2.7624013 1.549898e-38
-1.0336047 1.3067702 -2.7388945 1.5223489e-38
-1.0344424 1.3145685 -2.7324026 1.5591553e-38
-1.0353985 1.3404963 -2.7142708 1.5590819e-38
-1.0216457 1.3554637 -2.7308145 1.9276484e-38
-1.0224967 1.3633885 -2.7242169 1.9920765e-38
-1.0263976 1.3713634 -2.7118299 1.8722582e-38
-1.0266654 1.3797389 -2.7060497 1.8538905e-38
-1.0250504 1.3871634 -2.7044246 2.1671741e-38
-1.0259014 1.3950881 -2.6978273 2.1947247e-38
-1.0250816 1.4411181 -2.6703906 2.028918e-38
-1.0242256 1.4983405 -2.6359749 2.1578112e-38
-1.025457 1.5148803 -2.6232352 2.1208972e-38
-1.0324564 1.1115122 -2.8640146 1.8261256e-38
-1.0332806 1.1191863 -2.857626 1.8353809e-38
-1.0341049 1.1268604 -2.8512373 1.8538919e-38
-1.0315201 1.1340914 -2.8515646 2.0381733e-38
-1.0290729 1.1435447 -2.8502331 2.0197704e-38
-1.0297416 1.1607065 -2.8381634 1.844708e-38
-1.0305722 1.1684397 -2.8317256 1.7987541e-38
-1.0322332 1.1839062 -2.81885 1.7161023e-38
-1.0330638 1.1916394 -2.812412 1.670077e-38
-1.0338944 1.1993726 -2.8059742 1.6332358e-38
-1.0347252 1.2071061 -2.7995362 1.6239805e-38
-1.0321649 1.2832325 -2.7564349 1.6881911e-38
-1.0324328 1.2915018 -2.7507222 1.7157769e-38
-1.0310881 1.351216 -2.7156599 2.0841633e-38
-1.0253658 1.3611034 -2.7202384 2.3509886e-38
-1.0270683 1.3769534 -2.7070434 2.3509886e-38
-1.0279192 1.3848782 -2.7004461 2.3509886e-38
-1.0287704 1.3928031 -2.6938488 2.3509886e-38
-1.0296217 1.4007281 -2.6872513 2.3509886e-38
-1.0304728 1.4086529 -2.680654 2.3509886e-38
-1.0313241 1.4165778 -2.6740565 2.3509886e-38
-1.0296822 1.5119976 -2.6170716 2.2682649e-38
-1.0252776 1.5241084 -2.6177628 2.2407142e-38
-1.0352346 1.1092993 -2.860162 1.7069556e-38
-1.0419377 1.1132334 -2.8450279 1.8355965e-38
-1.0368831 1.1246475 -2.8473847 1.6608945e-38
-1.03088 1.1430099 -2.847157 1.6698992e-38
-1.0325412 1.1584766 -2.8342814 1.8077218e-38
-1.033372 1.1662099 -2.8278432 1.9090997e-38
-1.0342026 1.1739432 -2.8214054 2.0105509e-38
-1.035033 1.1816764 -2.8149676 2.1026737e-38
-1.0358638 1.1894097 -2.8085296 2.1947247e-38
-1.0487348 1.2165484 -2.767138 1.872114e-38
-1.0454164 1.2263867 -2.7672086 1.8077926e-38
-1.0333883 1.2476867 -2.7765076 2.3509886e-38
-1.0364567 1.2554518 -2.7658241 2.0288822e-38
-1.0397116 1.2702324 -2.7503717 2.1854694e-38
-1.0362667 1.2804501 -2.7504418 2.157847e-38
-1.0313691 1.3167729 -2.7368181 2.2038365e-38
-1.0316298 1.3251214 -2.7310684 2.1577753e-38
-1.0339012 1.3302512 -2.7235489 2.3509886e-38
-1.0347456 1.3381115 -2.7170055 2.3509886e-38
-1.0309129 1.3595588 -2.710737 2.2038365e-38
-1.0372782 1.3616917 -2.6973748 2.3509886e-38
-1.0381223 1.3695519 -2.6908317 2.3509886e-38
-1.0316396 1.390518 -2.6898706 2.3509886e-38
-1.0399387 1.1038249 -2.8547266 2.2130201e-38
-1.0394942 1.1949131 -2.7982094 2.3509886e-38
-1.0403247 1.2026465 -2.7917717 2.3509886e-38
-1.0411553 1.2103797 -2.7853339 2.3509886e-38
-1.0453084 1.2490461 -2.7531445 2.3509886e-38
-1.0461389 1.2567794 -2.7467065 2.3509886e-38
-1.0544977 1.2605684 -2.7285373 2.3509886e-38
-1.0396873 1.2780412 -2.7455003 2.2039441e-38
-1.0362799 1.2883053 -2.7454708 2.20398e-38
-1.0454246 1.3312172 -2.7011826 2.3509886e-38
-1.0401238 1.3594254 -2.693429 2.3509886e-38
-1.0409682 1.3672855 -2.6868856 2.3509886e-38
-1.0445054 1.2002457 -2.7853892 2.2038724e-38
-1.048108 1.2468163 -2.7492621 2.3509886e-38
-0.96943134 1.1334606 -2.9691968 1.5580355e-38
-0.9739731 1.1303327 -2.9625912 1.5397409e-38
-1.0188556 1.1053675 -2.8935642 1.9090644e-38
-1.0363511 1.0962335 -2.866281 2.1763935e-38
-1.0367333 1.1048067 -2.8601608 2.1580264e-38
-1.0407772 1.0931851 -2.8598437 2.2405349e-38
-0.66405267 1.3817465 -3.3894665 7.5683233e-39
-0.6635232 1.4002252 -3.3788304 7.9327898e-39
-0.66299355 1.4187036 -3.3681946 7.9327898e-39
-0.66272873 1.4279428 -3.3628767 7.656203e-39
-0.66219944 1.4464215 -3.3522406 7.7487517e-39
-0.66848361 1.415269 -3.3599916 8.2093767e-39
-0.66821873 1.4245081 -3.3546736 8.0253386e-39
-0.66795391 1.4337473 -3.3493557 7.933143e-39
-0.6674245 1.452226 -3.3387196 7.8409445e-39
-0.66715968 1.4614652 -3.3334017 7.7487489e-39
-0.66689491 1.4707046 -3.328084 7.6561973e-39
-0.70270663 1.3775017 -3.3191533 8.7708322e-39
-0.70244414 1.3866606 -3.3138816 8.7708266e-39
-0.70218164 1.3958193 -3.3086102 8.4935166e-39
-0.70191926 1.404978 -3.3033385 8.2172899e-39
-0.69955736 1.4874074 -3.2558937 7.933143e-39
-0.69929469 1.4965661 -3.250622 8.0246127e-39
-0.7081486 1.3740968 -3.311022 1.0432524e-38
-0.7078861 1.3832556 -3.3057501 9.6031264e-39
-0.71886528 1.3869528 -3.2826915 9.1425042e-39
-0.70736128 1.4015732 -3.295207 9.7828331e-39
-0.70709878 1.4107319 -3.2899354 8.8623089e-39
-0.7068364 1.4198908 -3.2846637 8.6779107e-39
-0.7065739 1.4290497 -3.279392 8.5849934e-39
-0.70631158 1.4382085 -3.2741203 8.6757443e-39
-0.70604903 1.4473672 -3.2688487 8.3058884e-39
-0.70499933 1.4840024 -3.2477622 7.7509167e-39
-0.70473677 1.4931611 -3.2424905 7.8405942e-39
-0.70447439 1.5023198 -3.2372189 7.933143e-39
-0.70421207 1.5114787 -3.2319472 7.933143e-39
-0.72608274 1.3200068 -3.3112185 1.3199154e-38
-0.72582245 1.3290882 -3.3059914 1.4303334e-38
-0.71359074 1.3706919 -3.3028903 1.3474274e-38
-0.72452146 1.3744951 -3.279856 1.2276447e-38
-0.72426116 1.3835765 -3.2746289 1.1998768e-38
-0.71280324 1.3981682 -3.2870755 1.1261206e-38
-0.71254075 1.4073269 -3.2818038 1.1257966e-38
-0.71227837 1.4164858 -3.2765322 1.0060865e-38
-0.71201587 1.4256448 -3.2712603 9.4165743e-39
-0.71175361 1.4348034 -3.2659888 9.4151296e-39
-0.71149111 1.4439622 -3.2607172 9.3211291e-39
-0.71122855 1.4531211 -3.2554457 8.6775477e-39
-0.69930464 1.4685739 -3.2682297 8.4910013e-39
-0.69903982 1.4778131 -3.262912 8.5806802e-39
-0.69877493 1.4870524 -3.2575939 8.4884846e-39
-0.71017897 1.4897562 -3.234359 8.3037346e-39
-0.70991629 1.4989148 -3.2290876 7.9353108e-39
-0.69665718 1.5609668 -3.21505 7.8409473e-39
-0.73173904 1.3075494 -3.3083827 9.8757504e-39
-0.73147875 1.3166308 -3.3031557 9.9675971e-39
-0.73121846 1.3257122 -3.2979286 9.6006083e-39
-0.7309584 1.3347936 -3.2927017 9.6013355e-39
-0.73069811 1.3438749 -3.2874744 9.6957018e-39
-0.73043799 1.3529563 -3.2822473 1.0157044e-38
-0.71903259 1.3672868 -3.2947588 1.0893542e-38
-0.72991753 1.3711189 -3.2717934 1.227504e-38
-0.72965717 1.3802004 -3.2665663 1.3103709e-38
-0.71824545 1.3947631 -3.278944 1.3656161e-38
-0.71798295 1.403922 -3.2736721 1.4206098e-38
-0.71772039 1.4130808 -3.2684007 1.2460122e-38
-0.71745807 1.4222398 -3.2631288 1.1630711e-38
-0.71719563 1.4313984 -3.2578573 1.0892425e-38
-0.71693313 1.4405571 -3.2525859 1.0705162e-38
-0.71667081 1.4497161 -3.247314 9.9675971e-39
-0.71562117 1.4863514 -3.2262275 8.9519766e-39
-0.71535844 1.49551 -3.2209558 8.5828284e-39
-0.70135266 1.5852499 -3.1908934 7.8405942e-39
-0.73661453 1.322336 -3.2898657 1.0243095e-38
-0.73635441 1.3314173 -3.2846389 1.0150539e-38
-0.73609418 1.3404988 -3.2794118 1.0150542e-38
-0.73583388 1.34958 -3.2741847 1.0150539e-38
-0.72447479 1.3638821 -3.2866271 1.00587e-38
-0.73531348 1.3677429 -3.2637303 9.0470716e-39
-0.73505336 1.3768244 -3.2585032 9.5980915e-39
-0.73479295 1.3859056 -3.2532761 9.3240256e-39
-0.73453283 1.394987 -3.248049 9.41731e-39
-0.7342726 1.4040684 -3.2428222 1.0708778e-38
-0.7334919 1.4313126 -3.2271409 1.3468886e-38
-0.72211266 1.4463111 -3.2391825 1.2823869e-38
-0.72185016 1.4554698 -3.233911 1.1168304e-38
-0.72080046 1.4921051 -3.2128243 9.6899214e-39
-0.70896059 1.5079007 -3.225234 9.1378168e-39
-0.70684254 1.581815 -3.1826904 7.7509195e-39
-0.75331271 1.3050739 -3.2692065 1.0426052e-38
-0.74175048 1.3280412 -3.276576 1.033421e-38
-0.74149001 1.3371226 -3.271349 9.966151e-39
-0.74122995 1.3462039 -3.2661219 9.9665041e-39
-0.74096984 1.3552854 -3.2608945 9.9665041e-39
-0.74070942 1.3643665 -3.2556677 9.8735868e-39
-0.74044943 1.3734483 -3.2504404 1.0056899e-38
-0.74018914 1.3825296 -3.2452135 9.7810353e-39
-0.7399289 1.3916109 -3.2399864 9.5062462e-39
-0.73966861 1.4006923 -3.2347591 9.5048071e-39
-0.72834206 1.4154298 -3.246866 8.9523508e-39
-0.72729224 1.452065 -3.2257795 1.0521865e-38
-0.72702998 1.4612237 -3.2205076 1.1349828e-38
-0.71524453 1.4767478 -3.2329853 1.2362165e-38
-0.72597998 1.4978588 -3.1994214 1.0063013e-38
-0.71418566 1.5137051 -3.2117131 9.8761007e-39
-0.71312666 1.5506623 -3.1904414 8.9509074e-39
-0.71286219 1.5599017 -3.1851232 8.4910013e-39
-0.71259719 1.5691408 -3.1798055 8.3055324e-39
-0.71233237 1.5783801 -3.1744874 8.2133368e-39
-0.75866276 1.3017263 -3.2612126 1.0519675e-38
-0.75840473 1.3107303 -3.2560298 1.0519325e-38
-0.74688625 1.3337464 -3.2632861 1.0335644e-38
-0.74662614 1.3428278 -3.258059 1.0150893e-38
-0.74636573 1.3519092 -3.2528319 1.0058694e-38
-0.74584532 1.370072 -3.2423778 1.0149095e-38
-0.7455852 1.3791535 -3.2371504 9.7810353e-39
-0.74532491 1.3882347 -3.2319236 9.5055232e-39
-0.74506468 1.3973161 -3.2266967 9.4126087e-39
-0.7337842 1.4120249 -3.2387342 9.4126059e-39
-0.73352188 1.4211837 -3.2334628 9.3204102e-39
-0.7332592 1.4303424 -3.2281909 9.1360218e-39
-0.72152895 1.4455953 -3.240736 9.043466e-39
-0.72126412 1.4548346 -3.2354178 8.9516263e-39
-0.7209993 1.4640738 -3.2300999 8.5824921e-39
-0.72073448 1.4733131 -3.224782 8.4920999e-39
-0.72046965 1.4825523 -3.2194643 8.5842927e-39
-0.72020501 1.4917916 -3.2141461 8.8616055e-39
-0.71994019 1.5010308 -3.2088282 1.0152344e-38
-0.76452875 1.280371 -3.2635834 1.015126e-38
-0.7642706 1.2893749 -3.2584009 1.0335288e-38
-0.76401299 1.2983791 -3.2532182 1.0334208e-38
-0.7637549 1.3073831 -3.2480359 1.0150895e-38
-0.76349676 1.3163872 -3.2428534 1.0517157e-38
-0.75202203 1.3394517 -3.2499964 1.0151249e-38
-0.75176173 1.348533 -3.2447693 9.9665013e-39
-0.75150168 1.3576144 -3.239542 9.6902746e-39
-0.75124139 1.3666958 -3.2343152 9.8735868e-39
-0.75098103 1.3757772 -3.2290881 9.5055232e-39
-0.75072104 1.3848586 -3.223861 9.4133247e-39
-0.75046068 1.3939401 -3.2186337 9.5051602e-39
-0.7392261 1.4086199 -3.2306027 9.320413e-39
-0.73896378 1.4177788 -3.2253313 9.5033624e-39
-0.73870134 1.4269375 -3.2200596 9.0438219e-39
-0.73843884 1.4360962 -3.214788 9.0438219e-39
-0.73817647 1.4452552 -3.2095163 8.9512704e-39
-0.72648913 1.4606389 -3.2218971 8.582848e-39
-0.72622436 1.4698782 -3.216579 8.5821291e-39
-0.72595972 1.4791175 -3.211261 8.582848e-39
-0.72569489 1.4883567 -3.2059431 8.5817732e-39
-0.72543007 1.4975959 -3.2006252 8.5821291e-39
-0.72357696 1.5622712 -3.1633992 1.0240574e-38
-0.76987869 1.2770236 -3.2555895 9.9682992e-39
-0.76962078 1.2860277 -3.2504067 9.8757476e-39
-0.76936293 1.2950317 -3.2452242 9.783552e-39
-0.76910484 1.3040357 -3.240042 1.0150895e-38
-0.76884675 1.3130398 -3.2348592 1.0334208e-38
-0.76858872 1.3220437 -3.2296767 1.0057981e-38
-0.76833069 1.3310475 -3.2244942 9.9665013e-39
-0.76807261 1.3400517 -3.2193117 9.6902746e-39
-0.75689751 1.3542382 -3.2314794 9.8732337e-39
-0.75663739 1.3633196 -3.2262523 9.5055232e-39
-0.75637716 1.3724011 -3.2210252 9.4133275e-39
-0.75611687 1.3814824 -3.2157981 9.4126087e-39
-0.75585675 1.390564 -3.2105708 9.2282174e-39
-0.74466813 1.4052151 -3.2224712 9.0438219e-39
-0.74440563 1.4143738 -3.2172 9.4100905e-39
-0.74414319 1.4235325 -3.2119284 9.317539e-39
-0.74388081 1.4326913 -3.2066565 9.0409521e-39
-0.74361831 1.4418502 -3.201385 8.9484033e-39
-0.74335599 1.4510089 -3.1961133 9.0409521e-39
-0.73171419 1.4664433 -3.2083762 8.6721696e-39
-0.73144931 1.4756826 -3.203058 8.7647211e-39
-0.73118472 1.4849218 -3.1977403 8.5824781e-39
-0.73092014 1.4941611 -3.1924222 8.4902824e-39
-0.78684962 1.2423618 -3.2453713 9.7828387e-39
-0.78659379 1.2512883 -3.2402334 1.0058344e-38
-0.78633815 1.2602149 -3.2350953 1.0058344e-38
-0.78608233 1.2691416 -3.2299573 1.0243095e-38
-0.7747128 1.2916843 -3.2372303 1.033421e-38
-0.77445513 1.3006884 -3.2320476 9.8739498e-39
-0.77419704 1.3096925 -3.2268651 9.8739498e-39
-0.77393878 1.3186964 -3.2216825 9.8735868e-39
-0.7734229 1.3367043 -3.2113175 9.4133303e-39
-0.77316481 1.3457081 -3.206135 9.4133275e-39
-0.77290672 1.3547122 -3.2009525 9.4133275e-39
-0.77264869 1.363716 -3.1957703 9.2278615e-39
-0.76151317 1.3781064 -3.2077353 9.0434688e-39
-0.76125264 1.3871875 -3.2025082 9.0427499e-39
-0.75011009 1.4018101 -3.2143397 9.5916077e-39
-0.74984759 1.4109688 -3.2090683 1.0507077e-38
-0.74958551 1.4201276 -3.2037966 1.0233006e-38
-0.74932277 1.4292864 -3.198525 9.6801908e-39
-0.74906027 1.4384452 -3.1932535 9.2192155e-39
-0.74879795 1.4476039 -3.1879818 9.1266611e-39
-0.74853545 1.4567628 -3.1827102 9.5876393e-39
-0.73693937 1.4722477 -3.1948552 9.9564302e-39
-0.73667443 1.4814868 -3.1895373 9.315025e-39
-0.73640996 1.4907262 -3.1842191 8.4899321e-39
-0.73614508 1.4999655 -3.1789012 8.5824781e-39
-0.73588043 1.509205 -3.1735833 8.9491026e-39
-0.73561561 1.5184443 -3.1682651 8.5806802e-39
-0.79240966 1.2301166 -3.242584 9.5051728e-39
-0.79215378 1.2390432 -3.2374458 9.50517e-39
-0.79189795 1.2479699 -3.2323079 9.6888382e-39
-0.79164231 1.2568964 -3.22717 9.3222137e-39
-0.79138643 1.265823 -3.2220318 9.3222137e-39
-0.78006279 1.2883368 -3.2292364 9.6888382e-39
-0.77980489 1.2973409 -3.2240536 9.688841e-39
-0.79036313 1.3015292 -3.2014802 9.5058959e-39
-0.79010749 1.3104558 -3.196342 9.505526e-39
-0.78985178 1.3193824 -3.1912041 9.5048071e-39
-0.77799898 1.3603688 -3.1877759 9.1335036e-39
-0.77774096 1.3693728 -3.1825933 1.0050415e-38
-0.76664877 1.3838114 -3.1944454 1.0415232e-38
-0.76638865 1.3928928 -3.1892183 9.0326536e-39
-0.75528973 1.4075638 -3.200937 6.8156439e-39
-0.75502735 1.4167227 -3.1956651 6.0741118e-39
-0.75476491 1.4258815 -3.1903934 5.0578144e-39
-0.76534772 1.4292183 -3.1683099 4.8741421e-39
-0.7542401 1.4441991 -3.1798501 4.9656188e-39
-0.75397742 1.4533577 -3.1745784 5.2414966e-39
-0.7537151 1.4625167 -3.169307 4.8770357e-39
-0.74216455 1.4780521 -3.1813345 6.6330659e-39
-0.74189955 1.4872913 -3.1760163 9.033762e-39
-0.74163491 1.4965308 -3.1706982 8.4874252e-39
-0.74137008 1.50577 -3.1653802 8.3055324e-39
-0.74110544 1.5150093 -3.1600623 8.4884818e-39
-0.79745787 1.2357247 -3.2295206 9.4126087e-39
-0.79720205 1.2446512 -3.2243826 9.4126115e-39
-0.79694641 1.2535778 -3.2192445 9.3211319e-39
-0.79669034 1.2625043 -3.2141068 9.3211319e-39
-0.7964347 1.271431 -3.2089686 9.4126087e-39
-0.79617888 1.2803575 -3.2038307 9.2282174e-39
-0.79592299 1.2892841 -3.1986928 9.5030092e-39
-0.79566741 1.2982107 -3.1935546 9.1356686e-39
-0.79541135 1.3071373 -3.1884167 9.0434716e-39
-0.7951557 1.3160638 -3.1832788 9.0427499e-39
-0.79490006 1.3249905 -3.1781409 8.9505515e-39
-0.78360689 1.3480176 -3.1849644 9.4068437e-39
-0.78334898 1.3570215 -3.1797819 1.0230488e-38
-0.7828328 1.3750294 -3.1694167 5.0595871e-39
-0.77178472 1.3895167 -3.1811554 4.9634496e-39
-0.77152443 1.398598 -3.1759286 4.6858047e-39
-0.76046944 1.4133177 -3.1875336 4.7780004e-39
-0.76020694 1.4224765 -3.1822619 4.5950384e-39
-0.75994438 1.4316353 -3.1769903 4.963821e-39
-0.75968194 1.440794 -3.1717186 4.8705463e-39
-0.75941956 1.449953 -3.1664469 4.7790696e-39
-0.75915712 1.4591116 -3.1611755 4.5950384e-39
-0.74765456 1.4746174 -3.1731312 4.8701974e-39
-0.74738955 1.4838566 -3.1678133 5.2411239e-39
-0.74712491 1.493096 -3.1624951 7.3742505e-39
-0.74686009 1.5023351 -3.1571772 8.8536896e-39
-0.74659526 1.5115744 -3.1518595 8.3058884e-39
-0.74633062 1.5208138 -3.1465414 8.5806802e-39
-0.74606597 1.5300531 -3.1412232 9.0384311e-39
-0.7447421 1.5762495 -3.1146336 8.9494585e-39
-0.74447739 1.5854889 -3.1093156 8.9494585e-39
-0.8132959 1.2195061 -3.2098277 9.2285803e-39
-0.81304216 1.2283586 -3.2047324 9.5952021e-39
-0.81278867 1.2372109 -3.1996372 9.4115297e-39
-0.81253493 1.2460631 -3.1945419 9.2282174e-39
-0.81228137 1.2549155 -3.1894467 9.2282174e-39
-0.81202781 1.2637677 -3.1843517 9.2282174e-39
-0.80148286 1.2770389 -3.1959054 9.1360218e-39
-0.80122715 1.2859656 -3.1907673 9.0427499e-39
-0.80097133 1.2948921 -3.1856294 8.7661631e-39
-0.80071551 1.3038186 -3.1804914 9.0409493e-39
-0.80045986 1.3127452 -3.1753535 8.9487537e-39
-0.80020398 1.321672 -3.1702154 8.6703591e-39
-0.78869903 1.3536741 -3.171788 5.4297989e-39
-0.788441 1.3626781 -3.1666052 4.7783507e-39
-0.77744085 1.3770591 -3.1783197 4.5028428e-39
-0.77718073 1.3861406 -3.1730926 4.7790696e-39
-0.7769205 1.3952218 -3.1678658 4.7790569e-39
-0.7766602 1.4043033 -3.1626387 4.8712526e-39
-0.77640003 1.4133848 -3.1574116 4.8712526e-39
-0.7653864 1.4282304 -3.1688588 4.3180802e-39
-0.76512414 1.4373891 -3.1635871 4.3177327e-39
-0.76486158 1.446548 -3.1583157 4.5946657e-39
-0.76459908 1.4557068 -3.153044 4.6868613e-39
-0.76433659 1.4648656 -3.1477723 5.1474807e-39
-0.76407433 1.4740244 -3.1425006 4.7790696e-39
-0.75261456 1.489661 -3.1542923 5.3343985e-39
-0.75234991 1.4989003 -3.1489742 8.3819116e-39
-0.75208527 1.5081396 -3.1436563 8.8536868e-39
-0.75182045 1.5173789 -3.1383383 8.3962861e-39
-0.7515558 1.5266182 -3.1330204 8.8543902e-39
-0.7512908 1.5358574 -3.1277025 8.5806802e-39
-0.75102621 1.5450966 -3.1223845 8.6728758e-39
-0.74996722 1.582054 -3.1011126 8.9494585e-39
-0.81855577 1.2162154 -3.2019684 9.2278615e-39
-0.81830221 1.2250677 -3.1968732 9.2274985e-39
-0.81804848 1.23392 -3.1917779 9.043466e-39
-0.81779492 1.2427722 -3.1866827 9.1360218e-39
-0.81754124 1.2516245 -3.1815875 9.043466e-39
-0.81728745 1.2604768 -3.1764922 9.0427499e-39
-0.81703401 1.2693291 -3.1713972 8.9505543e-39
-0.81678021 1.2781813 -3.166302 8.8583587e-39
-0.80627549 1.2915735 -3.1777039 8.4899321e-39
-0.80601966 1.3005 -3.1725662 8.8543874e-39
-0.80576384 1.3094265 -3.167428 8.3008479e-39
-0.80550796 1.3183532 -3.1622901 9.0341025e-39
-0.80525213 1.3272799 -3.1571519 7.8272777e-39
-0.79353291 1.3683347 -3.1534288 4.7790569e-39
-0.79327482 1.3773385 -3.1482463 4.6868613e-39
-0.78179598 1.4100085 -3.1493487 4.3180802e-39
-0.77082855 1.4248254 -3.1607273 4.2258832e-39
-0.77056605 1.4339842 -3.1554556 4.5021113e-39
-0.77030373 1.4431431 -3.1501839 4.1336875e-39
-0.77004123 1.4523019 -3.1449122 4.3177327e-39
-0.76977873 1.4614606 -3.1396408 4.1336875e-39
-0.76951647 1.4706193 -3.1343691 4.6843432e-39
-0.76925373 1.4797782 -3.1290975 4.1337001e-39
-0.76899141 1.488937 -3.1238258 4.1351491e-39
-0.75731039 1.5139441 -3.1301355 8.4884846e-39
-0.75704557 1.5231835 -3.1248174 8.3962861e-39
-0.75678074 1.5324227 -3.1194994 8.5806774e-39
-0.75651592 1.541662 -3.1141815 8.672873e-39
-0.82381564 1.2129242 -3.1941092 8.951276e-39
-0.82356209 1.2217767 -3.1890137 8.9505543e-39
-0.82330829 1.230629 -3.1839185 9.0434716e-39
-0.82305461 1.2394811 -3.1788235 9.043466e-39
-0.82254755 1.2571858 -3.1686327 8.8583559e-39
-0.82229382 1.2660381 -3.1635377 8.9487565e-39
-0.82204014 1.2748902 -3.1584425 8.5799767e-39
-0.81157941 1.2882549 -3.1697788 8.9465858e-39
-0.81081212 1.3150346 -3.1543648 5.8900708e-39
-0.82077169 1.3191514 -3.1329668 5.4212034e-39
-0.81030047 1.3328876 -3.1440887 4.8680296e-39
-0.80902159 1.3775207 -3.1183989 4.3180802e-39
-0.80876595 1.3864473 -3.113261 4.3180802e-39
-0.78693175 1.4157137 -3.1360588 3.9518116e-39
-0.77600813 1.4305793 -3.1473241 4.2258832e-39
-0.77574563 1.4397382 -3.1420527 4.1329813e-39
-0.77548319 1.4488968 -3.136781 4.2258832e-39
-0.77522087 1.4580556 -3.1315091 4.1336875e-39
-0.77495831 1.4672143 -3.1262376 4.1336875e-39
-0.77469605 1.4763733 -3.120966 4.3177327e-39
-0.76332957 1.4920305 -3.1325684 4.8687358e-39
-0.76280004 1.510509 -3.1219325 8.0275064e-39
-0.76253521 1.5197483 -3.1166146 8.5781593e-39
-0.76227057 1.5289878 -3.1112964 8.5806774e-39
-0.76200593 1.5382272 -3.1059785 8.5806774e-39
-0.76174116 1.5474663 -3.1006606 8.7650714e-39
-0.83922154 1.2057431 -3.1695418 9.0406018e-39
-0.83896995 1.2145211 -3.1644895 8.7661631e-39
-0.83871835 1.223299 -3.1594369 8.8583587e-39
-0.83846706 1.232077 -3.1543846 8.9505515e-39
-0.82780731 1.2538948 -3.1607735 8.9487537e-39
-0.82755357 1.2627469 -3.1556785 9.038078e-39
-0.82730007 1.2715993 -3.150583 8.6703591e-39
-0.82704633 1.2804515 -3.145488 8.1157546e-39
-0.82577807 1.3247129 -3.120012 4.6836369e-39
-0.82552433 1.3335651 -3.1149168 4.3180802e-39
-0.81432575 1.3742021 -3.1104736 4.3180802e-39
-0.81406993 1.3831286 -3.1053357 4.2258832e-39
-0.79206783 1.4214191 -3.1227689 4.1329813e-39
-0.79180741 1.4305003 -3.117542 4.0407857e-39
-0.79154688 1.4395816 -3.1123149 4.0414919e-39
-0.78013796 1.4729683 -3.1128345 4.2258832e-39
-0.77987552 1.4821271 -3.1075628 4.4999519e-39
-0.77961314 1.4912859 -3.1022913 4.1416203e-39
-0.76802528 1.5163136 -3.1084113 8.2093767e-39
-0.76776046 1.5255527 -3.1030934 8.3037346e-39
-0.76749581 1.5347922 -3.0977755 8.3962889e-39
-0.76723117 1.5440315 -3.0924575 8.5806774e-39
-0.76696634 1.5532708 -3.0871396 8.672873e-39
-0.84443718 1.2024796 -3.1617486 9.1273702e-39
-0.84418589 1.2112577 -3.1566961 8.7643708e-39
-0.8439343 1.2200357 -3.1516438 8.9484005e-39
-0.84368265 1.2288138 -3.1465909 8.4899321e-39
-0.84343106 1.2375915 -3.1415389 8.6725255e-39
-0.8328135 1.259456 -3.147819 8.5770803e-39
-0.84242511 1.2727034 -3.1213291 8.3815431e-39
-0.84217346 1.2814813 -3.1162765 5.3282875e-39
-0.83078432 1.3302741 -3.1070573 4.7765402e-39
-0.83053058 1.3391262 -3.1019623 4.2258832e-39
-0.81937391 1.37981 -3.0974104 4.2258832e-39
-0.81911826 1.3887366 -3.0922723 4.1336875e-39
-0.79746377 1.4180429 -3.114706 4.2258832e-39
-0.79694319 1.4362056 -3.1042519 4.1336875e-39
-0.79668295 1.4452869 -3.0990248 4.1336875e-39
-0.78558004 1.4695635 -3.1047029 4.6843432e-39
-0.78531748 1.4787222 -3.0994313 4.5006722e-39
-0.7850548 1.4878808 -3.0941598 4.9631021e-39
-0.78479272 1.4970398 -3.0888882 8.3894464e-39
-0.77298564 1.5313573 -3.0895724 8.4859664e-39
-0.77272087 1.5405965 -3.0842545 8.6703549e-39
-0.77245605 1.5498358 -3.0789366 8.3962861e-39
-0.77219141 1.5590752 -3.0736184 8.5806774e-39
-0.77113241 1.5960324 -3.0523467 9.133854e-39
-0.85854298 1.2216614 -3.1230357 8.5806802e-39
-0.84864682 1.2343282 -3.1337454 8.5781621e-39
-0.83807343 1.2561651 -3.1399598 7.5661681e-39
-0.84738916 1.2782179 -3.1084833 5.2368107e-39
-0.83705866 1.2915741 -3.1195791 4.7790569e-39
-0.83579046 1.3358355 -3.0941029 4.3177327e-39
-0.82442206 1.3854179 -3.0843468 4.2258832e-39
-0.82416624 1.3943444 -3.0792091 4.1336875e-39
-0.80233938 1.4328295 -3.0961893 3.6752275e-39
-0.81261104 1.4359808 -3.0748098 4.1336875e-39
-0.81235284 1.4449847 -3.0696273 4.1336875e-39
-0.79049695 1.4844759 -3.0860283 4.3180802e-39
-0.78997213 1.5027937 -3.075485 8.0242596e-39
-0.77847558 1.5279225 -3.0813694 8.5785124e-39
-0.77821076 1.5371617 -3.0760515 8.3930491e-39
-0.77794594 1.546401 -3.0707335 8.3040891e-39
-0.77768111 1.5556403 -3.0654156 8.8543874e-39
-0.86321741 1.2358378 -3.1052828 8.0253386e-39
-0.85310805 1.2573987 -3.1107948 6.6204682e-39
-0.86221963 1.270665 -3.0852368 4.8687358e-39
-0.85235345 1.2837325 -3.0956376 4.7765402e-39
-0.84206498 1.2971354 -3.1066244 4.6843432e-39
-0.84105045 1.3325443 -3.0862434 4.3180802e-39
-0.83074915 1.346393 -3.0969737 4.2258832e-39
-0.81899291 1.3966174 -3.0875459 4.2258832e-39
-0.81770301 1.4416374 -3.0616331 4.1329813e-39
-0.8174451 1.4506414 -3.0564506 4.5006722e-39
-0.79541427 1.4993887 -3.0673535 7.932064e-39
-0.79515177 1.5085474 -3.0620818 8.3015724e-39
-0.78370047 1.5337268 -3.0678484 8.393768e-39
-0.78343582 1.5429661 -3.0625308 8.3040891e-39
-0.78317118 1.5522054 -3.0572126 8.3962861e-39
-0.78290635 1.5614448 -3.0518947 8.945867e-39
-0.78158277 1.6076413 -3.0253048 9.0384185e-39
-0.78105313 1.6261199 -3.0146689 8.4884818e-39
-0.86839098 1.2326012 -3.0975525 7.1055473e-39
-0.86814147 1.2413077 -3.0925412 7.915523e-39
-0.84757859 1.2849922 -3.1038601 4.2265894e-39
-0.84732473 1.2938442 -3.0987651 4.6843432e-39
-0.85656291 1.315581 -3.0676343 4.3180802e-39
-0.84605664 1.3381057 -3.0732889 4.2258832e-39
-0.84580314 1.346958 -3.0681939 4.5917888e-39
-0.83477432 1.3877072 -3.0633585 3.9518144e-39
-0.824085 1.4022743 -3.074369 4.2287726e-39
-0.83426279 1.4055605 -3.0530825 4.1426713e-39
-0.83400697 1.414487 -3.0479445 4.3281401e-39
-0.83375126 1.4234136 -3.0428064 5.1528561e-39
-0.82279491 1.4472939 -3.0484567 4.0461582e-39
-0.82253683 1.4562979 -3.0432742 4.2262335e-39
-0.80085635 1.4959838 -3.059222 7.8409445e-39
-0.80059367 1.5051425 -3.0539503 7.8431123e-39
-0.80033118 1.5143012 -3.0486786 7.935308e-39
-0.78892565 1.5395311 -3.0543275 8.5781593e-39
-0.78866076 1.5487704 -3.0490098 8.3037346e-39
-0.7883963 1.55801 -3.0436916 8.6703591e-39
-0.78813142 1.5672492 -3.0383737 8.6703591e-39
-0.78654313 1.622685 -3.0064659 8.8543874e-39
-0.88407594 1.1908702 -3.0942137 7.4598754e-39
-0.8835811 1.2081414 -3.0842729 7.9306262e-39
-0.87331504 1.238071 -3.084811 5.1456941e-39
-0.87306541 1.2467778 -3.0797994 4.8694547e-39
-0.87281585 1.2554845 -3.0747881 4.9616503e-39
-0.85283852 1.2817013 -3.0960007 4.3180802e-39
-0.85258478 1.2905533 -3.0909057 4.3180802e-39
-0.8523311 1.2994057 -3.0858104 4.7765402e-39
-0.85106283 1.343667 -3.0603344 4.6836369e-39
-0.85080928 1.3525194 -3.0552392 4.7765402e-39
-0.85055554 1.3613715 -3.050144 4.2258832e-39
-0.8503018 1.3702238 -3.0450487 4.6850635e-39
-0.83982271 1.3933152 -3.0502951 4.8813083e-39
-0.83956689 1.4022419 -3.0451572 4.8813083e-39
-0.839311 1.4111685 -3.0400193 5.0653548e-39
-0.83905518 1.420095 -3.0348814 4.9731592e-39
-0.81748635 1.4590263 -3.0510926 6.1680674e-39
-0.82737118 1.4709585 -3.024915 7.562187e-39
-0.81644571 1.4953521 -3.030184 7.6587211e-39
-0.8161853 1.5044335 -3.0249572 7.9356611e-39
-0.79415071 1.5453358 -3.0408068 8.120058e-39
-0.79388589 1.554575 -3.0354888 8.3037346e-39
-0.79362106 1.5638143 -3.0301709 8.8540259e-39
-0.79335636 1.5730537 -3.0248528 8.3962861e-39
-0.79229748 1.6100109 -3.003581 8.5806802e-39
-0.79203284 1.6192501 -2.9982629 8.8543902e-39
-0.88846451 1.2135663 -3.0716355 7.5611333e-39
-0.87823874 1.2435409 -3.0720692 5.052767e-39
-0.87798917 1.2522476 -3.0670581 5.052767e-39
-0.85784483 1.2872624 -3.0830462 4.6843432e-39
-0.85759109 1.2961147 -3.077951 4.3180802e-39
-0.86724615 1.3002763 -3.0571001 4.7765402e-39
-0.8669945 1.3090543 -3.0520475 4.6843432e-39
-0.86674297 1.3178321 -3.0469952 4.7765402e-39
-0.86649173 1.3266102 -3.0419428 4.3177327e-39
-0.85606915 1.3492283 -3.0473797 4.2258832e-39
-0.85581535 1.3580804 -3.0422847 4.6843432e-39
-0.85556185 1.3669329 -3.0371892 4.8690862e-39
-0.85530812 1.375785 -3.0320942 4.8813083e-39
-0.85505444 1.3846372 -3.026999 5.9822665e-39
-0.84487069 1.3989232 -3.0372319 5.2490174e-39
-0.84461504 1.4078497 -3.0320938 6.1666577e-39
-0.84435916 1.4167763 -3.0269558 5.3419319e-39
-0.84410352 1.425703 -3.0218179 6.1666577e-39
-0.84384769 1.4346296 -3.0166798 6.0755341e-39
-0.83297902 1.4586071 -3.0221035 6.4529178e-39
-0.83272111 1.4676111 -3.0169208 7.2834155e-39
-0.83246309 1.4766151 -3.0117383 7.2845113e-39
-0.8109529 1.5166502 -3.027144 8.4863167e-39
-0.79911107 1.5603795 -3.0219676 8.853321e-39
-0.79884642 1.5696189 -3.0166497 8.8543874e-39
-0.79752254 1.615815 -2.9900601 8.8540259e-39
-0.89384317 1.2017206 -3.068939 7.7419148e-39
-0.89359581 1.210356 -3.0639687 7.0083154e-39
-0.89334828 1.2189914 -3.0589983 4.9609441e-39
-0.89310086 1.227627 -3.0540278 5.053846e-39
-0.89285344 1.2362626 -3.0490572 4.8694547e-39
-0.88316274 1.2490107 -3.0593276 4.6843432e-39
-0.88291317 1.2577174 -3.0543163 4.6843432e-39
-0.88266379 1.2664242 -3.049305 4.6843432e-39
-0.87246168 1.2970129 -3.0493069 4.6843432e-39
-0.87221009 1.3057909 -3.0442543 4.2258832e-39
-0.87195861 1.3145689 -3.039202 4.3180802e-39
-0.8717072 1.3233469 -3.0341494 4.7765402e-39
-0.87145573 1.3321248 -3.0290968 4.5917888e-39
-0.86132908 1.3459373 -3.0395205 4.7765402e-39
-0.86107534 1.3547895 -3.0344253 4.6850635e-39
-0.86082166 1.3636417 -3.02933 4.9620007e-39
-0.86056793 1.372494 -3.024235 5.2500894e-39
-0.86031419 1.3813462 -3.0191398 6.0744621e-39
-0.8499192 1.4045312 -3.0241685 6.1666577e-39
-0.84966338 1.4134578 -3.0190306 5.6177999e-39
-0.84940749 1.4223844 -3.0138924 6.075181e-39
-0.84915167 1.4313109 -3.0087545 6.2602631e-39
-0.84889585 1.4402374 -3.0036166 5.9930242e-39
-0.84864026 1.4491639 -2.9984787 6.8213402e-39
-0.83807129 1.4642638 -3.0089266 7.0057356e-39
-0.81639481 1.5132452 -3.0190125 8.1150077e-39
-0.81613272 1.5224041 -3.0137408 8.3019227e-39
-0.80460107 1.5569447 -3.0137646 8.5785124e-39
-0.80433631 1.5661839 -3.0084467 8.670708e-39
-0.80407149 1.5754231 -3.0031288 8.6703591e-39
-0.80274785 1.6216197 -2.9765389 8.5785124e-39
-0.80248308 1.630859 -2.971221 8.4863167e-39
-0.8022182 1.6400982 -2.965903 8.393768e-39
-0.89872682 1.2071456 -3.0563018 7.2791388e-39
-0.89847946 1.2157811 -3.051331 5.1428172e-39
-0.89823186 1.2244166 -3.0463607 4.7772591e-39
-0.88758755 1.271894 -3.0365632 4.6843432e-39
-0.88733822 1.2806005 -3.0315518 4.6843432e-39
-0.88683921 1.2980142 -3.021529 4.7765402e-39
-0.88658977 1.306721 -3.0165174 4.3180802e-39
-0.87667155 1.3288615 -3.0213034 4.7765402e-39
-0.86633527 1.3514986 -3.026566 4.6843432e-39
-0.86608154 1.360351 -3.0214708 5.0531173e-39
-0.86582786 1.3692031 -3.0163753 5.0660583e-39
-0.8655743 1.3780555 -3.0112803 5.0657052e-39
-0.86532056 1.3869076 -3.0061851 6.0744621e-39
-0.85496753 1.4101392 -3.0111051 5.4341289e-39
-0.85471171 1.4190658 -3.0059669 6.2599267e-39
-0.85445583 1.4279923 -3.0008292 5.4369834e-39
-0.85420018 1.436919 -2.9956911 7.0057356e-39
-0.84342134 1.4609164 -3.0009327 7.0057356e-39
-0.84316325 1.4699204 -2.9957502 6.9153379e-39
-0.82157463 1.5189991 -3.0056095 7.6543883e-39
-0.82131213 1.5281579 -3.0003376 8.3008479e-39
-0.80982596 1.562749 -3.0002437 8.670708e-39
-0.82026231 1.5647931 -2.9792511 8.4863167e-39
-0.80929667 1.5812277 -2.9896078 8.669629e-39
-0.80797309 1.6274242 -2.9630179 8.3934023e-39
-0.80770826 1.6366634 -2.9577 8.2086509e-39
-0.80744344 1.6459028 -2.9523821 8.2097215e-39
-0.91378361 1.1660548 -3.0537455 7.3651603e-39
-0.90385813 1.2039353 -3.0486348 6.0787977e-39
-0.90361059 1.2125707 -3.0436642 5.0509803e-39
-0.90336317 1.2212062 -3.0386937 4.8694547e-39
-0.90311563 1.2298416 -3.0337234 4.6843432e-39
-0.90286821 1.2384772 -3.028753 4.6843432e-39
-0.90237325 1.2557483 -3.0188119 4.6843432e-39
-0.89251161 1.2773638 -3.0238216 4.5917888e-39
-0.89226204 1.2860706 -3.0188103 4.2258832e-39
-0.8920126 1.2947773 -3.0137987 4.5917888e-39
-0.89176321 1.3034841 -3.0087874 4.7765402e-39
-0.88213873 1.31682 -3.0185626 4.6843432e-39
-0.88188732 1.3255981 -3.01351 4.6843432e-39
-0.88163567 1.3343761 -3.0084577 4.5917888e-39
-0.87134147 1.35706 -3.0136113 4.2258832e-39
-0.87108779 1.3659122 -3.0085161 6.0744621e-39
-0.87083405 1.3747643 -3.0034211 5.2490174e-39
-0.86001587 1.4157473 -2.9980416 5.8961623e-39
-0.85976005 1.4246738 -2.9929037 6.5462008e-39
-0.85950416 1.4336003 -2.9877658 6.9135358e-39
-0.84851325 1.466573 -2.987756 6.8234954e-39
-0.8482554 1.4755771 -2.9825735 6.8231422e-39
-0.82675421 1.5247531 -2.9922063 7.4685299e-39
-0.82544184 1.5705469 -2.9658482 8.3941211e-39
-0.82517952 1.579706 -2.9605763 8.5774334e-39
-0.81346273 1.6239891 -2.9548151 8.4837958e-39
-0.81319809 1.6332285 -2.949497 8.2997577e-39
-0.91887438 1.1628698 -3.0461392 7.3651603e-39
-0.91862905 1.1714373 -3.0412078 7.2729632e-39
-0.90874159 1.2093601 -3.0359974 5.3264924e-39
-0.90849417 1.2179958 -3.0310268 5.0524194e-39
-0.90824676 1.2266313 -3.0260565 4.6843432e-39
-0.90799922 1.2352667 -3.021086 4.6843432e-39
-0.9077518 1.2439023 -3.0161154 4.5924979e-39
-0.90725702 1.2611735 -3.0061748 4.5917888e-39
-0.89768499 1.2741268 -3.0160916 4.4999505e-39
-0.89743537 1.2828337 -3.01108 4.0414919e-39
-0.89718616 1.2915405 -3.0060685 4.5917888e-39
-0.8969366 1.3002472 -3.0010571 4.6843432e-39
-0.88735443 1.3135568 -3.0107691 4.6843432e-39
-0.88710296 1.3223348 -3.0057166 4.6843432e-39
-0.88685125 1.3311125 -3.0006645 4.6843432e-39
-0.88659978 1.3398906 -2.9956119 4.6843432e-39
-0.87634772 1.3626212 -3.0006566 5.4265759e-39
-0.87609398 1.3714734 -2.9955616 5.3419319e-39
-0.87558657 1.3891778 -2.9853714 6.2592135e-39
-0.87533307 1.3980302 -2.9802759 5.3447878e-39
-0.86531961 1.4124285 -2.9901166 6.360369e-39
-0.86506391 1.4213551 -2.9849784 6.9131855e-39
-0.86480808 1.4302816 -2.9798405 7.0057356e-39
-0.86455226 1.4392081 -2.9747026 7.0060859e-39
-0.86429656 1.4481348 -2.9695647 7.0060859e-39
-0.86404073 1.4570614 -2.9644268 6.8234954e-39
-0.85360533 1.4722297 -2.9745796 6.8231422e-39
-0.85334724 1.4812336 -2.9693971 6.9153407e-39
-0.85308921 1.4902377 -2.9642146 7.099369e-39
-0.83193362 1.5305067 -2.9788032 7.2834127e-39
-0.83062124 1.5763007 -2.952445 8.3008479e-39
-0.83035898 1.5854596 -2.9471734 8.3008479e-39
-0.8298341 1.6037772 -2.93663 8.2072033e-39
-0.81842303 1.639033 -2.935976 7.4577216e-39
-0.81815863 1.6482723 -2.9306583 7.0893119e-39
-0.81789339 1.6575115 -2.9253402 6.9049066e-39
-0.92371964 1.1682522 -3.0336013 7.2729632e-39
-0.92273754 1.2025217 -3.0138764 5.3264924e-39
-0.91362536 1.2147855 -3.0233598 4.9616503e-39
-0.91337764 1.2234206 -3.0183897 4.6850635e-39
-0.91313022 1.2320563 -3.0134192 4.6843432e-39
-0.91288304 1.2406919 -3.0084486 4.6843432e-39
-0.91263545 1.2493274 -3.0034781 4.5917888e-39
-0.91238791 1.2579628 -2.998508 4.6846935e-39
-0.91214049 1.2665985 -2.9935372 4.6846935e-39
-0.90235955 1.2883036 -2.9983385 4.7765402e-39
-0.9021101 1.2970104 -2.9933269 4.6843432e-39
-0.89257014 1.3102934 -3.0029757 4.6843432e-39
-0.89156407 1.3454052 -2.9827662 4.9616503e-39
-0.88160747 1.3593302 -2.9927974 5.4222599e-39
-0.88135391 1.3681824 -2.9877021 6.0755341e-39
-0.88110024 1.3770347 -2.9826071 6.0744621e-39
-0.8808465 1.3858868 -2.9775116 5.5266777e-39
-0.88059294 1.3947393 -2.9724164 6.6383964e-39
-0.87036788 1.4180365 -2.9770532 6.9135386e-39
-0.87011206 1.426963 -2.9719152 6.7309466e-39
-0.86985642 1.4358896 -2.9667771 7.0982844e-39
-0.86960059 1.4448161 -2.9616394 7.0060887e-39
-0.86934477 1.4537427 -2.9565012 6.8234954e-39
-0.86908889 1.4626693 -2.9513636 7.2823155e-39
-0.86883324 1.4715959 -2.9462254 6.915691e-39
-0.85843927 1.4868903 -2.9562204 7.0993718e-39
-0.84726024 1.5295832 -2.9504452 7.3759601e-39
-0.83580106 1.5820547 -2.9390419 8.2994046e-39
-0.83553874 1.5912136 -2.9337699 8.2072033e-39
-0.83527607 1.6003722 -2.9284985 7.8391327e-39
-0.83501375 1.6095312 -2.9232268 8.3872393e-39
-0.83475149 1.6186899 -2.9179552 7.2729478e-39
-0.83448893 1.6278487 -2.9126835 6.9063387e-39
-0.83422643 1.6370075 -2.9074121 6.9981588e-39
-0.82338345 1.6540767 -2.9171374 6.9052569e-39
-0.82311863 1.6633159 -2.9118192 6.9056044e-39
-0.8228538 1.6725552 -2.9065013 6.8134088e-39
-0.92881024 1.165067 -3.025995 7.5495543e-39
-0.92782831 1.1993366 -3.0062699 5.4183125e-39
-0.9275828 1.2079042 -3.0013387 5.3275588e-39
-0.92733735 1.2164716 -2.9964075 4.8694547e-39
-0.91826141 1.228846 -3.0057523 4.7765402e-39
-0.91801405 1.2374816 -3.0007818 4.6843432e-39
-0.91776645 1.246117 -2.9958112 5.142806e-39
-0.91751909 1.2547526 -2.9908409 4.6843432e-39
-0.91727173 1.263388 -2.9858704 4.7765402e-39
-0.90753293 1.2850667 -2.9906082 4.6843432e-39
-0.90728348 1.2937734 -2.9855969 4.6843432e-39
-0.90653491 1.3198936 -2.9705627 4.7765402e-39
-0.89703131 1.3333639 -2.9800251 4.7765402e-39
-0.8965283 1.3509198 -2.9699202 5.0509663e-39
-0.88636005 1.3737435 -2.9747477 5.9883453e-39
-0.88610655 1.3825958 -2.9696524 6.5462008e-39
-0.88585281 1.3914481 -2.9645572 6.7305935e-39
-0.88559914 1.4003003 -2.9594619 7.0057356e-39
-0.87541616 1.4236444 -2.96399 7.0979313e-39
-0.87516052 1.4325711 -2.9588521 7.0979313e-39
-0.87490469 1.4414976 -2.9537139 7.0982844e-39
-0.87464881 1.4504242 -2.9485762 6.915691e-39
-0.87439299 1.4593507 -2.9434381 6.915691e-39
-0.87413734 1.4682773 -2.9382999 7.2823211e-39
-0.86378926 1.4835429 -2.9482265 7.0993718e-39
-0.86353135 1.4925469 -2.9430439 7.0997221e-39
-0.86327332 1.5015508 -2.9378614 7.3748699e-39
-0.86301523 1.5105548 -2.9326789 7.1919177e-39
-0.85265625 1.5262071 -2.9423823 7.1919205e-39
-0.84229285 1.5420145 -2.9519968 7.4685088e-39
-0.8513552 1.571614 -2.9162469 8.2994046e-39
-0.84098065 1.5878086 -2.9256387 8.1153608e-39
-0.84071821 1.5969673 -2.920367 7.8366131e-39
-0.84045589 1.6061263 -2.9150951 7.2740408e-39
-0.84019339 1.615285 -2.9098237 6.997084e-39
-0.83993089 1.6244438 -2.904552 6.9066862e-39
-0.83966839 1.6336025 -2.8992805 6.9981588e-39
-0.83940607 1.6427613 -2.8940089 6.8130613e-39
-0.82860869 1.6598811 -2.9036162 6.6293777e-39
-0.82834387 1.6691204 -2.898298 6.6293777e-39
-0.93267339 1.2047191 -2.9937322 5.8782144e-39
-0.93242788 1.2132864 -2.988801 5.3275588e-39
-0.93218237 1.2218537 -2.9838698 4.8694547e-39
-0.92314517 1.2342712 -2.9931145 5.142806e-39
-0.92289776 1.2429067 -2.9881442 5.2353632e-39
-0.92265016 1.2515422 -2.9831738 4.7765402e-39
-0.9224028 1.2601776 -2.9782033 4.6843432e-39
-0.92215538 1.2688133 -2.9732327 5.1428032e-39
-0.91220731 1.2992432 -2.9728553 4.7765402e-39
-0.91170818 1.3166567 -2.9628325 4.6850635e-39
-0.91145891 1.3253635 -2.9578211 5.051332e-39
-0.90174401 1.3476566 -2.9621267 4.040773e-39
-0.90149242 1.3564345 -2.9570746 4.6054235e-39
-0.89161986 1.3704528 -2.9668884 6.8209898e-39
-0.89136624 1.3793049 -2.9617932 7.0979313e-39
-0.89111263 1.3881571 -2.9566979 7.0979313e-39
-0.89085895 1.3970094 -2.9516027 6.8234954e-39
-0.89060521 1.4058616 -2.9465077 6.915691e-39
-0.89035171 1.414714 -2.9414124 7.2823155e-39
-0.88046449 1.4292524 -2.9509265 7.0982844e-39
-0.88020867 1.4381789 -2.9457886 7.0982844e-39
-0.87995303 1.4471056 -2.9406507 6.915691e-39
-0.87969714 1.4560322 -2.9355125 7.2823155e-39
-0.87944132 1.4649587 -2.9303746 7.2823155e-39
-0.87918544 1.4738853 -2.9252367 7.0997221e-39
-0.87892962 1.4828118 -2.9200988 7.3748699e-39
-0.87867379 1.4917384 -2.9149609 7.3745139e-39
-0.86836523 1.5072073 -2.924685 7.1919205e-39
-0.86810738 1.5162114 -2.9195023 7.3748699e-39
-0.8577922 1.5319123 -2.9290924 7.3748643e-39
-0.85753191 1.5409938 -2.9238653 7.5589052e-39
-0.85727179 1.5500753 -2.9186382 7.7433063e-39
-0.85701156 1.5591565 -2.9134111 7.7444147e-39
-0.85675132 1.5682379 -2.9081841 7.8387795e-39
-0.85649115 1.5773195 -2.902957 7.8387795e-39
-0.84616029 1.5935625 -2.9122355 8.0134262e-39
-0.84589761 1.6027211 -2.9069636 7.0903712e-39
-0.84563535 1.6118798 -2.9016922 7.1803963e-39
-0.84537303 1.6210388 -2.8964207 7.0885566e-39
-0.84511054 1.6301975 -2.8911488 6.8134088e-39
-0.84484816 1.6393564 -2.8858771 6.6290274e-39
-0.84458554 1.648515 -2.8806057 6.9960022e-39
-0.83383363 1.6656854 -2.8900952 6.8119711e-39
-0.9385007 1.1758317 -3.0009196 7.5578528e-39
-0.93825495 1.1843991 -2.9959881 8.0213729e-39
-0.92852378 1.2224251 -2.9904182 4.8694547e-39
-0.92827618 1.2310607 -2.9854476 5.4190356e-39
-0.92802882 1.2396963 -2.9804773 5.3275588e-39
-0.92728662 1.2656028 -2.9655659 5.142806e-39
-0.92703909 1.2742383 -2.9605956 4.6843432e-39
-0.91763014 1.2872996 -2.9701366 5.3275588e-39
-0.91738075 1.2960064 -2.9651251 5.3275588e-39
-0.91713119 1.3047131 -2.9601135 4.8694547e-39
-0.91663235 1.3221266 -2.9500906 4.1329659e-39
-0.91638279 1.3308333 -2.9450793 3.4908545e-39
-0.90695971 1.3443931 -2.9543335 6.3604293e-39
-0.90670812 1.353171 -2.9492812 7.1934101e-39
-0.90645665 1.3619492 -2.9442286 7.5585717e-39
-0.89662617 1.3760139 -2.9539337 7.0975809e-39
-0.89637244 1.3848661 -2.9488387 7.0993718e-39
-0.89611888 1.3937184 -2.9437435 7.0997221e-39
-0.89586514 1.4025707 -2.9386482 7.1919177e-39
-0.88576847 1.4259337 -2.9430013 7.3748643e-39
-0.88551277 1.4348605 -2.9378633 7.3748699e-39
-0.88525695 1.4437871 -2.9327252 7.0997221e-39
-0.885001 1.4527134 -2.9275873 7.3748699e-39
-0.8847453 1.46164 -2.9224494 7.3748699e-39
-0.8742314 1.485852 -2.9270558 7.0997221e-39
-0.87397319 1.4948559 -2.9218733 7.4667096e-39
-0.87371528 1.50386 -2.9166906 7.4667096e-39
-0.85317689 1.5352046 -2.9357338 7.1919177e-39
-0.85291439 1.5443634 -2.9304619 7.4670655e-39
-0.86266786 1.5466992 -2.9105756 7.4667096e-39
-0.86240745 1.5557803 -2.9053485 7.3741608e-39
-0.86214709 1.5648618 -2.9001215 7.9280661e-39
-0.86188704 1.5739433 -2.8948944 8.204297e-39
-0.85160226 1.5901574 -2.9041038 6.9063387e-39
-0.85133994 1.5993162 -2.8988323 7.0907188e-39
-0.85107744 1.608475 -2.8935606 6.9981588e-39
-0.85081512 1.6176339 -2.888289 7.0885566e-39
-0.85055244 1.6267926 -2.8830173 7.0885566e-39
-0.85029012 1.6359514 -2.8777456 6.9960022e-39
-0.85002756 1.6451101 -2.8724742 6.9956547e-39
-0.84976506 1.654269 -2.8672025 6.8119711e-39
-0.83905882 1.67149 -2.8765743 6.902736e-39
-0.95341599 1.1436133 -2.9930439 7.7360938e-39
-0.94309992 1.1897814 -2.9834504 7.1908934e-39
-0.94285458 1.1983489 -2.9785194 4.0483106e-39
-0.93340743 1.2278503 -2.9777808 5.3275588e-39
-0.93315983 1.2364857 -2.9728105 4.9616503e-39
-0.93291241 1.2451214 -2.96784 5.0534984e-39
-0.93266505 1.2537568 -2.9628694 5.2353632e-39
-0.92305332 1.2753561 -2.9674177 4.9609441e-39
-0.92280376 1.2840629 -2.9624064 5.0517132e-39
-0.92255419 1.2927696 -2.9573951 4.8673177e-39
-0.92230457 1.3014762 -2.9523835 2.5721394e-39
-0.90315461 1.3284616 -2.9715502 5.8068996e-39
-0.90290087 1.3373139 -2.966455 7.9277676e-39
-0.89235169 1.3779824 -2.9607656 7.9273374e-39
-0.8920958 1.3869088 -2.9556279 7.1915674e-39
-0.89081663 1.4315416 -2.9299381 7.4667096e-39
-0.87958139 1.4825046 -2.9190619 7.0997221e-39
-0.87932354 1.4915087 -2.9138792 7.3748699e-39
-0.8586188 1.5317997 -2.9276021 7.3748699e-39
-0.85835654 1.5409584 -2.9223306 7.3745139e-39
-0.85809404 1.5501173 -2.9170589 7.3748699e-39
-0.84640187 1.60338 -2.905597 7.1811151e-39
-0.84507829 1.6495765 -2.8790071 7.0871286e-39
-0.84481347 1.6588157 -2.8736894 6.902736e-39
-0.9582209 1.1489511 -2.9806101 8.4700659e-39
-0.93829089 1.2332754 -2.9651437 4.4999519e-39
-0.93804365 1.2419109 -2.9601731 4.4081108e-39
-0.93779624 1.2505466 -2.9552026 3.8571077e-39
-0.93754864 1.2591821 -2.950232 3.6737982e-39
-0.92747808 1.2982394 -2.9446535 7.0979887e-39
-0.90841442 1.3251708 -2.963691 8.8518693e-39
-0.89765555 1.3746636 -2.9528406 8.0217232e-39
-0.8973999 1.3835902 -2.9477026 7.651461e-39
-0.90663862 1.3871365 -2.9280248 7.6521798e-39
-0.88596362 1.4431412 -2.9317977 7.0997221e-39
-0.88467348 1.4881611 -2.905885 7.3748699e-39
-0.88441557 1.4971652 -2.9007022 7.4667096e-39
-0.86379862 1.5375535 -2.9141989 7.3748699e-39
-0.86353612 1.5467124 -2.9089274 7.3748699e-39
-0.86327362 1.5558711 -2.9036558 7.374151e-39
-0.85189182 1.5999452 -2.8973942 7.1803963e-39
-0.85162699 1.6091844 -2.8920763 7.0885566e-39
-0.85030329 1.6553808 -2.8654864 6.7197754e-39
-0.85003859 1.6646203 -2.8601685 6.902736e-39
-0.96278232 1.1627845 -2.9632866 9.3149984e-39
-0.95303583 1.1919788 -2.9633064 9.0391374e-39
-0.93290091 1.2862958 -2.9419348 8.8529679e-39
-0.93265152 1.2950025 -2.9369233 9.1306296e-39
-0.89157164 1.4307899 -2.9289861 7.5592583e-39
-0.89131355 1.4397938 -2.9238036 7.1919205e-39
-0.89105552 1.4487978 -2.9186211 7.4667096e-39
-0.88976556 1.4938178 -2.8927085 7.3748643e-39
-0.86924064 1.5341486 -2.9060676 7.4659907e-39
-0.8689779 1.5433074 -2.9007959 7.2823155e-39
-0.86871582 1.5524664 -2.8955243 7.374151e-39
-0.86845332 1.561625 -2.8902526 7.0986347e-39
-0.87807524 1.5638148 -2.8707058 7.5552926e-39
-0.85711706 1.6057496 -2.883873 7.0885566e-39
-0.85685205 1.6149888 -2.8785553 7.27115e-39
-0.85579324 1.6519461 -2.8572831 6.902736e-39
-0.85552841 1.6611854 -2.8519654 6.902736e-39
-0.96783054 1.1596261 -2.9557433 9.6841509e-39
-0.96758705 1.1681223 -2.9508531 9.6838006e-39
-0.9581266 1.1887937 -2.9557002 9.4100877e-39
-0.95788097 1.1973609 -2.9507687 9.6838006e-39
-0.94830585 1.2354901 -2.9448392 8.7643708e-39
-0.94805843 1.2441257 -2.9398687 9.499059e-39
-0.94781101 1.2527612 -2.9348984 9.499059e-39
-0.93807429 1.2830588 -2.9342046 9.1335008e-39
