# .PCD v0.7 - Point Cloud Data file format
VERSION 0.7
FIELDS x y z rgb
SIZE 4 4 4 4
TYPE F F F F
COUNT 1 1 1 1
WIDTH 876
HEIGHT 1
VIEWPOINT 0 0 0 1 0 0 0
POINTS 876
DATA ascii
-2.5887394 1.1554612 0.59555125 5.0602975e-39
-2.6483433 1.1066871 0.65065926 7.6543476e-39
-2.6513827 1.1073141 0.65875238 5.903372e-39
-2.6339834 1.1265696 0.65117741 6.6412915e-39
-2.6495943 1.1147085 0.66716087 6.3646976e-39
-2.6433456 1.123474 0.66757989 6.8253226e-39
-2.6590314 1.1115884 0.68369353 6.2717985e-39
-2.6242404 1.1161051 0.61089128 2.1479061e-38
-2.5778906 1.165494 0.58747995 3.4958473e-39
-2.6146433 1.1266823 0.60663909 1.1433336e-38
-2.6185589 1.125954 0.6144594 7.2866511e-39
-2.5820804 1.1610976 0.58971143 8.660941e-39
-2.5732441 1.172377 0.58841032 4.507837e-39
-2.6232581 1.1250067 0.62372082 8.6695716e-39
-2.6366265 1.1174659 0.64184624 8.5759424e-39
-2.6405873 1.1167319 0.64976221 8.2997212e-39
-2.6445441 1.1160026 0.65767574 8.4837384e-39
-2.6680291 1.0935045 0.67382544 7.5625079e-39
-2.6711898 1.0938408 0.68170542 7.4692361e-39
-2.6572263 1.1048137 0.66802633 7.7472663e-39
-2.6505885 1.1145868 0.66925323 8.4837384e-39
-2.6480272 1.1219263 0.67578095 6.640944e-39
-2.690995 1.080249 0.70445305 5.3491038e-39
-2.6527083 1.1203785 0.68398207 6.3657962e-39
-2.687238 1.0871866 0.70753384 7.5625135e-39
-2.6779218 1.0969594 0.70256627 7.470678e-39
-2.6910293 1.0944427 0.72861183 7.7461901e-39
-2.7051244 1.0827849 0.7414338 7.2859295e-39
-2.6937301 1.0941283 0.73432493 7.7461915e-39
-2.7245693 1.0691481 0.76327199 5.0743302e-39
-2.7079756 1.0824394 0.74744219 7.194094e-39
-2.7288601 1.0690734 0.77306944 7.0093454e-39
-2.7270436 1.0753047 0.77943963 5.8093785e-39
-2.7318013 1.0737318 0.78777403 5.4434728e-39
-2.605823 1.1289132 0.59002411 2.1386868e-38
-2.6005547 1.1379465 0.59316432 1.2446735e-38
-2.5981362 1.1447212 0.5990634 7.1944611e-39
-2.5939724 1.1528695 0.60325706 6.4554541e-39
-2.6027431 1.1431979 0.6071341 7.4692557e-39
-2.5775871 1.1693226 0.59327292 9.3041145e-39
-2.6215045 1.129137 0.62667239 8.8521692e-39
-2.6275008 1.1352901 0.65097809 7.285212e-39
-2.6435647 1.1034023 0.63403445 4.431448e-39
-2.657882 1.0982474 0.65840316 5.3516219e-39
-2.6622956 1.0950458 0.66317958 7.1929967e-39
-2.6651397 1.0836372 0.65040255 5.6220851e-39
-2.6602221 1.0919735 0.65317208 6.7302165e-39
-2.7077434 1.0676204 0.72176486 3.5952414e-39
-2.6535888 1.0356371 0.54225731 6.3629558e-39
-2.6270101 1.1145735 0.61469936 8.6707164e-39
-2.6544681 1.1052399 0.66236955 7.746902e-39
-2.7125804 1.0660211 0.73023885 3.7807215e-39
-2.7106121 1.0726352 0.73690695 6.6402013e-39
-2.7250876 0.84515631 0.38447604 1.5672541e-38
-2.7176228 0.86087501 0.39387685 8.9375461e-39
-2.7093766 0.87092018 0.39184701 7.8297692e-39
-2.7267988 0.84704942 0.39164606 1.4191981e-38
-2.7225401 0.85312873 0.39210939 1.2342644e-38
-2.717952 0.86163682 0.39593178 1.0406187e-38
-2.7151141 0.87011498 0.40375081 9.4845583e-39
-2.7311141 0.84384871 0.39619642 1.1788377e-38
-2.7265251 0.85235739 0.40001744 9.852238e-39
-2.721936 0.86086613 0.40383822 9.6664441e-39
-2.7350957 0.84308195 0.40410337 7.7303274e-39
-2.7305057 0.85159081 0.4079231 8.468261e-39
-2.7409461 0.84692764 0.42415863 7.2700934e-39
-2.7366462 0.85534245 0.42848936 6.9956547e-39
-2.6799791 0.91997117 0.40706998 6.3567971e-39
-2.7111335 0.86829299 0.39145359 6.8224388e-39
-2.7593281 0.8206898 0.42216125 1.244063e-38
-2.7337561 0.87776601 0.45984602 8.5586644e-39
-2.6979256 0.89395791 0.40444562 1.013105e-38
-2.6313741 1.0236577 0.47055629 1.7969472e-38
-2.6337252 1.1142015 0.62959844 6.8260177e-39
-2.6345866 1.114436 0.63198876 8.11496e-39
-2.6562762 1.1042336 0.66484481 7.746909e-39
-2.6751921 1.0931139 0.68972915 7.1933737e-39
-2.6794696 1.0910344 0.69609439 5.1665258e-39
-2.6886921 1.0811551 0.70066416 6.8245926e-39
-2.7023797 1.0752277 0.7222653 7.0093412e-39
-2.7111428 1.0666819 0.72803497 5.4420239e-39
-2.7142413 1.0665872 0.73504019 5.9033621e-39
-2.6977901 1.0837604 0.72612649 7.6550735e-39
-2.7268701 1.0600353 0.75313354 6.1792288e-39
-2.7387044 1.0500957 0.76364213 5.5331419e-39
-2.7263255 1.0611995 0.75384885 6.0884709e-39
-2.7416019 1.0564256 0.78108186 4.6130003e-39
-2.7464387 1.0548263 0.78955567 4.6133534e-39
-2.7341619 1.0659763 0.7800774 5.0743302e-39
-2.7222862 1.0768778 0.77110505 5.2587228e-39
-2.7512758 1.0532272 0.79802954 4.6130003e-39
-2.7389584 1.0643907 0.78847998 5.073977e-39
-2.7409291 1.0669742 0.79742146 7.3784782e-39
-2.7533474 1.059633 0.81368816 4.8899459e-39
-2.6527588 0.97314966 0.43433005 7.9219746e-39
-2.6272736 1.0241628 0.46192995 9.4871465e-39
-2.678437 0.91717595 0.39876032 8.5648189e-39
-2.6757555 0.92469418 0.40531358 8.6577446e-39
-2.6688614 0.93394369 0.40506083 8.3815066e-39
-2.6642935 0.94220835 0.40851635 8.565186e-39
-2.6496892 0.98922646 0.45450383 8.0998653e-39
-2.68488 0.91513526 0.41020024 8.1934902e-39
-2.6802614 0.92423451 0.41495496 7.0864308e-39
-2.6715813 0.94743049 0.4342308 8.1920413e-39
-2.6574187 0.9794417 0.45578149 6.9023857e-39
-2.6583269 1.0007302 0.49399695 7.2715199e-39
-2.7041116 0.90908182 0.44440973 8.0069255e-39
-2.6696479 0.98666364 0.49631709 7.0867629e-39
-2.6646547 1.009479 0.52347445 7.0867601e-39
-2.7064617 0.92163813 0.47114629 7.7310603e-39
-2.7018089 0.93025911 0.4750115 7.7310519e-39
-2.6971567 0.93888009 0.47887668 7.6388577e-39
-2.6649673 0.93336028 0.3950645 6.9096346e-39
-2.6517611 0.96660197 0.42091486 8.9350476e-39
-2.6420865 0.98376399 0.42765394 8.4751484e-39
-2.6442645 0.98914802 0.44182429 8.2904012e-39
-2.6704004 0.95442855 0.44337174 9.2069079e-39
-2.6606441 0.97173584 0.45016786 9.2994538e-39
-2.6785901 0.94572246 0.44754353 8.9292294e-39
-2.6809742 0.95088702 0.46181899 9.2068882e-39
-2.676055 0.95961338 0.46524546 9.1146898e-39
-2.6514587 1.0032449 0.48237845 9.0221439e-39
-2.6465394 1.0119712 0.48580506 8.0965918e-39
-2.6968694 0.93839747 0.47739279 8.744115e-39
-2.6919072 0.94719946 0.48084912 8.4668191e-39
-2.6869454 0.95600122 0.48430541 8.2838754e-39
-2.674475 0.96828693 0.47630543 8.3756996e-39
-2.6903136 0.95594794 0.49200502 8.3764087e-39
-2.6803899 0.97355193 0.49891758 8.1913084e-39
-2.7091515 0.86433995 0.38016328 9.3052524e-39
-2.7026126 0.88002062 0.39164174 8.7509996e-39
-2.7057252 0.88058752 0.39980251 8.9324846e-39
-2.6854656 0.90743554 0.3984929 9.0243663e-39
-2.6894517 0.90665835 0.40639314 8.4700771e-39
-2.7133355 0.89198607 0.43674114 8.1001932e-39
-2.7194467 0.88900161 0.44581237 6.9927834e-39
-2.6692119 0.919936 0.38210765 7.7419148e-39
-2.6940229 0.89818197 0.4025856 8.4711603e-39
-2.6721857 0.94771248 0.43610713 6.0737012e-39
-2.6599638 1.0181721 0.52737272 6.6239939e-39
-2.7019877 0.88421494 0.39731225 9.8566353e-39
-2.7329633 0.86365843 0.43407887 8.3771458e-39
-2.7117927 0.87097651 0.39753091 9.4892905e-39
-2.7225597 0.87489045 0.42907259 8.2842285e-39
-2.6985943 0.88970548 0.39877817 8.5644349e-39
-2.7025778 0.88893187 0.40667912 8.5619042e-39
-2.6906834 0.89496136 0.3893981 8.660962e-39
-2.7179477 0.88343829 0.4329069 8.2842271e-39
-2.7587893 1.0435325 0.79896003 4.2445765e-39
-2.7636666 1.0419201 0.80750483 4.2445765e-39
-2.7685442 1.0403072 0.81604981 4.2445765e-39
-2.6726768 1.057436 0.62338543 1.1892185e-38
-2.6684957 1.0526583 0.60561019 1.8803615e-38
-2.6853516 0.96474993 0.49546131 8.2842131e-39
-2.672204 1.0503604 0.61028779 1.2999273e-38
-2.6494093 1.1026338 0.64624846 7.4706654e-39
-2.6816812 1.0820929 0.68603998 6.4529108e-39
-2.6663172 1.0943025 0.67121989 7.193724e-39
-2.6857405 1.0813452 0.69415998 6.4536366e-39
-2.6888609 1.0809736 0.70074672 4.426444e-39
-2.6936979 1.0793744 0.70922053 4.7955853e-39
-2.6776173 1.0828454 0.6779182 6.0844898e-39
-2.6970086 1.0690291 0.69932729 4.1484082e-39
-2.7056053 1.0682868 0.71795046 3.3183e-39
-2.7104828 1.066674 0.72649539 3.503043e-39
-2.6970074 1.06466 0.69191295 4.8866837e-39
-2.720098 1.0558112 0.73030514 4.8866949e-39
-2.7232442 1.0556976 0.73738909 4.9792492e-39
-2.7324359 1.0502803 0.74945754 5.0718022e-39
-2.6686046 1.0771484 0.64740908 5.3440843e-39
-2.6699193 1.0785983 0.65290874 5.4369834e-39
-2.7357464 1.0444613 0.74724203 4.6104639e-39
-2.7450066 1.0389769 0.75935477 4.7023022e-39
-2.7481787 1.038875 0.76651883 4.8884899e-39
-2.7350657 1.0260788 0.71448231 6.2602603e-39
-2.7822356 1.00072 0.78055716 6.4446459e-39
-2.6637838 0.95007414 0.42068124 8.4697338e-39
-2.6534147 0.97392893 0.43716893 8.4700855e-39
-2.6488323 0.98243111 0.4409948 8.3782528e-39
-2.6450853 0.99776661 0.45834446 8.0991506e-39
-2.6354618 1.0146739 0.46476987 6.9009802e-39
-2.6550448 0.96655005 0.42842108 9.6682588e-39
-2.6557655 0.98038948 0.4535659 9.206189e-39
-2.6296988 1.0094734 0.44261867 8.0130997e-39
-2.6264141 1.0182178 0.44985628 8.6570033e-39
-2.632412 1.0009261 0.43439293 8.1045806e-39
-2.6227372 1.0180881 0.4411321 7.0014785e-39
-2.8204224 0.86746508 0.6428135 9.2076365e-39
-2.8153925 0.87580532 0.64532864 8.932116e-39
-2.8103623 0.88414538 0.64784384 8.1952769e-39
-2.8217688 0.86894995 0.64844638 8.1030812e-39
-2.8167386 0.87729013 0.65096158 8.4700659e-39
-2.832783 0.86780542 0.67197841 7.7346546e-39
-2.8341405 0.86930269 0.67765778 7.7339484e-39
-2.773963 0.98072684 0.7275061 5.5237798e-39
-2.7811162 0.96693349 0.72065073 7.3651603e-39
-2.7007277 1.0698993 0.70940548 3.3201119e-39
-2.739279 1.0499835 0.7647801 3.7807215e-39
-2.7567873 1.0368582 0.78300697 3.504143e-39
-2.7617073 1.0352314 0.79162616 3.4148158e-39
-2.7572608 1.0439335 0.79610485 4.0576671e-39
-2.7446258 1.0553851 0.7863102 4.7055546e-39
-2.7666271 1.0336046 0.80024529 3.5992071e-39
-2.7715468 1.0319781 0.80886424 3.8754338e-39
-2.7764668 1.0303513 0.81748337 3.9679896e-39
-2.7813866 1.0287247 0.82610232 4.0601852e-39
-2.7992673 1.0153521 0.84477091 3.8754338e-39
-2.7863066 1.0270982 0.83472133 4.1523809e-39
-2.8042295 1.0137116 0.85346389 3.967984e-39
-2.7912261 1.0254713 0.84334046 4.6108353e-39
-2.8091917 1.0120708 0.86215717 3.9679896e-39
-2.8191159 1.0087894 0.87954348 3.6020783e-39
-2.8240778 1.0071489 0.88823664 3.877952e-39
-2.7091379 1.058907 0.71020871 3.9643883e-39
-2.7228217 1.0553201 0.73577136 3.1353521e-39
-2.7277415 1.0536937 0.74439019 3.3197433e-39
-2.737108 1.0433648 0.74853081 2.0293604e-39
-2.7744567 1.0235552 0.80130512 3.3197433e-39
-2.7710736 1.0249029 0.79576653 3.6885244e-39
-2.7539117 1.0451453 0.79041499 4.6115541e-39
-2.785748 1.0205923 0.822393 5.6267767e-39
-2.7568145 1.0288759 0.76952863 4.4264286e-39
-2.7888658 1.011497 0.81417435 3.2275477e-39
-2.7938278 1.0098565 0.82286745 3.4123075e-39
-2.7235651 1.0413995 0.71387464 2.856617e-39
-2.7531974 1.0233608 0.75180691 3.5948883e-39
-2.7595704 1.0284771 0.77522564 2.0268395e-39
-2.7914417 0.95484895 0.72403049 6.0747886e-39
-2.6516244 1.0818462 0.61610645 1.0044507e-40
-2.6860952 1.0747373 0.68377066 2.4878176e-39
-2.6736231 1.0715868 0.64958066 1.4349296e-42
-2.6829898 1.061258 0.65372115 3.1277963e-39
-2.6775968 1.0558094 0.6320045 6.453596e-40
-2.6586003 0.943762 0.39798528 8.0137793e-39
-2.6540518 0.9513039 0.4002597 8.2896403e-39
-2.6495032 0.95884567 0.40253407 7.9222969e-39
-2.6449547 0.96638739 0.40480855 8.1974447e-39
-2.6358576 0.98147088 0.40935743 8.1974447e-39
-2.6237073 1.008932 0.42784318 8.0119744e-39
-2.6191247 1.0165304 0.4301348 8.5651664e-39
-2.6273873 1.0129905 0.44323948 7.9201291e-39
-2.6228046 1.0205891 0.44553104 7.9201291e-39
-2.6420205 1.0103852 0.4726634 6.9056325e-39
-2.6373692 1.0180975 0.47498918 7.2736961e-39
-2.6327178 1.0258096 0.47731504 7.5502732e-39
-2.6280665 1.0335218 0.47964084 5.249002e-39
-2.6555538 0.93816191 0.38143882 8.1974447e-39
-2.604768 1.03224 0.4235813 6.906015e-39
-2.6587148 1.0913118 0.64856285 4.8880976e-39
-2.6631489 0.93622029 0.3957108 8.0116241e-39
-2.6282904 1.0013334 0.42555156 8.0126835e-39
-2.6978366 0.91783863 0.44475332 8.2874851e-39
-2.6931856 0.92555082 0.44707912 8.4704372e-39
-2.688534 0.93326312 0.44940495 8.2871222e-39
-2.6838827 0.94097525 0.45173076 8.1023722e-39
-2.6501021 1.0460397 0.5518415 2.1226827e-39
-2.6571212 1.0780426 0.62236649 5.8343216e-39
-2.6685936 0.91710854 0.3758809 8.659883e-39
-2.7060964 0.88646549 0.41063294 8.4733057e-39
-2.6594965 0.93219209 0.38042971 8.2000034e-39
-2.6582792 0.93084919 0.37533608 7.6500667e-39
-2.6876283 0.91708696 0.41986769 8.0119744e-39
-2.7024882 0.91012639 0.44242749 8.7477444e-39
-2.6600683 0.93067688 0.37918153 8.3804066e-39
-2.6968625 0.90177631 0.41525018 8.1952895e-39
-2.6922452 0.90943152 0.41755903 8.1956454e-39
-2.7014794 0.89412081 0.41294158 8.4722365e-39
-2.6676974 0.92867851 0.3934364 7.7353875e-39
-2.6986954 1.070529 0.70577347 2.672932e-39
-2.64255 1.0470778 0.53613532 1.2629375e-38
-2.7754812 0.81260037 0.44579682 1.0594877e-38
-2.7901204 0.80324966 0.4637908 1.1607604e-38
-2.7129104 0.85425466 0.37174764 1.5758183e-38
-2.6888604 0.91436344 0.41809705 7.7310673e-39
-2.6842878 0.92284042 0.4219031 7.9158061e-39
-2.6797154 0.93131763 0.42570907 8.0083577e-39
-2.7136207 0.87204891 0.40357795 8.5615483e-39
-2.6854336 0.92946035 0.435783 6.4406844e-39
-2.6487975 1.0218922 0.50785816 4.5971558e-39
-2.7227604 0.86211264 0.40785977 8.5615497e-39
-2.7152519 0.8721475 0.40751758 7.549197e-39
-2.7087238 0.90053397 0.44057545 8.0079975e-39
-2.6994994 0.91762978 0.44824392 8.0065626e-39
-2.6948874 0.9261775 0.45207828 7.8232489e-39
-2.690275 0.93472546 0.45591259 7.6388577e-39
-2.715147 0.89741653 0.45014298 6.7172881e-39
-2.7108471 0.9058314 0.45447373 6.7172881e-39
-2.7065473 0.9142462 0.45880449 6.7172881e-39
-2.6925044 0.947501 0.48274195 7.4537518e-39
-2.6922936 0.95140266 0.48887324 7.5463061e-39
-2.6876414 0.96002346 0.49273834 7.4541105e-39
-2.6829891 0.96864438 0.49660346 7.2697164e-39
-2.6716018 1.0000356 0.52352142 7.1768187e-39
-2.7291026 0.88638753 0.46370986 8.2835138e-39
-2.7244494 0.8950091 0.46757379 8.5586504e-39
-2.7197962 0.90363067 0.47143775 8.374985e-39
-2.715143 0.91225207 0.47530171 8.2831481e-39
-2.7104893 0.92087376 0.47916546 7.8239678e-39
-2.7058361 0.92949539 0.48302928 7.731419e-39
-2.7064044 0.93643409 0.49611491 7.7306988e-39
-2.6803584 0.99056381 0.52770501 7.2700766e-39
-2.6784413 0.99909824 0.53774959 6.2563002e-39
-2.728476 0.89424771 0.47559497 8.5586504e-39
-2.7238219 0.9028697 0.47945759 8.5582958e-39
-2.7191675 0.91149193 0.48332018 8.2831481e-39
-2.7163365 0.91691315 0.4859696 7.1789697e-39
-2.7119062 0.92523229 0.48983595 7.0867769e-39
-2.7060633 0.94634789 0.51214486 7.3633526e-39
-2.7031939 0.95501113 0.52020544 7.4548294e-39
-2.6985002 0.96370584 0.52410007 7.4533972e-39
-2.6913571 0.97296834 0.5232932 7.2711626e-39
-2.7283483 0.9057408 0.49479657 6.9005878e-39
-2.7288985 0.9107945 0.50464272 8.3746249e-39
-2.7242038 0.91948956 0.50853634 8.1916629e-39
-2.7195094 0.92818487 0.51242995 8.0065682e-39
-2.7148149 0.93687999 0.51632357 7.6388619e-39
-2.6989739 0.9708308 0.53728241 6.9956547e-39
-2.6966488 0.97879815 0.54542208 6.8105474e-39
-2.691937 0.98752689 0.54933184 6.6275868e-39
-2.7271554 0.92568636 0.52587527 8.0983995e-39
-2.7235541 0.9344123 0.53234929 6.2559443e-39
-2.7191825 0.94296771 0.53675234 5.9793574e-39
-2.7300019 0.92490375 0.53113091 7.0864154e-39
-2.7375998 0.92265826 0.54489392 6.5328815e-39
-2.7463899 0.90599573 0.53695595 7.455914e-39
-2.7361629 0.9363817 0.56485182 6.5346905e-39
-2.6785431 1.0699601 0.65819973 1.4729693e-39
-2.7372811 0.95181519 0.59362054 5.7989164e-39
-2.7326512 0.96022624 0.59718186 5.6148866e-39
-2.7336495 0.96580797 0.60895967 4.5996795e-39
-2.7292414 0.97443533 0.61339968 4.6007431e-39
-2.7514186 0.93048203 0.59012651 6.1662654e-39
-2.7341187 0.97282249 0.62194479 4.6000257e-39
-2.759295 0.92184049 0.5936836 6.5343276e-39
-2.7638795 0.93578964 0.62795049 5.7074424e-39
-2.6695557 0.97701305 0.47973207 8.3764213e-39
-2.7202041 0.95173186 0.55398345 7.6402996e-39
-2.6796043 0.90609181 0.38265663 8.4765707e-39
-2.7057703 0.87335831 0.38764238 9.8573346e-39
-2.7618558 0.82347739 0.43273652 8.5637021e-39
-2.7583981 0.83270025 0.44038501 8.6573466e-39
-2.7536762 0.84052902 0.4427461 8.7498926e-39
-2.7489545 0.84835792 0.44510704 8.7498954e-39
-2.7442329 0.85618675 0.4474681 8.9332076e-39
-2.7291596 0.89292163 0.47492632 8.3811101e-39
-2.7732697 0.82330203 0.45883682 8.7498926e-39
-2.7685101 0.83119357 0.46121678 9.0254033e-39
-2.7637503 0.83908522 0.46359673 8.8402903e-39
-2.7878916 0.81403244 0.47692961 9.1179534e-39
-2.758198 0.87517589 0.51198119 8.5637021e-39
-2.7533643 0.88319004 0.5143981 8.5637021e-39
-2.7485309 0.8912043 0.51681501 8.5637021e-39
-2.7594917 0.87660277 0.51739389 8.6558991e-39
-2.723047 0.94542336 0.54985654 7.3651603e-39
-2.7730649 0.86609101 0.53095323 8.7480947e-39
-2.7681935 0.87416804 0.53338903 8.6558991e-39
-2.7633221 0.882245 0.53582484 8.6558991e-39
-2.7584507 0.89032203 0.5382607 8.3793206e-39
-2.7743688 0.86752903 0.53640848 8.7488136e-39
-2.7694972 0.87560606 0.53884417 8.7480947e-39
-2.764626 0.88368315 0.54128003 9.0228865e-39
-2.7540181 0.92954409 0.59454805 7.4577062e-39
-2.693433 0.90588605 0.41429117 7.9165376e-39
-2.7053332 0.89487195 0.42312893 7.916169e-39
-2.7007442 0.90338057 0.42694944 8.0080017e-39
-2.7339191 0.88502991 0.4725464 8.83994e-39
-2.7617376 0.86573488 0.50415134 8.565151e-39
-2.777936 0.85801399 0.52851725 9.1157912e-39
-2.7386787 0.8771385 0.47016641 8.6573466e-39
-2.6679211 0.95605838 0.44040251 6.6254288e-39
-2.6811688 0.93780637 0.44007838 6.4406844e-39
-2.6769042 0.94615233 0.44437367 6.2562946e-39
-2.6726394 0.95449829 0.44866902 6.4399642e-39
-2.7037449 0.8694517 0.37633082 1.1516134e-38
-2.6721289 1.0072755 0.53702217 7.0867643e-39
-2.6674197 1.0160028 0.54093617 7.0860524e-39
-2.6604893 1.0263638 0.54248518 3.863548e-39
-2.6740696 1.0076537 0.5421527 5.7042096e-39
-2.669698 1.0162094 0.54655582 5.796764e-39
-2.6653264 1.0247647 0.55095893 5.338304e-39
-2.6609545 1.0333201 0.55536211 2.9448343e-39
-2.6842666 1.0040567 0.55963421 6.6272281e-39
-2.6781816 1.0202359 0.5730083 6.8109019e-39
-2.6840148 1.0103567 0.56973946 5.614888e-39
-2.6798143 1.0191948 0.57501811 5.2471845e-39
-2.6957498 0.99347073 0.56823397 6.8109019e-39
-2.7040074 0.99119741 0.58347523 6.5361115e-39
-2.6992066 0.9998439 0.5870406 6.6275868e-39
-2.6961133 1.0088483 0.59516227 6.6275896e-39
-2.7007763 1.0264496 0.6358068 4.6922339e-39
-2.7415287 0.98493314 0.65962768 5.7060131e-39
-2.7461772 0.8312782 0.4097091 9.3052216e-39
-2.7474315 0.83266163 0.41495618 8.1970775e-39
-2.760592 0.82208371 0.42744878 9.3956179e-39
-2.7486856 0.83404481 0.42020336 8.842091e-39
-2.7665775 0.81564862 0.43037546 1.1244973e-38
-2.7631197 0.8248713 0.43802407 8.7484633e-39
-2.778029 0.81541038 0.45645687 8.9328545e-39
-2.7914038 0.80466533 0.46916118 8.6555488e-39
-2.7793031 0.81681538 0.46178693 9.0254033e-39
-2.8057673 0.83520758 0.55419511 9.3931012e-39
-2.7434382 0.8692469 0.46778649 8.565151e-39
-2.7665713 0.85772055 0.5017345 8.83994e-39
-2.8008564 0.84335047 0.55665076 9.8519213e-39
-2.7481978 0.86135513 0.4654066 8.7498926e-39
-2.76263 0.85237408 0.48354915 8.8402903e-39
-2.7237468 0.88058698 0.44148153 7.0853294e-39
-2.7828076 0.84993702 0.52608144 8.9328391e-39
-2.667376 0.91576576 0.37078717 8.2018153e-39
-2.6771235 1.0487338 0.61890692 1.5716221e-39
-2.6831625 0.99702501 0.54515183 6.8112522e-39
-2.7056022 0.96167791 0.53708476 5.7045655e-39
-2.6881154 0.99589974 0.55469722 4.7854903e-39
-2.667757 1.0590626 0.61476642 1.6222153e-38
-2.7041945 0.97650355 0.5589813 6.4424753e-39
-2.7048533 0.98249865 0.57067496 4.8776845e-39
-2.6682303 1.0661379 0.62786412 1.6684207e-38
-2.66734 1.0731668 0.63772929 1.6964747e-38
-2.7171354 0.96513414 0.56962234 6.625789e-39
-2.7141395 0.97225875 0.57477981 4.7854903e-39
-2.7097309 0.9808861 0.57921982 4.7854903e-39
-2.6731503 1.0645113 0.63648307 8.7578856e-39
-2.6761687 1.0706408 0.65386254 1.5945939e-38
-2.7234254 0.96201861 0.57888472 5.3357858e-39
-2.6780698 1.0628847 0.64510214 2.6632294e-39
-2.6721609 1.0865541 0.67158979 1.6409432e-38
-2.6874363 1.0525559 0.64924258 4.5989607e-39
-2.6740966 1.0786623 0.6626783 2.7658689e-40
-2.7289994 0.9697718 0.60492885 6.0747788e-39
-2.6907048 1.058835 0.6674543 3.4991067e-39
-2.6834629 1.0683336 0.66681886 1.1985432e-39
-2.6738391 1.0807711 0.66566092 5.092753e-39
-2.7130637 1.0438198 0.69369316 4.1455467e-39
-2.7029204 1.0606381 0.69876504 4.056958e-39
-2.7166615 1.0511323 0.71441931 3.6867364e-39
-2.6795325 1.0128255 0.56356156 6.7197782e-39
-2.6960366 0.99975324 0.57955515 4.8776845e-39
-2.695312 1.0081873 0.59218764 6.4431928e-39
-2.6905353 1.0170331 0.59614587 6.3506482e-39
-2.6820433 1.047107 0.62752604 4.414568e-39
-2.7050846 1.009174 0.61646312 6.442841e-39
-2.7121253 0.99954748 0.61641645 6.6257876e-39
-2.6918831 1.0438538 0.64476395 4.6922199e-39
-2.7028496 1.0408325 0.66500205 4.9713207e-39
-2.7382393 0.9851436 0.65237695 6.9967337e-39
-2.7468083 0.91250366 0.54896444 6.4406844e-39
-2.6696496 1.0873643 0.66715682 1.664524e-39
-2.6660514 1.0819544 0.64965695 4.329568e-39
-2.6362753 1.1051012 0.62005836 2.1572328e-38
-2.6391885 0.97258633 0.40198931 8.1066966e-39
-2.6346402 0.98012817 0.40426368 8.5658671e-39
-2.6478481 0.97229183 0.42151746 8.1052476e-39
-2.6432655 0.97989053 0.42380896 8.1967244e-39
-2.6386826 0.9874891 0.42610046 8.3807569e-39
-2.6203513 1.0178834 0.43526676 8.0116241e-39
-2.6157684 1.0254821 0.43755841 7.2736933e-39
-2.6674061 0.94325036 0.41748318 7.7353875e-39
-2.6582406 0.95844752 0.42206636 7.090744e-39
-2.6536577 0.96604621 0.42435783 7.4595251e-39
-2.6444919 0.98124331 0.42894101 7.7361134e-39
-2.639909 0.98884183 0.43123269 7.7361134e-39
-2.6353264 0.99644047 0.43352416 7.9197788e-39
-2.6307435 1.0040392 0.43581569 7.9197788e-39
-2.6169951 1.0268347 0.44269043 6.8116236e-39
-2.6380761 1.0026594 0.45043385 8.0119744e-39
-2.6762486 0.942779 0.43713471 7.8275832e-39
-2.6300778 1.0193331 0.46022171 7.9190599e-39
-2.657768 1.0984426 0.65847093 7.4703095e-39
-2.617136 1.0305551 0.44932777 1.7603585e-38
-2.6628232 0.95084894 0.41977477 7.7346645e-39
-2.6255765 1.0307757 0.4692232 1.2531728e-38
-2.6407754 1.0090121 0.46745455 8.1027253e-39
-2.6347039 1.0482603 0.51999491 1.8069267e-38
-2.6453066 1.0539914 0.55423933 1.8625338e-38
-2.6306641 1.0311581 0.48163858 1.7048252e-38
-2.6418817 1.0980003 0.62097818 1.7797782e-38
-2.6646612 1.0727993 0.63091004 3.5945408e-39
-2.6609771 1.0315528 0.55241597 6.9063387e-39
-2.6417944 1.0633587 0.56200784 2.0004672e-38
-2.6702425 1.0317272 0.57414103 6.9063387e-39
-2.6620321 1.0698999 0.61991084 3.3211656e-39
-2.6682575 1.0632068 0.62295479 6.2602631e-39
-2.6633465 1.0713496 0.62541044 4.1448377e-39
-2.671989 0.9356519 0.41519153 7.8275832e-39
-2.6592185 0.95854348 0.42449045 8.5619238e-39
-2.6542194 0.96752459 0.42816511 7.1786446e-39
-2.6404815 1.0063071 0.46218491 8.0980618e-39
-2.662406 0.96444619 0.44187671 8.2849586e-39
-2.675143 0.9397949 0.42951497 8.0083591e-39
-2.7034914 0.88305902 0.39882901 7.6396004e-39
-2.6939631 0.9127683 0.42719239 6.5332542e-39
-2.6896982 0.92111421 0.43148774 6.4410586e-39
-2.6536763 1.0093498 0.49786443 7.5459586e-39
-2.6783366 0.9772653 0.50046855 7.1775376e-39
-2.6740694 0.98597914 0.50538212 7.2715213e-39
-2.6693888 0.99442643 0.50888759 7.0867825e-39
-2.6886127 0.96122837 0.49702844 7.3637239e-39
-2.6817803 0.97695249 0.50790268 7.2708038e-39
-2.6797402 0.98526514 0.51728654 5.796764e-39
-2.705415 0.93407071 0.48981762 7.2711682e-39
-2.7014258 0.94287074 0.49552023 7.2711724e-39
-2.6854489 0.98345101 0.52741206 7.087493e-39
-2.6807406 0.99194199 0.53092712 7.0878461e-39
-2.6639555 0.97168338 0.45773774 9.0221439e-39
-2.6590769 0.98033702 0.4611358 8.9292294e-39
-2.7313125 0.85202163 0.41052023 8.842091e-39
-2.7266612 0.859734 0.41284603 8.8424469e-39
-2.7220097 0.86744618 0.41517186 8.6573466e-39
-2.7405686 0.85096598 0.43013653 8.7498954e-39
-2.735883 0.85873514 0.43247944 8.9332076e-39
-2.7311971 0.86650413 0.4348225 8.657697e-39
-2.7265117 0.87427318 0.43716538 8.2903592e-39
-2.7395113 0.86401558 0.4498291 8.7495423e-39
-2.7304337 0.89432657 0.48025635 8.6558991e-39
-2.7256739 0.90221828 0.48263627 8.4733057e-39
-2.7745435 0.82470697 0.46416688 8.933558e-39
-2.769784 0.83259863 0.4665468 9.2079869e-39
-2.7650244 0.8404904 0.46892661 8.8402903e-39
-2.7447312 0.88559538 0.4985114 8.3807597e-39
-2.7399354 0.89354688 0.50090933 8.8402903e-39
-2.7351401 0.9014982 0.50330746 8.3807597e-39
-2.7546582 0.88461691 0.51981086 8.5637021e-39
-2.7498248 0.89263117 0.5222277 8.6558991e-39
-2.7449913 0.90064532 0.52464473 8.3803898e-39
-2.7597547 0.89176017 0.54371589 8.5637021e-39
-2.7548831 0.89983714 0.54615182 8.5637021e-39
-2.7500119 0.90791428 0.54858762 8.5637021e-39
-2.7756724 0.86896712 0.54186362 8.8402903e-39
-2.7708013 0.87704414 0.54429942 8.7484478e-39
-2.7659299 0.88512117 0.54673523 8.7480947e-39
-2.791034 0.85963619 0.56156212 9.0257564e-39
-2.786123 0.8677789 0.56401795 8.9328391e-39
-2.7664788 0.90035015 0.57384062 8.5633517e-39
-2.7923486 0.86108595 0.56706178 9.3005454e-39
-2.8012078 0.85861558 0.58336043 9.3005454e-39
-2.7871902 0.89864057 0.61884153 8.5629832e-39
-2.7821999 0.90691489 0.62133688 8.0105269e-39
-2.7711124 0.93807214 0.64855158 7.2729632e-39
-2.7351933 0.88643497 0.47787645 8.8402903e-39
-2.7364674 0.88784009 0.48320639 8.4729554e-39
-2.7495267 0.87764388 0.49611351 8.8402903e-39
-2.6234632 1.0332509 0.46853453 1.8247154e-38
-2.6413217 0.99263805 0.44093934 7.2733262e-39
-2.6369319 1.000684 0.44443658 7.3648029e-39
-2.6330094 1.0092797 0.44994676 7.2726087e-39
-2.6247849 1.0274094 0.46168187 8.8417631e-39
-2.6338038 1.0228262 0.47476488 5.978993e-39
-2.6397393 1.0208446 0.48513129 5.9840349e-39
-2.658016 0.98613888 0.46852499 6.442132e-39
-2.6470509 0.96223003 0.40260381 8.9350518e-39
-2.6330321 1.0023535 0.43824956 9.3034503e-39
-2.6555538 1.0915931 0.64172977 1.5305942e-38
-2.6561656 0.94107664 0.38779786 8.7495577e-39
-2.6516168 0.94861841 0.39007232 8.6566586e-39
-2.6470683 0.95616013 0.39234683 8.0152422e-39
-2.6258368 0.99862766 0.41528744 7.9255746e-39
-2.6482856 0.95750272 0.39744049 7.9222969e-39
-2.6437373 0.96504456 0.39971489 8.3825548e-39
-2.6362293 0.98478317 0.41583648 8.2914382e-39
-2.6466215 0.9709391 0.41638532 8.4722337e-39
-2.6328731 0.99373478 0.42326009 8.0119744e-39
-2.6707623 0.93429887 0.41005957 7.7353875e-39
-2.6661797 0.94189751 0.41235113 7.4591594e-39
-2.6615968 0.94949615 0.41464272 8.1030967e-39
-2.6570137 0.95709461 0.41693437 8.0126989e-39
-2.652431 0.96469319 0.4192259 8.1963741e-39
-2.67963 0.93376076 0.42965546 8.1030812e-39
-2.6750128 0.9414162 0.43196419 7.7353875e-39
-2.6331065 1.033462 0.49119601 1.8066361e-38
-2.6779864 0.94731444 0.4488478 7.551355e-39
-2.6733351 0.95502663 0.45117369 7.6424688e-39
-2.6686835 0.96273875 0.45349956 7.5502732e-39
-2.6715386 0.96888465 0.47052824 7.5502732e-39
-2.6668527 0.97665364 0.47287127 7.7328666e-39
-2.6621673 0.98442274 0.47521415 7.4580776e-39
-2.6574817 0.99219173 0.47755715 7.1818508e-39
-2.6557846 1.0063285 0.49761474 7.4580776e-39
-2.651063 1.0141573 0.49997577 7.4577272e-39
-2.6463411 1.0219861 0.50233674 7.089665e-39
-2.6759353 0.97640699 0.49345824 7.5502732e-39
-2.6712136 0.98423582 0.4958193 7.4580776e-39
-2.6617703 0.99989355 0.50054121 7.5502732e-39
-2.6523268 1.0155512 0.50526333 7.4577272e-39
-2.6476049 1.0233798 0.50762451 7.4577272e-39
-2.6428833 1.0312089 0.50998539 6.6268722e-39
-2.6381617 1.0390376 0.51234639 7.4699886e-39
-2.6960857 0.94648558 0.48930186 7.9179795e-39
-2.691364 0.95431423 0.49166292 7.7346645e-39
-2.6555545 1.0219979 0.52366549 7.5502732e-39
-2.6507952 1.0298897 0.52604538 7.4580776e-39
-2.6711073 0.99972802 0.52185571 7.4570084e-39
-2.6520689 1.0312946 0.53137553 7.3676798e-39
-2.6914194 0.96956664 0.51766586 7.3648127e-39
-2.664489 1.0221858 0.54464757 6.907775e-39
-2.6596932 1.0301373 0.54704547 7.3666106e-39
-2.6644361 0.93858218 0.40269434 7.5499229e-39
-2.6600809 0.94656771 0.40616944 7.549197e-39
-2.6632025 0.95761847 0.43213624 6.9945827e-39
-2.6478128 0.97902244 0.43285376 7.2740436e-39
-2.6333501 1.0160403 0.46220332 6.5336045e-39
-2.6636562 0.96440423 0.44469789 6.5346793e-39
-2.6593916 0.97275019 0.44899312 6.4406816e-39
-2.655127 0.98109627 0.45328838 6.4417746e-39
-2.6508622 0.98944223 0.45758367 6.2584652e-39
-2.6465976 0.99778819 0.46187904 6.5346793e-39
-2.642333 1.0061343 0.46617427 6.8094684e-39
-2.6380684 1.0144801 0.47046962 6.8094684e-39
-2.6363769 1.0283577 0.49010029 7.4617322e-39
-2.6683748 0.96284419 0.45296425 5.7049215e-39
-2.6641104 0.97119015 0.45725951 6.2555757e-39
-2.6598456 0.97953612 0.46155488 5.8871589e-39
-2.6555808 0.9878822 0.46585011 5.7049215e-39
-2.6551709 0.99512851 0.47719535 6.3502895e-39
-2.6770337 0.94642305 0.44513234 6.9952945e-39
-2.6726267 0.95448619 0.44861919 6.8109089e-39
-2.670784 0.96131742 0.45594567 6.7187133e-39
-2.6668608 0.96996689 0.46154585 6.7183587e-39
-2.6624386 0.97805285 0.46503514 6.5339661e-39
-2.6563234 0.99996459 0.48806497 6.4428536e-39
-2.6544917 1.0083818 0.49810803 5.9793574e-39
-2.6886308 0.94924259 0.47673717 6.9031073e-39
-2.687434 0.95666766 0.48656571 6.8116334e-39
-2.6839437 0.9696511 0.50051975 7.2700934e-39
-2.7011559 0.9526878 0.51155049 6.810553e-39
-2.6714628 1.0795753 0.65813577 2.6718614e-39
-2.7781129 0.95680219 0.69651705 5.8900456e-39
-2.786052 0.94810951 0.70013136 5.5237784e-39
-2.7813077 0.95667118 0.70368308 5.3404662e-39
-2.6513214 0.95357674 0.39780083 9.0276089e-39
-2.6372323 0.99232602 0.43095228 9.3027216e-39
-2.6362524 1.0150039 0.46715832 8.0054962e-39
-2.6541986 0.9889906 0.46453393 9.0221439e-39
-2.6493204 0.99764413 0.46793208 9.1143423e-39
-2.6346853 1.0236051 0.47812623 1.2251564e-38
-2.7083275 0.8618533 0.37403923 1.2990872e-38
-2.7095544 0.86320609 0.37917137 8.0119772e-39
-2.7049713 0.87080467 0.38146299 8.1970944e-39
-2.7107809 0.86455899 0.38430339 8.8417379e-39
-2.7036247 0.88373959 0.40029198 8.28929e-39
-2.7187119 0.86213642 0.39853629 8.8413876e-39
-2.7140946 0.86979169 0.40084508 8.6573466e-39
-2.7094777 0.87744707 0.40315378 8.3822045e-39
-2.7048607 0.88510257 0.40546235 8.564079e-39
-2.6936762 0.89630592 0.3986018 8.4718834e-39
-2.7173584 0.87515843 0.41749769 8.565151e-39
-2.7325575 0.85339487 0.4157289 8.7498954e-39
-2.7279062 0.86110711 0.41805473 9.02469e-39
-2.7232547 0.8688193 0.42038059 8.6573466e-39
-2.7186036 0.87653148 0.42270645 8.4729554e-39
-2.6953468 0.91509235 0.43433565 8.0130464e-39
-2.6906953 0.92280459 0.43666148 8.1956398e-39
-2.6919405 0.92417771 0.4418703 8.4707876e-39
-2.687289 0.93189001 0.44419611 8.1023722e-39
-2.6855955 0.94557768 0.46349928 7.551355e-39
-2.676224 0.96111566 0.46818528 7.6424688e-39
-2.7171664 0.90455341 0.46692169 8.4733057e-39
-2.7124448 0.91238236 0.46928257 8.1970775e-39
-2.6888363 0.95152652 0.48108771 7.7353875e-39
-2.7137086 0.91377634 0.47457018 8.6558991e-39
-2.708987 0.92160505 0.47693124 8.3796709e-39
-2.7042654 0.92943394 0.47929221 8.2881942e-39
-2.6995435 0.93726271 0.4816533 8.1949265e-39
-2.6853786 0.96074933 0.4887363 7.7343141e-39
-2.6806569 0.9685781 0.49109736 7.5499229e-39
-2.7317076 0.89573169 0.48558637 8.7477444e-39
-2.726948 0.90362346 0.48796627 8.6555488e-39
-2.7221885 0.91151494 0.49034625 8.6558991e-39
-2.7174289 0.91940665 0.49272615 8.3796709e-39
-2.7055292 0.9308278 0.48457986 8.5637021e-39
-2.7008073 0.93865657 0.48694095 8.1034442e-39
-2.6888714 0.96675646 0.50700587 7.7346645e-39
-2.6650736 1.0062149 0.51890558 7.4580776e-39
-2.7187028 0.92081165 0.49805614 8.5633517e-39
-2.7139432 0.92870331 0.50043613 8.5637021e-39
-2.7091837 0.9365949 0.50281608 8.1956398e-39
-2.7044241 0.94448656 0.50519603 7.7339484e-39
-2.6996644 0.95237821 0.50757599 7.640671e-39
-2.694905 0.96026993 0.50995588 7.5495543e-39
-2.6901455 0.96816158 0.51233584 7.5499229e-39
-2.6806264 0.98394483 0.51709574 7.5495515e-39
-2.6758668 0.99183655 0.51947564 7.4570084e-39
-2.6727967 1.0048671 0.53448117 7.549204e-39
-2.6680009 1.0128185 0.53687918 7.3651603e-39
-2.6632054 1.02077 0.53927714 7.2747653e-39
-2.7364235 0.90291399 0.50867772 8.4725868e-39
-2.7316279 0.91086531 0.51107574 8.5637021e-39
-2.7268324 0.9188168 0.51347369 8.5637021e-39
-2.7056983 0.94589156 0.51052606 7.9176166e-39
-2.7076495 0.95062268 0.52306563 7.3651603e-39
-2.7028542 0.95857394 0.52546376 7.3648127e-39
-2.6932628 0.97447687 0.53025967 7.0896482e-39
-2.6884673 0.98242843 0.53265756 7.0900209e-39
-2.6836715 0.99037987 0.53505558 6.9056297e-39
-2.7208235 0.94071651 0.53672945 7.5502732e-39
-2.7063231 0.96475947 0.54398006 7.0900209e-39
-2.7014897 0.97277367 0.54639703 6.9056297e-39
-2.6897507 0.9838441 0.538028 6.9056297e-39
-2.6918225 0.98880208 0.55123091 6.9063387e-39
-2.6773221 1.0128448 0.55848169 7.0907188e-39
-2.746285 0.90207219 0.53005755 8.5629832e-39
-2.7414513 0.91008645 0.53247446 8.5637021e-39
-2.7366178 0.91810066 0.53489137 8.3803898e-39
-2.7317846 0.92611492 0.53730839 8.4707876e-39
-2.707617 0.96618617 0.549393 7.0893007e-39
-2.7027833 0.97420049 0.55180985 6.9056297e-39
-2.6979499 0.98221475 0.55422682 7.0900209e-39
-2.6931164 0.99022895 0.55664372 6.9063387e-39
-2.6786158 1.0142719 0.56389445 7.3651603e-39
-2.7353976 0.93214542 0.55589521 7.9179795e-39
-2.7305262 0.94022244 0.55833107 7.4573559e-39
-2.7256548 0.94829947 0.56076699 7.3648127e-39
-2.7207835 0.95637649 0.56320286 7.0900209e-39
-2.7159121 0.96445358 0.56563866 6.9063387e-39
-2.7110407 0.9725306 0.56807452 6.9063387e-39
-2.7061694 0.98060745 0.57051051 7.0893007e-39
-2.701298 0.98868465 0.57294631 6.9063387e-39
-2.6964266 0.99676174 0.57538217 7.0903712e-39
-2.691555 1.0048388 0.57781798 6.9063387e-39
-2.7610583 0.89319801 0.54917121 8.5637021e-39
-2.756187 0.9012751 0.55160707 8.5637021e-39
-2.7513158 0.90935218 0.55404288 8.3796709e-39
-2.7464442 0.91742915 0.5564788 8.1956398e-39
-2.7415729 0.92550623 0.5589146 8.1030812e-39
-2.7367015 0.93358326 0.56135046 7.5502732e-39
-2.7318301 0.94166046 0.56378627 7.2729632e-39
-2.7220874 0.95781451 0.56865811 7.0896482e-39
-2.717216 0.9658916 0.57109386 6.9052569e-39
-2.7123446 0.97396874 0.57352972 7.3640897e-39
-2.6928592 1.0062766 0.58327329 6.9063387e-39
-2.7477481 0.91886729 0.56193393 8.1038001e-39
-2.7428768 0.92694432 0.5643698 7.9186858e-39
-2.735698 0.94775748 0.58307523 6.9063387e-39
-2.7111428 0.98847163 0.59535378 6.6297588e-39
-2.7062316 0.99661452 0.59780937 6.9974525e-39
-2.7321014 0.95735002 0.5910306 6.9052569e-39
-2.7271903 0.9654929 0.59348625 6.9052569e-39
-2.7874374 0.86922866 0.56951755 9.20834e-39
-2.7825265 0.87737143 0.5719732 8.9328391e-39
-2.7776155 0.8855142 0.57442892 8.9310412e-39
-2.7727044 0.89365715 0.57688457 8.8388442e-39
-2.7677934 0.90179992 0.57934022 8.5637021e-39
-2.7628825 0.90994269 0.58179599 8.4707876e-39
-2.7579713 0.91808558 0.58425164 7.9183298e-39
-2.7481489 0.93437111 0.58916312 7.3651603e-39
-2.7503936 0.93921077 0.60256481 7.2729632e-39
-2.738327 0.95065695 0.59407449 6.9056297e-39
-2.7334158 0.95879972 0.5965302 6.9056297e-39
-2.7789299 0.8869639 0.57992864 9.1157912e-39
-2.7616162 0.92426062 0.6031574 7.5502732e-39
-2.7566674 0.93246621 0.60563207 7.4573559e-39
-2.7517185 0.94067174 0.60810685 7.2729632e-39
-2.7467694 0.94887757 0.61058134 7.1807676e-39
-2.7418206 0.95708305 0.61305612 7.0896482e-39
-2.7368715 0.96528876 0.61553067 6.9974525e-39
-2.7975836 0.86828208 0.5913772 9.2987476e-39
-2.7926345 0.87648767 0.5938518 9.3012545e-39
-2.7876856 0.88469332 0.59632629 9.1157912e-39
-2.7728388 0.90931016 0.60375023 8.1030812e-39
-2.7678897 0.91751581 0.60622489 7.8257713e-39
-2.7939591 0.87794852 0.5993939 9.5756932e-39
-2.7890103 0.88615429 0.60186833 9.2079869e-39
-2.7772093 0.91518939 0.62383223 7.8250622e-39
-2.704375 1.0450097 0.6756165 5.6149133e-39
-2.7985067 0.88356495 0.61943924 8.8406435e-39
-2.7523386 0.97291791 0.66424543 7.2729632e-39
-2.7194927 1.0369079 0.69683659 5.0660555e-39
-2.8039858 0.89100069 0.64472616 8.2874725e-39
-2.7738054 0.94104201 0.65981752 7.2722416e-39
-2.753685 0.97440273 0.66987842 7.2729632e-39
-2.7518172 1.0218389 0.74603254 4.9724305e-39
-2.6854136 0.89984608 0.38549697 8.476921e-39
-2.7139521 0.88424361 0.42503232 8.7477444e-39
-2.6607141 0.9335348 0.3855235 8.6577124e-39
-2.6753449 0.92670035 0.40776798 7.8275832e-39
-2.6765718 0.92805326 0.41290003 8.1949265e-39
-2.7012432 0.90875334 0.43721861 8.6558991e-39
-2.6965919 0.91646546 0.43954447 8.3803898e-39
-2.7137089 0.89896333 0.44944152 8.4722365e-39
-2.6500804 1.0357702 0.53436935 1.8157126e-38
-2.6830077 1.0041869 0.55694348 5.5223323e-39
-2.6473093 1.0391862 0.53375536 5.9815196e-39
-2.6548979 1.0380883 0.54944354 6.7215887e-39
-2.6561813 1.0395041 0.55481386 7.0903712e-39
-2.6689489 1.0303003 0.56872833 7.2729632e-39
-2.6641154 1.0383143 0.57114524 7.0896482e-39
-2.659282 1.0463283 0.5735622 6.8130613e-39
-2.6447814 1.0703713 0.58081299 1.9727719e-38
-2.6654091 1.0397412 0.57655799 7.2729632e-39
-2.6685023 1.0466617 0.59545255 6.8137844e-39
-2.6844203 1.023869 0.59360009 7.2729632e-39
-2.6731687 1.0550638 0.62049901 6.8123522e-39
-2.648982 1.0287784 0.51996785 4.0505009e-39
-2.6876347 1.0178239 0.59077966 5.8911148e-39
-2.680341 1.0490454 0.62687671 5.614888e-39
-2.675693 1.0575016 0.63047224 5.152496e-39
-2.7692597 0.97464156 0.70630509 5.523777e-39
-2.7765634 0.96523303 0.70723522 5.8896855e-39
-2.6737823 1.0222858 0.56631148 7.3658665e-39
-2.6671984 1.0452238 0.58999723 7.1804173e-39
-2.6831162 1.022431 0.5881449 7.2729632e-39
-2.6782451 1.0305078 0.59058082 6.9063387e-39
-2.6733737 1.0385847 0.59301662 6.9063387e-39
-2.7013204 1.0047573 0.6002652 6.9063387e-39
-2.6964097 1.0129001 0.60272086 7.3651603e-39
-2.6865873 1.0291858 0.60763228 7.0903712e-39
-2.7045286 1.0116006 0.6192944 7.3647959e-39
-2.6995797 1.0198061 0.62176907 6.9063387e-39
-2.687902 1.0306354 0.613132 7.1814977e-39
-2.682991 1.0387781 0.61558765 7.3648099e-39
-2.7058535 1.0130614 0.62483656 6.9960274e-39
-2.6959555 1.0294727 0.62978584 7.1800459e-39
-2.6860578 1.0458839 0.63473505 6.6283211e-39
-2.6811087 1.0540897 0.63720959 6.1684177e-39
-2.720979 1.0047348 0.645693 7.0878503e-39
-2.7159886 1.0130091 0.64818853 7.1800459e-39
-2.696027 1.0461067 0.65816987 5.9840237e-39
-2.7223146 1.0062079 0.65128154 6.9960274e-39
-2.7173243 1.0144823 0.65377694 7.1800459e-39
-2.7107515 1.0381544 0.67873424 6.1680674e-39
-2.7473085 0.98125792 0.6667608 7.2729632e-39
-2.7271881 1.0146189 0.67682159 7.0878503e-39
-2.7259216 1.0299963 0.69998008 6.2602631e-39
-2.7475657 0.99785763 0.69551557 7.1807648e-39
-2.7424939 1.0062666 0.69805157 7.1800459e-39
-2.7590661 0.98253673 0.69612306 7.2729632e-39
-2.7539945 0.99094576 0.69865894 6.9066862e-39
-2.7337081 1.0245816 0.70880288 6.1684318e-39
-2.7254744 0.84409958 0.38357812 9.6718419e-39
-2.7267103 0.8454625 0.3887485 7.9212039e-39
-2.7359638 0.84430963 0.40819427 8.842091e-39
-2.7499397 0.83542794 0.4254505 8.7495423e-39
-2.7141368 0.85560751 0.37687981 6.8148592e-39
-2.7153637 0.8569603 0.38201183 9.1183192e-39
-2.727946 0.84682542 0.39391893 8.8435301e-39
-2.7233291 0.85448092 0.3962276 9.0261291e-39
-2.7372088 0.8456825 0.41340318 8.8417379e-39
-2.6952896 0.8983146 0.40574032 8.1949209e-39
-2.7300677 0.87967324 0.4545511 8.5655013e-39
-2.7447121 0.8706519 0.47311649 8.4729554e-39
-2.7347894 0.87184447 0.45219013 8.6573466e-39
-2.8021708 0.84480017 0.56215042 9.1161542e-39
-2.669811 0.91845131 0.38097456 8.2910878e-39
-2.6845109 0.9115032 0.40318486 8.0116241e-39
-2.6808307 0.90744454 0.38778868 8.475119e-39
-2.683284 0.91015041 0.39805275 8.1052476e-39
-2.6710286 0.9197939 0.38606828 8.28929e-39
-2.6787012 0.91774881 0.40034446 8.2871222e-39
-2.6799278 0.91910177 0.40547639 8.0116241e-39
-2.7046494 0.89966792 0.42968395 8.4722365e-39
-2.7171404 0.88981116 0.44185132 8.6555488e-39
-2.7058945 0.90104109 0.43489277 8.3807597e-39
-2.7183945 0.89119428 0.44709852 8.7480947e-39
-2.6890936 0.90390468 0.40089324 8.287841e-39
-2.6978831 0.89237291 0.40165877 7.0878559e-39
-2.7093008 0.89195579 0.42735806 8.5633517e-39
-2.7218261 0.88204211 0.43950838 8.83994e-39
-2.6652625 0.92599314 0.38324898 8.28929e-39
-2.7179017 1.0569469 0.72715229 2.6765417e-39
-2.7624238 0.96278292 0.6703769 5.9825902e-39
-2.6607151 1.0831795 0.63939321 1.7517933e-38
-2.6691766 1.0802888 0.65405935 9.8700121e-39
-2.6602836 1.0976932 0.66301644 1.6592727e-38
-2.7703595 0.95409125 0.67398548 5.2486237e-39
-2.7656412 0.9626233 0.67754692 5.8903973e-39
-2.7171361 1.0483114 0.71073127 4.052642e-39
-2.7175839 1.0122682 0.65062129 5.7063634e-39
-2.7447939 0.98474723 0.66686416 5.3397459e-39
-2.7544684 0.9714973 0.66676146 5.7070837e-39
-2.7677665 0.96947956 0.69409394 5.8903973e-39
-2.7733703 0.96536511 0.70007521 5.4319373e-39
-2.6910365 1.0543811 0.66066527 4.5139705e-39
-2.7245641 1.0284994 0.69430053 6.6275966e-39
-2.7208502 1.0384051 0.70251602 4.2377424e-39
-2.7222075 1.0399023 0.70819539 3.4094404e-39
-2.7565584 0.99631649 0.7137 7.1807648e-39
-2.7579272 0.9978258 0.71942586 7.1811151e-39
