# .PCD v0.7 - Point Cloud Data file format
VERSION 0.7
FIELDS x y z rgb
SIZE 4 4 4 4
TYPE F F F F
COUNT 1 1 1 1
WIDTH 1024
HEIGHT 1
VIEWPOINT 0 0 0 1 0 0 0
POINTS 1024
DATA ascii
-2.9798167 0.72078729 1.0978118 2.3887991e-39
-2.985918 0.73307568 1.1183184 2.3884404e-39
-2.985404 0.74290615 1.1212521 2.3884404e-39
-2.98489 0.75273651 1.1241856 1.8392211e-39
-2.9843762 0.76256686 1.1271192 1.8410441e-39
-2.9838622 0.7723971 1.1300527 2.6729698e-39
-2.9833481 0.7822274 1.1329864 3.0392286e-39
-2.9828343 0.79205775 1.1359198 2.6708048e-39
-2.9891641 0.80513567 1.1573359 2.2119931e-39
-2.9886458 0.81505251 1.1602951 2.7630018e-39
-2.9881272 0.82496923 1.1632545 2.4889317e-39
-2.9876089 0.83488595 1.1662138 2.947033e-39
-2.9870906 0.84480274 1.1691731 2.3963773e-39
-2.932842 -0.23770955 0.56935245 2.5713939e-39
-2.9323971 -0.22920206 0.57189137 2.5713939e-39
-2.9323895 -0.22301991 0.57452428 4.5917776e-39
-2.9315076 -0.21218663 0.57696909 2.4795584e-39
-2.9310627 -0.20367895 0.57950783 2.4795584e-39
-2.9396222 -0.20355007 0.60093635 4.4999407e-39
-2.9388371 -0.19417092 0.60299945 4.4999407e-39
-2.9380522 -0.18479165 0.60506278 4.7754542e-39
-2.9372671 -0.17541251 0.60712594 5.5183876e-39
-2.9364822 -0.16603337 0.60918897 5.2443203e-39
-2.9356976 -0.15665443 0.61125255 5.5194764e-39
-2.9390938 -0.1506183 0.62232244 5.2439671e-39
-2.938308 -0.14121735 0.62439293 5.243607e-39
-2.9377968 -0.13541527 0.625606 2.8501388e-39
-2.9373453 -0.12678118 0.62818259 2.6679055e-39
-2.9405122 -0.12230454 0.63801086 5.4283598e-39
-2.9354386 -0.10815891 0.63140923 6.5397254e-39
-2.9359915 -0.10087927 0.63591194 3.2261044e-39
-2.9463758 -0.10005645 0.66219634 6.2642189e-39
-2.9455795 -0.090527222 0.66429496 6.450408e-39
-2.944783 -0.080997951 0.66639322 6.818822e-39
-2.9369023 -0.066143028 0.6530872 5.8072135e-39
-2.9361582 -0.057082612 0.65511644 5.8072149e-39
-2.9423928 -0.052410573 0.67268902 6.9121037e-39
-2.9415965 -0.042881303 0.6747874 6.9117463e-39
-2.9379897 -0.035381224 0.6689986 4.2406108e-39
-2.937535 -0.026680822 0.67159492 4.2406108e-39
-2.9370801 -0.017980337 0.67419136 3.9658218e-39
-2.9366252 -0.0092799356 0.67678767 4.2406108e-39
-2.9350209 0.0010957394 0.67723227 7.0057496e-39
-2.9459023 0.0024812638 0.70499814 6.8202668e-39
-2.9471209 0.010940537 0.71167016 6.8191934e-39
-2.9463172 0.020572068 0.71379483 6.8195479e-39
-2.9457934 0.027986126 0.71566689 3.9633135e-39
-2.9453313 0.036822859 0.71830398 4.4268196e-39
-2.9379334 0.052222423 0.70643681 7.7454979e-39
-2.9444075 0.054496195 0.72357804 4.608334e-39
-2.9439454 0.06333293 0.72621506 3.6816749e-39
-2.9398725 0.07788308 0.72228628 6.5379135e-39
-2.9537835 0.07486099 0.75572675 6.3520775e-39
-2.9387171 0.090958506 0.72501063 6.5371933e-39
-2.9377415 0.10047742 0.7266565 6.7212342e-39
-2.9513388 0.10415702 0.76218885 6.2591686e-39
-2.9447353 0.1150249 0.75036192 5.2471901e-39
-2.9465322 0.12276348 0.75816762 3.3136112e-39
-2.94117 0.13504343 0.75004637 6.2613336e-39
-2.9416735 0.14348947 0.75492668 6.2609735e-39
-2.9558606 0.14874816 0.79260814 6.1662527e-39
-2.9572489 0.15777886 0.7999481 5.9818629e-39
-2.956085 0.16304214 0.79929984 3.3118176e-39
-2.9562523 0.17094287 0.80310726 5.9811454e-39
-2.9551387 0.18114087 0.80470079 3.2189129e-39
-2.9546657 0.19019021 0.8074013 3.0363111e-39
-2.9541926 0.19923966 0.81010169 3.2206995e-39
-2.9537191 0.20828901 0.81280231 2.6686118e-39
-2.9590271 0.21567969 0.82922566 3.0413642e-39
-2.95855 0.22479878 0.83194709 3.2246947e-39
-2.9580734 0.23391798 0.8346684 1.4693679e-39
-2.9606092 0.24281527 0.84481734 4.5024673e-39
-2.9595821 0.25276238 0.84651875 4.5024673e-39
-2.9585543 0.26270947 0.84821969 4.3177215e-39
-2.9561663 0.27039459 0.84555364 1.6530389e-39
-2.9618857 0.28064433 0.86423206 4.0418478e-39
-2.9633548 0.29016778 0.87198567 4.2255188e-39
-2.9623175 0.30020082 0.87369907 4.2251657e-39
-2.9665678 0.30481267 0.88629067 1.7448758e-39
-2.9610877 0.31389201 0.87650132 4.2248112e-39
-2.9595888 0.32421041 0.87718487 1.7448884e-39
-2.9651141 0.33261877 0.89458853 1.6530389e-39
-2.9646294 0.34188744 0.89735448 1.3775465e-39
-2.9641449 0.35115618 0.90012044 1.3775465e-39
-2.9636602 0.36042491 0.90288639 1.4693946e-39
-2.963176 0.3696937 0.90565234 2.0254368e-39
-2.9689503 0.37852162 0.9238584 3.2261436e-39
-2.9684618 0.38786674 0.92664719 3.3183392e-39
-2.9679732 0.39721188 0.92943597 3.2264939e-39
-2.9674847 0.40655699 0.93222475 2.8580645e-39
-2.9732392 0.4157671 0.95054501 2.7633522e-39
-2.9727466 0.42518878 0.95335656 2.7647773e-39
-2.972254 0.43461037 0.95616812 2.7640584e-39
-2.9655304 0.44393769 0.94337982 2.7640584e-39
-2.9650416 0.45328283 0.9461686 2.7640584e-39
-2.9707766 0.46287519 0.96460271 2.1215533e-39
-2.9702837 0.47229668 0.9674145 2.6722089e-39
-2.9697912 0.48171824 0.97022605 2.6718614e-39
-2.9692988 0.49113989 0.97303754 2.6718614e-39
-2.9752831 0.50113833 0.99227011 2.6722089e-39
-2.9747863 0.51063973 0.99510562 2.5800133e-39
-2.9742897 0.52014112 0.99794096 2.4878176e-39
-2.9737928 0.52964246 1.0007764 2.395622e-39
-2.9732964 0.5391438 1.0036117 2.4878176e-39
-2.9727995 0.54864514 1.0064471 2.395622e-39
-2.9787548 0.55920202 1.025846 2.4878176e-39
-2.9782538 0.5687831 1.0287052 2.3030677e-39
-2.9777527 0.57836413 1.0315645 2.3030677e-39
-2.9834545 0.59895825 1.054636 2.7608088e-39
-2.9829493 0.60862243 1.05752 2.7608088e-39
-2.9814339 0.63761503 1.0661716 2.115445e-39
-2.9809282 0.64727914 1.0690557 2.0232508e-39
-2.980423 0.65694338 1.0719397 1.8395798e-39
-2.9799178 0.66660762 1.0748237 2.2976811e-39
-2.9794126 0.6762718 1.0777078 2.4809933e-39
-2.9855719 0.68811554 1.0981675 2.3887991e-39
-2.9850624 0.6978628 1.1010762 2.4809933e-39
-2.9845526 0.70761007 1.1039851 2.3887991e-39
-2.9840431 0.71735734 1.1068938 2.3887991e-39
-2.9901803 0.7296164 1.1274782 2.3887991e-39
-2.9896667 0.73944688 1.1304116 1.6544739e-39
-2.9891524 0.74927723 1.1333452 2.0225361e-39
-2.9886386 0.75910759 1.1362787 2.5789595e-39
-2.9881244 0.76893783 1.1392124 3.0392286e-39
-2.9876108 0.77876818 1.1421459 2.947033e-39
-2.9870968 0.78859854 1.1450795 2.947033e-39
-2.9865828 0.79842883 1.1480131 2.3963773e-39
-2.9929457 0.8115629 1.1695352 2.7630018e-39
-2.9924271 0.82147956 1.1724945 2.7630018e-39
-2.9919088 0.83139634 1.1754539 2.3963773e-39
-2.9352505 -0.24260424 0.57326758 4.8676428e-39
-2.9410734 -0.22855754 0.59383333 2.4795584e-39
-2.9409399 -0.22177249 0.5964101 4.5917776e-39
-2.9401591 -0.21244243 0.59846294 4.5917762e-39
-2.9397295 -0.20284508 0.60150629 2.3877229e-39
-2.9424338 -0.19706886 0.61073792 4.1325987e-39
-2.941648 -0.18768735 0.6127997 4.3177075e-39
-2.9408624 -0.178306 0.61486161 5.427271e-39
-2.937937 -0.16856194 0.61173707 2.7575844e-39
-2.9428947 -0.1643554 0.62592131 2.7575844e-39
-2.9426925 -0.15351067 0.63006818 5.152503e-39
-2.9419057 -0.14410757 0.6321373 5.1521302e-39
-2.9415405 -0.13845347 0.63365096 2.3916788e-39
-2.9410892 -0.12981947 0.63622743 2.8526569e-39
-2.9441395 -0.12522948 0.64581329 5.7996492e-39
-2.9433484 -0.1157748 0.64789349 6.0783857e-39
-2.9425573 -0.10631993 0.64997351 5.8028848e-39
-2.9391713 -0.092405602 0.64748728 6.173831e-39
-2.9382169 -0.083082721 0.64910322 6.5440582e-39
-2.9401054 -0.077195086 0.65634489 5.3462311e-39
-2.9447587 -0.07083638 0.67069209 7.280882e-39
-2.946847 -0.0648783 0.67846185 6.4525604e-39
-2.942672 -0.055843782 0.67191267 4.0555105e-39
-2.9422171 -0.047143336 0.67450917 4.1484152e-39
-2.9485486 -0.038872898 0.69386649 6.8195437e-39
-2.937026 -0.026821662 0.67026365 6.9131939e-39
-2.9375157 -0.018575737 0.67502409 6.8209968e-39
-2.9552901 -0.022193208 0.71785563 6.7273523e-39
-2.956506 -0.013727166 0.72452319 6.4514842e-39
-2.9556959 -0.0040380391 0.72665673 6.635514e-39
-2.9548857 0.0056510675 0.72879022 6.5429624e-39
-2.9500868 0.016039966 0.72126371 4.0562196e-39
-2.949625 0.024876617 0.72390068 3.6888748e-39
-2.949163 0.033713348 0.7265377 3.8714682e-39
-2.9487009 0.042549923 0.72917485 3.5948911e-39
-2.9482391 0.051386725 0.73181176 3.961503e-39
-2.9423723 0.067136467 0.7239182 6.6293889e-39
-2.9583519 0.062072512 0.76164788 6.1676919e-39
-2.957536 0.071840115 0.7638005 6.0751375e-39
-2.9567201 0.081607684 0.7659533 6.0751333e-39
-2.955904 0.091375306 0.76810592 6.0744172e-39
-2.9550884 0.10114307 0.77025843 5.9818671e-39
-2.9461651 0.11344448 0.75325423 6.1684192e-39
-2.9503939 0.11962929 0.7664665 3.2196234e-39
-2.9499285 0.12853575 0.76912421 3.2196234e-39
-2.9505877 0.13876984 0.77516103 6.0755173e-39
-2.9596443 0.14571467 0.8007552 5.7045627e-39
-2.9604819 0.15080823 0.80503136 3.0348776e-39
-2.9600089 0.15985768 0.80773187 2.9430407e-39
-2.9595358 0.16890702 0.81043231 2.6686118e-39
-2.9590623 0.17795639 0.81313294 3.2196234e-39
-2.9585896 0.18700582 0.81583333 3.1285053e-39
-2.9581163 0.19605516 0.8185339 3.2196234e-39
-2.9634576 0.20335151 0.83500141 3.3111085e-39
-2.962981 0.21247075 0.8377226 2.9480895e-39
-2.9625041 0.22158989 0.84044397 3.0399377e-39
-2.9620275 0.23070905 0.84316534 1.3775324e-39
-2.9615505 0.23982824 0.84588671 1.6530389e-39
-2.9627392 0.25027484 0.85333592 4.2258818e-39
-2.960597 0.25806648 0.85132945 1.4693763e-39
-2.9645097 0.26937354 0.86594898 4.3177187e-39
-2.9596436 0.2763049 0.85677189 1.5612132e-39
-2.9665337 0.28767234 0.87885308 4.2251615e-39
-2.9650183 0.29338765 0.87752056 1.6530389e-39
-2.9645374 0.30258334 0.8802647 1.6530389e-39
-2.9640567 0.3117789 0.88300896 1.6530389e-39
-2.9635761 0.32097453 0.88575298 1.7448758e-39
-2.9691329 0.32935712 0.90322483 1.7448884e-39
-2.9686484 0.33862588 0.90599078 1.7448912e-39
-2.968164 0.34789464 0.90875673 1.4693946e-39
-2.9676795 0.35716334 0.91152275 2.2109029e-39
-2.9671946 0.36643207 0.9142887 3.2264939e-39
-2.9730024 0.37523314 0.93256599 3.5027305e-39
-2.9725139 0.38457829 0.93535477 3.5938373e-39
-2.9720252 0.39392337 0.93814355 3.3183392e-39
-2.9778171 0.40303025 0.95651197 3.0421027e-39
-2.9773242 0.41245177 0.95932364 2.764071e-39
-2.9768319 0.42187339 0.9621352 2.7647773e-39
-2.9763393 0.43129495 0.96494681 2.1219246e-39
-2.9695826 0.44064921 0.95208734 2.8569729e-39
-2.9753542 0.45013821 0.97057003 2.8569729e-39
-2.9748619 0.45955986 0.97338146 2.7640584e-39
-2.974369 0.4689813 0.97619325 2.6722089e-39
-2.9738765 0.47840285 0.97900474 2.6722089e-39
-2.9798996 0.48829362 0.99828786 2.5800133e-39
-2.9794033 0.49779496 1.0011231 2.5800133e-39
-2.972399 0.50666773 0.98743939 2.395622e-39
-2.9784098 0.51679772 1.006794 2.395622e-39
-2.9779127 0.52629906 1.0096295 2.3949158e-39
-2.9774163 0.53580034 1.0124648 2.4878176e-39
-2.9769192 0.54530168 1.0153003 2.5800133e-39
-2.9829092 0.55583042 1.0347736 2.4878176e-39
-2.9824083 0.56541157 1.0376326 2.3030677e-39
-2.9819071 0.5749926 1.0404919 2.3030677e-39
-2.9814065 0.58457392 1.0433509 2.1190365e-39
-2.9809055 0.59415495 1.0462103 2.1190365e-39
-2.9871397 0.60522175 1.0665246 1.9346439e-39
-2.992346 0.63594908 1.0927062 2.666458e-39
-2.9918365 0.6456964 1.0956149 2.390234e-39
-2.991327 0.65544373 1.0985236 1.8392211e-39
-2.9908175 0.66519094 1.1014324 2.4809933e-39
-2.9836032 0.67287105 1.0867125 2.3887991e-39
-2.9897983 0.68468547 1.10725 2.1132926e-39
-2.9892886 0.69443268 1.1101587 2.3887991e-39
-2.9887791 0.70418 1.1130674 2.3887991e-39
-2.9882693 0.71392727 1.1159762 1.7466681e-39
-2.9877598 0.7236746 1.118885 2.3884404e-39
-2.9872503 0.73342192 1.1217937 1.6544739e-39
-2.9934151 0.74581808 1.1425048 2.0225361e-39
-2.9929011 0.75564837 1.1454384 2.7633522e-39
-2.9923871 0.76547861 1.1483722 2.947033e-39
-2.991873 0.77530885 1.1513056 2.5807742e-39
-2.9913592 0.78513932 1.1542392 2.7630018e-39
-2.9908452 0.79496956 1.1571728 2.3963829e-39
-2.9903314 0.80480003 1.1601062 2.2123448e-39
-2.9967268 0.81798995 1.1817347 2.2123448e-39
-2.9962084 0.82790673 1.1846939 2.6708048e-39
-2.9956901 0.83782351 1.1876534 2.1201492e-39
-2.9387879 -0.24546152 0.58087468 4.2244328e-39
-2.9452379 -0.24014437 0.5992617 2.4795584e-39
-2.9447899 -0.23157349 0.60181934 2.2958874e-39
-2.9443419 -0.22300285 0.60437697 2.2958874e-39
-2.9438937 -0.214432 0.60693479 2.3877229e-39
-2.9468169 -0.20934965 0.61641431 3.8570908e-39
-2.9460301 -0.19996598 0.61847472 4.2244342e-39
-2.9452436 -0.19058233 0.62053525 4.3169942e-39
-2.9444566 -0.18119872 0.62259591 5.2428811e-39
-2.9436698 -0.17181535 0.62465656 5.1510526e-39
-2.9448066 -0.16398473 0.63085377 5.0599346e-39
-2.9461868 -0.15875962 0.63654286 2.7575844e-39
-2.9457355 -0.15012562 0.63911933 2.8501388e-39
-2.9487271 -0.14068253 0.65064007 5.2446874e-39
-2.9448328 -0.13285767 0.64427239 2.6689859e-39
-2.9477658 -0.12815389 0.65361422 5.8007324e-39
-2.9469738 -0.1186969 0.65569299 5.7103291e-39
-2.9461815 -0.10923982 0.65777171 5.7106892e-39
-2.9427092 -0.096232958 0.65468001 6.6337189e-39
-2.9436734 -0.088040777 0.66060209 7.0035776e-39
-2.9401872 -0.076061979 0.65703511 6.3600201e-39
-2.9479737 -0.073386967 0.67762643 7.096848e-39
-2.9469993 -0.063753597 0.67932528 6.9135442e-39
-2.9524024 -0.06284643 0.69320577 3.8711178e-39
-2.953037 -0.051416464 0.69969392 6.175975e-39
-2.9409404 -0.038535766 0.67501372 6.7284453e-39
-2.9399774 -0.02916404 0.67662829 6.7284439e-39
-2.9404709 -0.020919472 0.68139827 6.6362426e-39
-2.9501097 -0.018995376 0.70629185 3.8711178e-39
-2.9548426 -0.004742967 0.72422332 3.8711178e-39
-2.9586053 0.0026604084 0.73679489 6.4504108e-39
-2.9577942 0.012351811 0.73892719 6.2663797e-39
-2.9569833 0.022043239 0.74105936 6.3582194e-39
-2.9529943 0.030603839 0.73477149 3.6867364e-39
-2.959446 0.039306119 0.754614 6.4489633e-39
-2.9586294 0.049053214 0.75675642 5.9858173e-39
-2.9575152 0.054149739 0.75616032 3.1310192e-39
-2.9621043 0.059049934 0.76972163 5.8907449e-39
-2.9612875 0.068819851 0.77187288 5.8900274e-39
-2.9604707 0.078589685 0.77402431 5.9818629e-39
-2.952142 0.091666192 0.75883615 4.9698872e-39
-2.9486711 0.10260623 0.75486213 6.168066e-39
-2.9622393 0.10608745 0.79023552 5.7971157e-39
-2.9542558 0.11649518 0.77476537 2.8508464e-39
-2.9507837 0.12880225 0.77137506 5.8918393e-39
-2.9591985 0.13197221 0.79374635 2.9430407e-39
-2.9587293 0.14094859 0.7964251 2.7586522e-39
-2.9577918 0.15344405 0.79944396 5.891126e-39
-2.9639325 0.15667325 0.81616384 2.9430407e-39
-2.9634595 0.16572258 0.81886423 2.4845806e-39
-2.9629865 0.1747721 0.82156473 2.4845806e-39
-2.9621618 0.1831295 0.82309085 5.9833146e-39
-2.9678884 0.1910235 0.84077698 3.2189129e-39
-2.9674115 0.20014258 0.84349823 2.7608088e-39
-2.9669352 0.2092618 0.84621948 3.2214619e-39
-2.9673979 0.21915321 0.85161924 5.8915324e-39
-2.9663658 0.22910804 0.85331118 4.3166411e-39
-2.965333 0.23906283 0.85500294 4.4106318e-39
-2.9650283 0.24573852 0.85710472 1.4693679e-39
-2.9645512 0.25485757 0.85982621 1.4693679e-39
-2.9685342 0.26045832 0.87217456 4.5003163e-39
-2.9691436 0.27637523 0.88052356 4.3173599e-39
-2.9694865 0.28095615 0.88334465 1.0101905e-39
-2.9690058 0.29015175 0.88608879 1.2857082e-39
-2.9748693 0.29771456 0.90397549 4.1336875e-39
-2.9741211 0.30755818 0.90632939 1.6530501e-39
-2.9736366 0.31682691 0.90909517 1.6530389e-39
-2.9731519 0.32609555 0.91186124 1.9285594e-39
-2.9726675 0.33536422 0.91462725 1.1027728e-39
-2.972183 0.34463301 0.91739309 2.5786092e-39
-2.9716983 0.35390168 0.92015922 3.2261436e-39
-2.9712138 0.36317047 0.92292517 3.3183392e-39
-2.9770544 0.37194467 0.94127345 3.5027305e-39
-2.9765658 0.38128984 0.94406217 3.5938373e-39
-2.9760773 0.39063495 0.94685107 3.3183392e-39
-2.9819021 0.3997148 0.96529084 3.2261436e-39
-2.9814093 0.40913635 0.96810251 2.8573625e-39
-2.980917 0.41855803 0.97091407 2.5814776e-39
-2.9804244 0.42797959 0.97372562 2.4896295e-39
-2.9799318 0.43740124 0.97653723 2.8569729e-39
-2.9794393 0.44682279 0.97934884 2.7644045e-39
-2.9789469 0.45624441 0.98216021 2.7644045e-39
-2.9784541 0.46566594 0.98497194 2.6718614e-39
-2.9845161 0.47544879 1.0043056 2.7644045e-39
-2.9774692 0.48450914 0.9905951 2.6722089e-39
-2.9835227 0.49445146 1.0099763 2.5800133e-39
-2.9764841 0.50335234 0.99621832 2.4878176e-39
-2.9825292 0.5134542 1.0156472 2.4878176e-39
-2.9820325 0.52295554 1.0184826 2.395622e-39
-2.9815357 0.53245687 1.0213178 2.4878176e-39
-2.981039 0.54195815 1.0241532 2.5800133e-39
-2.9870636 0.55245894 1.0437008 2.4878176e-39
-2.9795487 0.57046217 1.0326594 2.395622e-39
-2.9790523 0.57996368 1.0354946 2.1190365e-39
-2.98506 0.59078342 1.0551376 2.1190365e-39
-2.9913301 0.60182095 1.0755296 2.6686118e-39
-2.9965725 0.63251913 1.1017883 2.9416057e-39
-2.9960628 0.64226639 1.1046971 2.390234e-39
-2.9955533 0.65201378 1.1076057 1.8395798e-39
-2.9882989 0.65980613 1.0928333 2.3884404e-39
-2.9877934 0.66947025 1.0957173 2.2962461e-39
-2.9940245 0.68125552 1.1163321 2.3887991e-39
-2.993515 0.69100273 1.1192409 1.8395798e-39
-2.9930053 0.70074999 1.1221497 2.2962461e-39
-2.992496 0.71049732 1.1250583 1.6544739e-39
-2.991986 0.72024453 1.1279672 2.2962461e-39
-2.9914768 0.72999197 1.1308759 1.8392211e-39
-2.990967 0.73973918 1.1337848 2.6646699e-39
-2.9971635 0.7521891 1.1545981 3.1314242e-39
-2.9966493 0.76201928 1.1575319 2.4885786e-39
-2.9961357 0.77184975 1.1604651 2.5807742e-39
-2.9956217 0.78168005 1.1633989 2.7630018e-39
-3.0020638 0.79466677 1.1850562 2.2123448e-39
-3.0015454 0.80458355 1.1880156 2.2123448e-39
-3.0010271 0.81450033 1.1909748 2.7630018e-39
-3.0005085 0.82441711 1.1939342 2.6704531e-39
-2.9439087 -0.24669106 0.59313411 1.102026e-39
-2.9434638 -0.23818341 0.59567297 2.3877229e-39
-2.9466 -0.23505299 0.60484749 4.2244342e-39
-2.9480581 -0.22601885 0.6123631 2.2040519e-39
-2.9476099 -0.21744795 0.61492079 2.2958874e-39
-2.9504132 -0.21224838 0.62415117 4.2244328e-39
-2.9496255 -0.20286259 0.62621021 3.7652553e-39
-2.9488378 -0.19347677 0.62826961 3.7652638e-39
-2.9480503 -0.18409085 0.63032854 5.0584913e-39
-2.9472625 -0.17470527 0.632388 5.058857e-39
-2.9483981 -0.16687272 0.63858414 5.0595759e-39
-2.9476097 -0.15746476 0.64065021 4.967739e-39
-2.9494793 -0.15316394 0.64716423 2.2994831e-39
-2.949028 -0.14452994 0.64974076 2.6679055e-39
-2.9485765 -0.13589597 0.65231735 2.3949158e-39
-2.9479613 -0.1267966 0.65468395 6.2635001e-39
-2.9469941 -0.11723816 0.65636867 6.2638602e-39
-2.9422607 -0.10357266 0.65041184 5.8972413e-39
-2.9530232 -0.1055916 0.67642039 5.8043184e-39
-2.952225 -0.096078627 0.67850739 5.9897886e-39
-2.9534509 -0.087974541 0.68504506 6.2663741e-39
-2.9511268 -0.079367958 0.68293369 3.5948911e-39
-2.9557464 -0.057162486 0.70399475 3.5952386e-39
-2.9552879 -0.048392158 0.70661199 3.5026955e-39
-2.9620168 -0.045648552 0.7245912 6.3585711e-39
-2.961206 -0.035978116 0.72671473 6.3585697e-39
-2.9603951 -0.026307663 0.72883838 6.5425967e-39
-2.9616077 -0.017840063 0.73549843 6.5422379e-39
-2.9607956 -0.0081458502 0.737629 6.2667343e-39
-2.9623239 -0.00032968697 0.74479806 6.1741785e-39
-2.9577501 0.0098208664 0.73773116 3.5026955e-39
-2.957288 0.018657478 0.74036819 3.5026926e-39
-2.964009 0.026554096 0.76053828 6.1738141e-39
-2.9631915 0.036303543 0.76267946 6.1723652e-39
-2.9537785 0.044950437 0.74288398 6.3567733e-39
-2.9643199 0.048143078 0.77057624 5.893263e-39
-2.9541392 0.062956877 0.75150836 6.1698485e-39
-2.9531474 0.072563544 0.75315249 5.9851055e-39
-2.9599802 0.077735126 0.77243268 3.2196234e-39
-2.967665 0.08339522 0.79405022 5.613086e-39
-2.9590492 0.09554816 0.77774835 2.8508464e-39
-2.9585831 0.10445455 0.78040636 2.7586522e-39
-2.9581175 0.11336096 0.78306425 2.7586522e-39
-2.9576521 0.12226745 0.78572202 2.5742638e-39
-2.9589012 0.13365078 0.79372406 5.9826014e-39
-2.9632151 0.14075351 0.80754358 5.7985702e-39
-2.9683294 0.14443952 0.82189512 2.666458e-39
-2.9678562 0.15348887 0.82459569 2.207998e-39
-2.9673834 0.16253816 0.82729614 2.2998335e-39
-2.9669101 0.17158766 0.82999665 2.3923864e-39
-2.9723194 0.17869523 0.84655261 2.7582935e-39
-2.9718425 0.18781455 0.84927392 3.2189129e-39
-2.9671075 0.19917732 0.8423242 5.9840377e-39
-2.9708891 0.20605277 0.85471666 2.9455714e-39
-2.9705396 0.21667302 0.85840017 5.3394348e-39
-2.9695041 0.22663254 0.86008602 4.9598483e-39
-2.9694588 0.2334103 0.86288059 1.3775324e-39
-2.968982 0.24252948 0.8656019 8.2651947e-40
-2.9727516 0.24793014 0.87733072 4.3177201e-39
-2.9717083 0.25794435 0.87902206 4.2258776e-39
-2.97316 0.26742792 0.88671482 4.3173571e-39
-2.9734735 0.27772018 0.891913 1.0101905e-39
-2.976737 0.28550509 0.90340137 4.1340421e-39
-2.972512 0.29611155 0.89740121 1.0101905e-39
-2.9720314 0.30530715 0.90014541 1.6530389e-39
-2.9715505 0.31450272 0.90288955 1.7448968e-39
-2.9710698 0.32369825 0.90563363 8.265573e-40
-2.9766862 0.33210263 0.92326355 2.4889289e-39
-2.9762018 0.34137142 0.9260295 3.133948e-39
-2.9757171 0.35064012 0.92879552 3.3183392e-39
-2.9752326 0.35990885 0.93156141 3.2261436e-39
-2.9811065 0.3686561 0.94998121 2.8602379e-39
-2.980618 0.37800127 0.95276994 3.593487e-39
-2.9801295 0.38734636 0.95555866 3.3183392e-39
-2.9859874 0.39639944 0.97406954 3.4105349e-39
-2.9854946 0.40582097 0.97688127 3.4108852e-39
-2.9850023 0.41524258 0.97969282 2.8580645e-39
-2.9845097 0.42466417 0.98250431 2.9484623e-39
-2.9840171 0.43408579 0.98531598 2.8569729e-39
-2.9835246 0.44350743 0.98812759 2.9484371e-39
-2.9830322 0.45292902 0.99093914 2.7644045e-39
-2.9825394 0.46235052 0.99375081 2.7644045e-39
-2.9820471 0.47177213 0.99656224 2.7640584e-39
-2.9881394 0.48160663 1.0159941 2.7640584e-39
-2.9876428 0.49110803 1.0188295 2.6718614e-39
-2.9805694 0.50003701 1.004997 2.579307e-39
-2.9800766 0.50945848 1.0078087 2.4871114e-39
-2.9861526 0.51961207 1.0273356 2.4878176e-39
-2.9856558 0.52911335 1.030171 2.4878176e-39
-2.9917188 0.53950632 1.0497692 2.5800133e-39
-2.9846623 0.54811603 1.0358418 2.4878176e-39
-2.9841654 0.55761743 1.0386772 2.4878176e-39
-2.9836686 0.5671187 1.0415126 2.395622e-39
-2.9831719 0.57662016 1.044348 2.1190365e-39
-2.9892144 0.58741194 1.064065 2.1190365e-39
-2.9887133 0.59699297 1.0669243 2.4845806e-39
-3.0013084 0.61934185 1.1079618 2.6686118e-39
-3.0007987 0.629089 1.1108707 2.1158037e-39
-3.0002894 0.63883638 1.1137793 2.5731876e-39
-2.9997797 0.64858371 1.1166881 1.8392211e-39
-2.9992702 0.65833098 1.119597 1.6544739e-39
-2.9987605 0.66807824 1.1225057 2.2962461e-39
-2.9982512 0.67782545 1.1254144 2.4806346e-39
-2.9977417 0.68757278 1.1283231 1.7470268e-39
-2.997232 0.69731998 1.1312319 2.2962461e-39
-2.9967225 0.70706731 1.1341405 1.6544739e-39
-2.9962127 0.71681458 1.1370494 1.6544739e-39
-2.9957032 0.72656196 1.1399581 2.0232508e-39
-2.9951935 0.73630917 1.1428672 1.6566445e-39
-2.994684 0.74605644 1.1457757 2.7630018e-39
-3.000912 0.75856012 1.1666913 2.4889289e-39
-3.0003979 0.76839042 1.1696249 2.947033e-39
-2.9998841 0.77822077 1.1725584 2.6708048e-39
-2.9993701 0.78805119 1.1754919 2.3963773e-39
-3.0058455 0.80109394 1.1972557 2.2123448e-39
-2.9497986 -0.25483042 0.60435057 4.1325987e-39
-2.9490161 -0.24551558 0.60639191 4.4081038e-39
-2.9522223 -0.23760557 0.61779141 1.2856969e-39
-2.9517744 -0.22903492 0.62034917 2.1122164e-39
-2.9513264 -0.22046404 0.6229068 1.2856969e-39
-2.9508781 -0.2118932 0.62546456 1.2856969e-39
-2.9532201 -0.20575842 0.63394427 3.6734198e-39
-2.9524317 -0.19637035 0.63600212 3.5815886e-39
-2.9535687 -0.18857946 0.64218336 4.8744573e-39
-2.9527791 -0.1791696 0.64424807 4.9666572e-39
-2.9519892 -0.16975975 0.64631271 5.0588556e-39
-2.955266 -0.16358286 0.65714467 4.6922437e-39
-2.9544711 -0.154119 0.65921903 4.8766364e-39
-2.9527717 -0.14756821 0.65778553 2.3027201e-39
-2.9466021 -0.13266565 0.64877301 5.7110507e-39
-2.9470994 -0.12448246 0.65352434 5.5277427e-39
-2.9461381 -0.11517578 0.65511662 5.6199369e-39
-2.9476078 -0.10887691 0.66148859 4.6065081e-39
-2.9566755 -0.10853109 0.68427956 5.7117682e-39
-2.9526873 -0.094970472 0.68013775 6.6351594e-39
-2.9592271 -0.092391275 0.69757438 6.1738212e-39
-2.9618106 -0.076076768 0.71102363 5.9915837e-39
-2.9610033 -0.06645745 0.71313405 6.0834164e-39
-2.9562378 -0.058104184 0.70481789 4.887048e-39
-2.9528737 -0.04710158 0.70113707 6.2678245e-39
-2.9613507 -0.044895474 0.72325134 6.7280725e-39
-2.9669473 -0.040221959 0.73923105 6.1738141e-39
-2.9661343 -0.030525424 0.74136007 6.1738156e-39
-2.9653211 -0.020828955 0.74348921 6.1738156e-39
-2.9645081 -0.011132498 0.74561864 5.8990293e-39
-2.9620435 -0.0021254104 0.74332786 3.1353493e-39
-2.9615815 0.0067112013 0.74596488 3.410497e-39
-2.9685736 0.013797687 0.76646417 6.0812654e-39
-2.9606576 0.024384664 0.751239 3.3183e-39
-2.9601955 0.033221278 0.75387603 2.9495189e-39
-2.9657044 0.038975187 0.77009994 2.9502251e-39
-2.9723647 0.042936768 0.78843027 6.0780144e-39
-2.964395 0.065969862 0.77840978 6.2598861e-39
-2.9641471 0.075079054 0.7816987 5.9836636e-39
-2.9684186 0.082239993 0.79543597 6.2584526e-39
-2.9629107 0.092414059 0.78604716 2.7586522e-39
-2.9624453 0.10132051 0.78870499 2.3005509e-39
-2.9619796 0.11022697 0.79136282 2.7586522e-39
-2.9652896 0.11460268 0.80150586 5.8904001e-39
-2.9657505 0.12973984 0.80914974 5.6148993e-39
-2.9665134 0.13463114 0.81315279 2.757576e-39
-2.9722533 0.14125498 0.83032715 2.5742638e-39
-2.9714727 0.14925285 0.83180934 5.6145321e-39
-2.9704449 0.15913182 0.83348018 5.79785e-39
-2.9694169 0.16901083 0.83515114 5.7074466e-39
-2.9722645 0.1769032 0.84564668 5.7982101e-39
-2.9757965 0.18460551 0.85777098 2.9426819e-39
-2.9753201 0.19372472 0.86049217 2.9426847e-39
-2.9756169 0.20472571 0.86595356 5.8943938e-39
-2.9808259 0.21011513 0.88127214 3.5016361e-39
-2.980345 0.21931088 0.88401639 1.4693679e-39
-2.9780259 0.23247136 0.88387001 3.9507326e-39
-2.9793837 0.23770203 0.88950455 1.3775324e-39
-2.9789031 0.24689764 0.89224869 1.2856969e-39
-2.9789689 0.2544986 0.89567363 3.8585342e-39
-2.9779415 0.2652888 0.89773691 1.0101905e-39
-2.9774609 0.2744844 0.9004811 1.0101905e-39
-2.97698 0.28367993 0.9032253 1.6530389e-39
-2.9764993 0.29287571 0.90596938 1.4693763e-39
-2.9760184 0.30207127 0.90871352 4.5920551e-40
-2.9755378 0.3112669 0.9114576 1.4719127e-39
-2.9750569 0.32046238 0.9142018 3.0421027e-39
-2.9807053 0.32884106 0.93189973 3.1342983e-39
-2.9802206 0.33810979 0.93466586 3.133948e-39
-2.9861357 0.34667724 0.95311117 3.2261436e-39
-2.9856472 0.35602245 0.95590001 3.2261436e-39
-2.9851584 0.36536759 0.9586888 3.4105349e-39
-2.9846702 0.37471274 0.96147752 3.8697137e-39
-2.9841814 0.38405785 0.9642663 3.4105349e-39
-2.9900725 0.39308402 0.98284841 3.3183392e-39
-2.9895799 0.40250558 0.98566002 3.4105349e-39
-2.9890873 0.41192713 0.98847169 3.3186895e-39
-2.9885948 0.42134875 0.99128306 3.0424558e-39
-2.9881022 0.43077037 0.99409485 3.2253981e-39
-2.9876096 0.44019198 0.99690634 2.8569729e-39
-2.9871171 0.44961357 0.99971795 2.7640584e-39
-2.9866245 0.4590351 1.0025296 2.6722089e-39
-2.9861319 0.46845666 1.0053412 2.1215533e-39
-2.992259 0.4782632 1.0248471 2.6722089e-39
-2.9851468 0.48729983 1.0109645 2.9484371e-39
-2.9846544 0.49672154 1.0137758 2.5800133e-39
-2.9841616 0.50614309 1.0165875 2.4878176e-39
-2.990272 0.51626861 1.0361888 2.4871114e-39
-2.9897754 0.52576989 1.0390241 2.4878176e-39
-2.9892786 0.53527123 1.0418595 2.5800133e-39
-2.9887819 0.54477262 1.0446948 2.4878176e-39
-2.9882851 0.55427396 1.0475301 2.5800133e-39
-2.9877884 0.56377536 1.0503654 2.395622e-39
-2.9872918 0.57327682 1.0532008 2.1190365e-39
-2.9933686 0.58404034 1.0729924 2.7608088e-39
-2.9928677 0.59362143 1.0758517 2.7611633e-39
-3.0055351 0.6159119 1.117044 2.2998335e-39
-3.0050251 0.62565905 1.1199529 2.1158037e-39
-3.0045156 0.63540632 1.1228616 1.8395798e-39
-3.0040061 0.6451537 1.1257704 2.4809933e-39
-3.0034966 0.65490103 1.128679 2.3887991e-39
-3.0029869 0.66464823 1.131588 1.6548326e-39
-3.0024774 0.6743955 1.1344966 2.2966049e-39
-3.0019677 0.68414271 1.1374055 2.2966049e-39
-3.0014584 0.69389004 1.1403141 2.3887991e-39
-3.0009484 0.70363724 1.143223 1.6544739e-39
-3.0004392 0.71338457 1.1461316 1.8392211e-39
-2.9999294 0.72313184 1.1490406 2.0225361e-39
-2.9994199 0.73287922 1.1519493 2.5786092e-39
-3.0056884 0.74527067 1.1729172 2.9466798e-39
-3.0051742 0.75510085 1.1758511 2.9466798e-39
-3.0046606 0.76493126 1.1787844 2.3963829e-39
-3.0041466 0.77476162 1.181718 2.7630018e-39
-3.0036325 0.78459191 1.1846516 2.3963773e-39
-3.0101452 0.79760432 1.2064958 2.7630018e-39
-3.0096269 0.8075211 1.2094551 2.7630018e-39
-2.9512866 -0.25267863 0.60898858 1.2856969e-39
-2.9525793 -0.24839315 0.6140554 4.0407618e-39
-2.9576828 -0.24437977 0.62851983 3.6734198e-39
-2.9588213 -0.23669343 0.63466042 4.1325973e-39
-2.9580305 -0.22728078 0.6367237 4.0407618e-39
-2.9572399 -0.2178681 0.63878673 4.0407618e-39
-2.9596748 -0.21104421 0.64779478 2.0203809e-39
-2.9592235 -0.20241015 0.65037131 1.102026e-39
-2.9587722 -0.19377613 0.65294784 1.3775324e-39
-2.9604778 -0.18542373 0.66078937 4.5989551e-39
-2.9596817 -0.17595758 0.66286248 4.6911493e-39
-2.9609094 -0.16810317 0.6692974 4.6000467e-39
-2.9601123 -0.15861395 0.67137778 5.1560749e-39
-2.9593155 -0.14912476 0.6734581 5.2489964e-39
-2.9618556 -0.14639401 0.68097258 2.6722089e-39
-2.9583671 -0.13660313 0.67646104 5.3422696e-39
-2.9575706 -0.12711589 0.67854279 5.4344583e-39
-2.9631557 -0.1224688 0.69448185 5.3422626e-39
-2.9687233 -0.11751945 0.71050745 5.7117668e-39
-2.9679151 -0.10789777 0.71261638 5.9890684e-39
-2.9691312 -0.099687524 0.71917576 6.0812598e-39
-2.968322 -0.090042569 0.72129184 6.0816185e-39
-2.9675124 -0.080397725 0.7234081 5.8990279e-39
-2.9667029 -0.070752881 0.72552443 6.1741757e-39
-2.968647 -0.058255184 0.73573947 3.3183e-39
-2.9736054 -0.054255549 0.74983674 6.0812654e-39
-2.9719751 -0.034808736 0.75410682 6.172738e-39
-2.9728258 -0.026504364 0.75979388 3.2261044e-39
-2.9703441 -0.015361881 0.75837702 5.806475e-39
-2.973711 -0.0080334069 0.76992798 5.6228096e-39
-2.9709632 0.0091215093 0.77042532 3.2261044e-39
-2.9704978 0.018028004 0.77308309 3.2261044e-39
-2.9771461 0.026905732 0.79349291 5.8025065e-39
-2.9755673 0.032733444 0.79205108 3.499443e-39
-2.9747336 0.040925559 0.79348254 6.5404331e-39
-2.9737165 0.050918885 0.79522967 6.6311812e-39
-2.9726996 0.060912117 0.79697698 6.3517216e-39
-2.9757857 0.06840127 0.80789649 5.429415e-39
-2.9685054 0.081314079 0.79525548 5.6148908e-39
-2.9674911 0.091060124 0.79690415 5.7982059e-39
-2.9664772 0.10080618 0.79855269 5.7985646e-39
-2.9780698 0.1018732 0.82795703 2.666458e-39
-2.973105 0.11018401 0.81912559 5.5230624e-39
-2.9830878 0.1175623 0.84721863 2.1158037e-39
-2.9826114 0.12668148 0.84993982 2.390234e-39
-2.9821343 0.13580063 0.85266125 2.666458e-39
-2.9768715 0.14593981 0.84386843 5.2475559e-39
-2.9811809 0.15403895 0.85810381 2.573905e-39
-2.9748065 0.16576068 0.84721524 5.7982115e-39
-2.9802275 0.17227729 0.86354649 2.7586522e-39
-2.9808121 0.1822657 0.86929095 5.9826e-39
-2.9797699 0.19226213 0.87097645 5.9826056e-39
-2.9787276 0.20225854 0.87266183 5.8965518e-39
-2.9910235 0.20508617 0.90457869 3.9626142e-39
-2.9845989 0.21928325 0.89462614 4.3187879e-39
-2.9835467 0.22936437 0.89632344 4.4084766e-39
-2.9895699 0.23289241 0.91287649 1.3775394e-39
-2.9823189 0.24299651 0.8991043 4.409194e-39
-2.9886005 0.2514298 0.91840851 1.3775394e-39
-2.988116 0.26069847 0.92117447 1.7448884e-39
-2.9876313 0.2699672 0.92394048 9.1836197e-40
-2.9936075 0.27797264 0.94229734 4.5920551e-40
-2.9931192 0.28731796 0.94508606 1.1027728e-39
-2.9926307 0.29666311 0.94787478 3.2246947e-39
-2.992142 0.30600825 0.95066357 2.7676836e-39
-2.9916534 0.3153533 0.95345235 3.3183392e-39
-2.9976056 0.32381746 0.97194618 3.133948e-39
-2.9971132 0.33323902 0.97475779 3.2257905e-39
-2.9966204 0.34266067 0.9775694 3.593487e-39
-2.9961281 0.35208234 0.98038089 3.3183392e-39
-2.9892106 0.36207911 0.96739626 3.4105349e-39
-2.9951427 0.3709254 0.98600423 3.4108852e-39
-2.9946504 0.38034704 0.98881572 2.9524336e-39
-3.0008495 0.38940763 1.0081818 3.5027305e-39
-3.0003526 0.398909 1.0110172 3.5027305e-39
-2.999856 0.40841034 1.0138525 3.4105349e-39
-2.9993594 0.41791171 1.0166879 3.3186895e-39
-2.9988625 0.42741311 1.0195233 3.5938317e-39
-2.9983659 0.4369145 1.0223587 2.9491713e-39
-2.997869 0.44641578 1.0251942 2.7647773e-39
-2.9973724 0.45591703 1.0280294 2.9484371e-39
-2.9968755 0.4654184 1.030865 2.9484371e-39
-2.9963789 0.47491977 1.0337002 2.6722089e-39
-2.995882 0.48442104 1.0365357 2.6722089e-39
-2.9953856 0.49392256 1.0393709 2.7644045e-39
-2.9948883 0.50342387 1.0422064 2.7644045e-39
-3.0010293 0.51360106 1.0619056 2.6722089e-39
-3.0005283 0.52318203 1.0647649 2.2141076e-39
-3.0000277 0.53276318 1.067624 2.6718614e-39
-2.9995267 0.54234433 1.0704831 2.395622e-39
-2.9990258 0.55192548 1.0733423 2.5800133e-39
-2.9985247 0.56150657 1.0762014 2.395622e-39
-2.998024 0.57108778 1.0790607 2.3030677e-39
-3.0039012 0.59161872 1.102544 2.6686118e-39
-3.0097613 0.61248183 1.1261263 2.3005509e-39
-3.0092518 0.62222916 1.129035 2.5742638e-39
-3.015604 0.63367742 1.1498077 2.4809933e-39
-3.0082326 0.64172369 1.1348525 1.8395798e-39
-3.0077229 0.65147096 1.1377614 2.0236095e-39
-3.0140624 0.66316861 1.1586084 1.7466681e-39
-3.0135484 0.67299885 1.1615421 2.3884404e-39
-3.0130343 0.6828292 1.1644757 1.6544739e-39
-3.0125203 0.69265956 1.1674092 2.3887991e-39
-3.0120063 0.70248991 1.1703428 2.2962461e-39
-3.0114927 0.71232027 1.1732762 1.8388623e-39
-3.0109785 0.72215062 1.1762099 2.1150919e-39
-3.017556 0.73461425 1.1979799 2.7630018e-39
-3.0170374 0.74453098 1.2009393 2.7630018e-39
-3.0165191 0.75444776 1.2038984 2.7630018e-39
-3.0160005 0.76436436 1.206858 2.4889289e-39
-3.0154822 0.7742812 1.2098172 2.3963829e-39
-3.0149639 0.78419787 1.2127765 2.6704531e-39
-2.9549754 -0.25567243 0.61691576 2.0203809e-39
-2.9545307 -0.24716477 0.61945462 1.102026e-39
-2.9612732 -0.24727798 0.63624281 3.58159e-39
-2.9604826 -0.23788504 0.63829774 3.5815844e-39
-2.9596918 -0.22849193 0.64035267 3.5815844e-39
-2.9608278 -0.22075912 0.64650548 3.3060779e-39
-2.960036 -0.21134458 0.6485675 3.3060779e-39
-2.9629672 -0.20544842 0.65841615 9.1835496e-40
-2.9625795 -0.19594672 0.66152364 4.3205731e-39
-2.9640987 -0.18833604 0.66858166 4.2308914e-39
-2.9596188 -0.176191 0.66260511 5.3358026e-39
-2.9645283 -0.17101109 0.67708671 4.6943821e-39
-2.9637306 -0.16151975 0.6791656 5.1582287e-39
-2.9629326 -0.15202849 0.68124461 5.2497181e-39
-2.9656281 -0.14945571 0.68907946 2.7640584e-39
-2.9619844 -0.13952026 0.68424249 5.2500726e-39
-2.9576509 -0.12398867 0.68008387 5.6202914e-39
-2.9566765 -0.11460253 0.68167728 5.4376981e-39
-2.9738092 -0.066807002 0.74496108 5.5306069e-39
-2.9807401 -0.050168898 0.76940519 5.9890572e-39
-2.9771533 -0.038544968 0.76543468 3.2261044e-39
-2.9782748 -0.020823287 0.77583706 5.7142793e-39
-2.977453 -0.011041541 0.77798134 5.7142793e-39
-2.9758096 0.0085223261 0.7822693 5.896507e-39
-2.9743593 0.014893862 0.78138191 2.9495189e-39
-2.977705 0.028992787 0.79578382 6.6319154e-39
-2.9780452 0.038282569 0.80061823 6.7241055e-39
-2.9770265 0.048278078 0.80236214 6.6311868e-39
-2.9843588 0.053441782 0.82288665 2.8530044e-39
-2.9710002 0.070364259 0.79678905 5.5241329e-39
-2.9771132 0.074456029 0.81380844 2.666458e-39
-2.9766438 0.083432294 0.81648713 2.666458e-39
-2.9733796 0.096720837 0.81403637 5.8904057e-39
-2.9819932 0.098688737 0.83638918 2.757576e-39
-2.9815204 0.10773806 0.83908957 2.0232508e-39
-2.987042 0.11435328 0.85571545 2.5731876e-39
-2.9865654 0.12347249 0.85843682 2.6653818e-39
-2.9926465 0.13007849 0.87645555 2.6653818e-39
-2.9921656 0.13927415 0.87919962 2.5742638e-39
-2.9916849 0.14846982 0.88194382 2.3909515e-39
-2.991204 0.15766543 0.8846879 2.2998335e-39
-2.9907234 0.16686098 0.88743198 2.2998335e-39
-2.9902427 0.17605665 0.89017618 2.9426819e-39
-2.9897618 0.18525228 0.89292032 2.7608088e-39
-2.9892809 0.19444779 0.89566445 2.3030985e-39
-2.9871628 0.2079742 0.89617747 6.8177977e-39
-2.9877284 0.21680669 0.90137786 4.6976513e-39
-2.9940734 0.2203621 0.91874695 2.026506e-39
-2.9935884 0.22963069 0.92151308 5.5102279e-40
-2.9931042 0.23889942 0.92427897 3.6736861e-40
-2.9926198 0.2481682 0.92704481 3.6736861e-40
-2.992135 0.25743687 0.92981082 9.1867726e-41
-2.9916506 0.26670557 0.93257689 1.3800674e-39
-2.9911659 0.27597427 0.93534279 2.5811245e-39
-2.9906812 0.28524303 0.93810886 3.0421027e-39
-2.9966826 0.29337454 0.95658243 3.133948e-39
-2.9961941 0.30271971 0.95937115 3.3183392e-39
-2.9957056 0.31206486 0.96215987 3.2261436e-39
-3.0016909 0.32050207 0.98072511 3.593487e-39
-3.0011985 0.32992363 0.98353654 3.2261436e-39
-2.99424 0.34010032 0.9705261 3.5938373e-39
-2.9937513 0.34944552 0.973315 3.3183392e-39
-2.9997208 0.35818851 0.99197125 3.4105349e-39
-2.9992282 0.3676101 0.99478287 3.4105349e-39
-2.9987357 0.37703162 0.99759442 3.4105349e-39
-3.0049694 0.38606417 1.0170349 3.5027375e-39
-3.0044723 0.39556548 1.0198704 3.5027375e-39
-3.0039756 0.40506679 1.0227058 3.5027305e-39
-3.003479 0.41456819 1.0255412 3.1364647e-39
-3.0029821 0.42406961 1.0283766 3.4105349e-39
-3.0024855 0.43357098 1.0312119 3.8697137e-39
-3.0019889 0.44307232 1.0340472 3.0421027e-39
-3.001492 0.45257351 1.0368828 2.5814776e-39
-3.0009954 0.46207491 1.0397179 2.7647773e-39
-3.0004985 0.47157627 1.0425534 2.6725817e-39
-3.0000019 0.48107758 1.0453888 2.7644045e-39
-2.999505 0.49057904 1.0482242 2.7640584e-39
-2.9990084 0.50008041 1.0510596 2.7644045e-39
-3.0051835 0.51022947 1.0708332 2.7644045e-39
-3.0046828 0.51981056 1.0736922 2.4878176e-39
-3.0041821 0.52939171 1.0765514 2.6718614e-39
-3.0036812 0.5389728 1.0794104 2.395622e-39
-3.00318 0.54855394 1.0822698 2.4878176e-39
-3.0026793 0.55813503 1.0851289 2.395622e-39
-3.0021784 0.56771624 1.087988 2.0268395e-39
-3.0016773 0.57729727 1.0908474 2.0268395e-39
-3.0080919 0.58821797 1.1115487 2.0268395e-39
-3.0075865 0.59788209 1.1144326 2.6686118e-39
-3.013478 0.61879903 1.1381173 2.5731876e-39
-3.0129685 0.62854636 1.1410261 2.2962461e-39
-3.0124588 0.63829362 1.1439351 2.4809933e-39
-3.0188386 0.64987904 1.1648345 1.6544739e-39
-3.0183244 0.65970927 1.1677684 1.6544739e-39
-3.0178106 0.66953957 1.1707017 1.6544739e-39
-3.0172968 0.67936999 1.1736352 1.6548326e-39
-3.0167828 0.68920028 1.1765689 1.7466681e-39
-3.016269 0.6990307 1.1795024 2.2962461e-39
-3.022893 0.71129107 1.2013013 1.8392211e-39
-3.0223744 0.72120792 1.2042607 2.3020139e-39
-3.0218558 0.73112458 1.2072202 2.5811245e-39
-3.021337 0.7410413 1.2101794 2.947033e-39
-3.0208187 0.75095797 1.2131389 2.5811245e-39
-3.0203004 0.76087469 1.2160982 2.4889289e-39
-3.0197818 0.77079147 1.2190576 2.3967332e-39
-3.0192635 0.78070819 1.2220168 2.4889289e-39
-3.0187449 0.79062498 1.2249763 3.0392342e-39
-2.9562738 -0.2598702 0.61835712 4.0407618e-39
-2.9617951 -0.25607881 0.63376999 3.3060779e-39
-2.9629345 -0.24845126 0.63988745 3.5815844e-39
-2.9595079 -0.237123 0.63619 4.1326029e-39
-2.9652071 -0.23306611 0.65216208 3.2142424e-39
-2.9676137 -0.22575456 0.66130799 9.1835496e-40
-2.9677904 -0.21779802 0.66516191 3.2142424e-39
-2.9669924 -0.2083267 0.66723198 3.3060779e-39
-2.9661942 -0.19885556 0.66930228 3.397919e-39
-2.9658082 -0.19121876 0.67161411 1.2856969e-39
-2.9653568 -0.18258476 0.67419064 1.6534075e-39
-2.9649055 -0.17395076 0.67676717 2.395622e-39
-2.9628608 -0.16117734 0.67714083 5.9879936e-39
-2.9698555 -0.16121779 0.69458979 2.7644045e-39
-2.9694009 -0.15251723 0.69718611 2.7644045e-39
-2.968946 -0.14381687 0.69978249 2.7644045e-39
-2.9684911 -0.1351165 0.70237893 2.7644045e-39
-2.970252 -0.12803441 0.70981431 5.4348184e-39
-2.9737086 -0.1221285 0.72097909 3.0409914e-39
-2.9790821 -0.11749438 0.73638493 3.0409914e-39
-2.9776962 -0.090984426 0.74429607 3.0409914e-39
-2.9836624 -0.043401513 0.77960515 5.8039526e-39
-2.9787571 -0.029822119 0.77318132 6.3585697e-39
-2.9820168 -0.023833143 0.78389037 5.3455038e-39
-2.9791524 -0.0060532005 0.78436512 2.9502251e-39
-2.9786868 0.0028532567 0.78702301 3.1331871e-39
-2.9831233 0.012941906 0.80242836 5.802875e-39
-2.9752367 0.021648835 0.78646964 5.9894327e-39
-2.9824133 0.044368763 0.81413603 3.2232149e-39
-2.9882824 0.0502574 0.83131856 2.854075e-39
-2.9740238 0.067968316 0.80331081 5.5234127e-39
-2.9810052 0.0712974 0.82217211 2.6660992e-39
-2.9798667 0.083415084 0.82452756 5.7985646e-39
-2.9788382 0.093250729 0.82617813 5.7985646e-39
-2.9859169 0.095504239 0.8448211 2.757576e-39
-2.985589 0.10259725 0.84704405 5.6145307e-39
-2.9845512 0.11251495 0.84870762 5.7982059e-39
-2.9905193 0.12026355 0.86693382 2.4809933e-39
-2.9966335 0.12684262 0.88502359 2.6653818e-39
-2.9895964 0.13857082 0.87248236 5.8904015e-39
-2.9885488 0.1485745 0.87415832 5.707448e-39
-2.9875014 0.1585782 0.87583387 5.7070879e-39
-2.9864542 0.16858195 0.87750983 5.7074466e-39
-2.9942298 0.17282079 0.89874434 3.0348804e-39
-2.9900208 0.18608201 0.89392263 5.9836916e-39
-2.9990613 0.19856295 0.92185146 3.5034395e-39
-2.9985766 0.20783173 0.92461735 3.2264939e-39
-2.9980922 0.21710049 0.92738342 3.1342983e-39
-2.9976077 0.22636922 0.9301492 2.3077676e-39
-2.997123 0.2356378 0.93291527 2.6736733e-39
-2.9966385 0.2449066 0.93568128 2.8580645e-39
-2.9961541 0.25417528 0.93844712 3.3190427e-39
-2.9956694 0.26344404 0.94121313 3.226847e-39
-3.0017118 0.27139574 0.95971227 3.2264939e-39
-3.0012231 0.28074101 0.96250111 3.5009326e-39
-3.0007348 0.29008618 0.96528983 3.593487e-39
-3.000246 0.29943129 0.96807855 3.4105349e-39
-2.9997575 0.30877638 0.97086728 3.3183392e-39
-2.999269 0.31812152 0.97365624 3.3183392e-39
-2.9987805 0.32746667 0.97644496 3.6856826e-39
-3.0047908 0.33602986 0.99512702 3.3183392e-39
-3.0042984 0.3454515 0.99793851 3.4108852e-39
-3.0038059 0.35487309 1.0007501 3.5034395e-39
-3.0033131 0.36429465 1.0035619 3.4105349e-39
-3.0095859 0.37321934 1.0230526 3.5027305e-39
-3.009089 0.38272071 1.025888 3.5027305e-39
-3.0085924 0.39222211 1.0287232 3.5027305e-39
-3.0080955 0.40172344 1.0315586 3.1364647e-39
-3.0075989 0.41122475 1.034394 2.9524336e-39
-3.007102 0.42072618 1.0372295 3.5034395e-39
-3.0066054 0.43022755 1.0400649 3.5034395e-39
-3.0061085 0.43972883 1.0429003 3.4108852e-39
-3.0056119 0.44923016 1.0457356 3.1346514e-39
-3.005115 0.4587315 1.0485711 2.9484623e-39
-3.0046184 0.46823281 1.0514065 2.8569729e-39
-3.0041218 0.47773418 1.0542417 2.7647773e-39
-3.0036249 0.48723558 1.0570771 2.4903358e-39
-3.0031285 0.49673697 1.0599126 2.9484371e-39
-3.0026317 0.50623834 1.0627478 2.6722089e-39
-3.008837 0.51643902 1.0826197 2.6722089e-39
-3.0083361 0.52602011 1.0854788 2.6722089e-39
-3.0078351 0.5356012 1.088338 2.5800133e-39
-3.0073342 0.54518235 1.0911971 2.4878176e-39
-3.0068338 0.55476362 1.0940561 2.4878176e-39
-3.0132926 0.56548876 1.1147857 2.3030677e-39
-3.0127873 0.57515293 1.1176697 2.7608088e-39
-3.0117767 0.59448123 1.1234376 2.3909515e-39
-3.0177045 0.61536908 1.1471994 2.4809933e-39
-3.017195 0.62511635 1.1501082 1.8395798e-39
-3.0166855 0.63486379 1.1530169 2.4809933e-39
-3.0231011 0.64641976 1.1739943 2.2054868e-39
-3.0225871 0.65625 1.1769279 2.2966049e-39
-3.0220733 0.66608042 1.1798613 2.2966049e-39
-3.0215592 0.67591071 1.182795 1.6548326e-39
-3.0282295 0.6879679 1.2046227 1.5622796e-39
-3.0277109 0.69788456 1.2075821 1.6544739e-39
-3.0271926 0.7078014 1.2105415 2.5731932e-39
-3.026674 0.71771818 1.213501 2.489282e-39
-3.0261557 0.72763497 1.2164602 2.6733201e-39
-3.0256371 0.73755175 1.2194196 2.6733201e-39
-3.0251186 0.74746835 1.222379 2.6733201e-39
-3.0246005 0.75738508 1.2253381 2.6733201e-39
-3.0240817 0.76730186 1.2282976 2.6733201e-39
-3.0235634 0.77721864 1.2312568 2.6729698e-39
-3.0230448 0.7871353 1.2342165 2.9481176e-39
-3.0225265 0.79705215 1.2371756 2.7655158e-39
-2.9567227 -0.2565088 0.62092012 9.1835496e-40
-2.9562814 -0.24806409 0.62344015 9.1835496e-40
-2.9611239 -0.24689555 0.63603395 4.2244342e-39
-2.9564033 -0.23374937 0.62988538 3.6734226e-39
-2.9668677 -0.2342777 0.65578926 3.2142424e-39
-2.9722054 -0.2301843 0.67087328 3.3060779e-39
-2.970906 -0.22015889 0.67192936 6.4284847e-40
-2.9704547 -0.21152484 0.67450583 9.1835496e-40
-2.9700034 -0.20289089 0.67708236 1.1020302e-39
-2.9695518 -0.19425692 0.67965895 8.2651947e-40
-2.9691007 -0.18562299 0.68223536 1.7495464e-39
-2.9686491 -0.17698896 0.68481207 2.6725817e-39
-2.9681981 -0.16835503 0.68738854 2.6722089e-39
-2.9723203 -0.15948831 0.70148641 5.1596678e-39
-2.9731731 -0.15557899 0.70529312 2.7644045e-39
-2.9733784 -0.14851083 0.70883715 5.1596678e-39
-2.9722633 -0.13817826 0.71048594 2.6722089e-39
-2.9718084 -0.12947772 0.71308231 2.7644045e-39
-2.9774086 -0.12451768 0.72919315 5.3447709e-39
-2.9824517 -0.11176731 0.74725574 2.7647773e-39
-2.9819899 -0.10293067 0.74989271 2.9484371e-39
-2.9815278 -0.094093934 0.75252974 3.0409914e-39
-2.9806039 -0.076420598 0.75780386 3.0409914e-39
-2.9823015 -0.069301642 0.76509619 6.1745386e-39
-2.9826462 -0.060259439 0.76983654 6.082343e-39
-2.9816337 -0.050342869 0.77156144 6.3582054e-39
-2.9805315 -0.040625919 0.77297771 4.7004945e-39
-2.9788272 -0.03547398 0.77093232 5.7146465e-39
-2.9839458 -0.027000226 0.78734809 2.6747298e-39
-2.98348 -0.018093843 0.79000604 2.5825314e-39
-2.9885528 -0.0097717317 0.80624217 5.7117584e-39
-2.9787316 0.0010055595 0.78634202 5.8068379e-39
-2.9777129 0.010733857 0.78797108 6.0816283e-39
-2.9782679 0.019243296 0.79300719 6.2642217e-39
-2.9772482 0.028973116 0.7946344 5.9887096e-39
-2.9871874 0.031624369 0.82059067 5.8021436e-39
-2.9830387 0.044083558 0.81557608 5.896514e-39
-2.9820096 0.053894565 0.81721449 5.894356e-39
-2.9853668 0.059162512 0.82785726 3.2196234e-39
-2.9848974 0.068138778 0.83053595 2.7586522e-39
-2.990787 0.074221089 0.84785199 2.207998e-39
-2.990314 0.08327049 0.8505525 2.5742638e-39
-2.989841 0.092319891 0.85325301 2.3909515e-39
-2.9954269 0.098816164 0.86998832 2.6653818e-39
-2.9949503 0.10793532 0.87270945 2.6657405e-39
-2.9906771 0.11834365 0.86650401 5.706376e-39
-3.0006208 0.12360681 0.89359182 2.5742638e-39
-3.00014 0.1328024 0.89633602 2.666458e-39
-2.9996593 0.14199807 0.89908022 2.2998335e-39
-2.9991784 0.15119372 0.90182424 2.3005509e-39
-2.9986978 0.16038923 0.90456837 2.3923864e-39
-2.9925623 0.17481788 0.89543658 6.0751473e-39
-2.9977365 0.1787806 0.91005659 3.2185626e-39
-2.9919109 0.19712494 0.90337974 6.5440961e-39
-3.0025959 0.20457016 0.93325371 3.3186895e-39
-3.0021112 0.21383892 0.93601966 3.5938373e-39
-3.0016265 0.22310752 0.93878573 3.2261436e-39
-3.001142 0.23237623 0.94155151 3.1342983e-39
-3.0006573 0.24164499 0.94431752 3.133948e-39
-3.0001729 0.25091362 0.94708353 3.2261436e-39
-3.0062525 0.25876203 0.96563131 3.5009326e-39
-3.0057638 0.26810709 0.96842009 3.3183392e-39
-3.0052755 0.27745244 0.97120875 3.4105349e-39
-3.0047867 0.28679755 0.97399753 3.6856826e-39
-3.004298 0.29614267 0.97678632 3.6856826e-39
-3.0038097 0.30548787 0.97957498 3.4105349e-39
-3.0033212 0.31483293 0.98236388 3.3183392e-39
-3.0028324 0.32417804 0.98515266 3.4105349e-39
-3.0023439 0.3335233 0.98794132 3.5027305e-39
-3.0083838 0.34213611 1.0067172 3.4105349e-39
-3.0078909 0.3515577 1.0095289 3.5034395e-39
-3.0073984 0.36097926 1.0123405 3.5027305e-39
-3.006906 0.37040085 1.015152 3.5027305e-39
-3.0132089 0.37937728 1.0347409 3.5027305e-39
-3.0059209 0.38924402 1.0207752 3.6871217e-39
-3.0054283 0.39866558 1.0235866 3.5034395e-39
-3.0117185 0.40788129 1.0432472 2.9527839e-39
-3.0112219 0.41738272 1.0460826 3.5034395e-39
-3.010725 0.42688406 1.048918 3.5034395e-39
-3.0102284 0.43638539 1.0517534 3.4108852e-39
-3.0097318 0.44588664 1.0545887 3.5938373e-39
-3.0092349 0.45538801 1.0574242 3.2264939e-39
-3.0087383 0.46488938 1.0602595 3.0424558e-39
-3.0082414 0.47439069 1.0630949 2.4896323e-39
-3.0077448 0.48389217 1.0659301 2.5825314e-39
-3.0134923 0.50348651 1.0886878 2.7644045e-39
-3.0129914 0.51306748 1.0915471 2.5800133e-39
-3.0124907 0.52264863 1.0944061 2.6722089e-39
-3.0119896 0.53222966 1.0972654 2.6722089e-39
-3.0114887 0.54181087 1.1001246 2.5800133e-39
-3.010988 0.55139196 1.1029837 2.5800133e-39
-3.017483 0.56208801 1.1237904 2.3030677e-39
-3.0169778 0.57175219 1.1266744 2.2998335e-39
-3.0159674 0.59108055 1.1324422 2.3005509e-39
-3.0224407 0.60219181 1.1533729 2.0236095e-39
-3.0219312 0.61193907 1.1562816 1.8395798e-39
-3.0214214 0.6216864 1.1591904 1.8395798e-39
-3.0278773 0.63313013 1.1802204 1.6548326e-39
-3.0273635 0.64296055 1.1831537 1.7470268e-39
-3.0268493 0.65279084 1.1860875 2.3887991e-39
-3.0263355 0.66262108 1.189021 2.2054868e-39
-3.0258217 0.67245156 1.1919545 1.6548326e-39
-3.0325294 0.6844781 1.2138631 1.6548326e-39
-3.0320108 0.69439489 1.2168225 1.8392211e-39
-3.0314925 0.70431173 1.2197816 2.1143856e-39
