# .PCD v0.7 - Point Cloud Data file format
VERSION 0.7
FIELDS x y z rgb
SIZE 4 4 4 4
TYPE F F F F
COUNT 1 1 1 1
WIDTH 1049
HEIGHT 1
VIEWPOINT 0 0 0 1 0 0 0
POINTS 1049
DATA ascii
2.3041832 1.081187 0.057725664 1.3354266e-38
2.2999704 1.0852051 0.055828616 1.4090757e-38
2.3094928 1.0991461 0.06419012 1.3998916e-38
2.3204339 1.1178436 0.074271157 1.2985487e-38
2.3066897 1.1186446 0.065904871 1.363014e-38
2.3084526 1.1283194 0.068707898 1.3722334e-38
2.3214955 1.1458516 0.079883866 1.4275141e-38
2.3186872 1.1535079 0.079500183 1.4183303e-38
2.3269479 1.1672496 0.087045148 1.4642477e-38
2.3288844 1.1772416 0.090011902 1.4458448e-38
2.3312194 1.1875478 0.093280979 1.4366255e-38
2.3238032 1.1944413 0.089909695 1.3538656e-38
2.3230615 1.206175 0.091526821 1.4273342e-38
2.3301754 1.2195874 0.098303467 1.4181865e-38
2.3320954 1.2297523 0.10129066 1.4182222e-38
2.3345926 1.2403495 0.10471159 1.3998909e-38
2.3365023 1.2505766 0.10770328 1.3905994e-38
2.3320751 1.2579271 0.10626328 1.4089658e-38
2.3366106 1.270625 0.11131763 1.3813798e-38
2.3363099 1.2788558 0.11258785 1.3076972e-38
2.3372698 1.2879312 0.11478768 1.3905627e-38
2.3379636 1.2994357 0.1172528 1.362942e-38
2.2728913 0.99437743 0.022995317 1.5470803e-38
2.2744367 1.0069592 0.026178092 1.4366974e-38
2.2732992 1.0146939 0.026842456 1.4276217e-38
2.2855995 1.0734718 0.044856712 1.399892e-38
2.2907376 1.0848632 0.05005293 1.3998914e-38
2.2942052 1.0953696 0.054058351 1.3906361e-38
2.3036902 1.109378 0.062408462 1.372197e-38
2.3054395 1.1219411 0.065714195 1.2708891e-38
2.3037927 1.1305969 0.066226311 1.3630134e-38
2.3057573 1.1404271 0.069181785 1.3906004e-38
2.3042035 1.1499749 0.069909312 1.3999265e-38
2.31739 1.1666511 0.081022888 1.4365893e-38
2.3193393 1.1766323 0.083995521 1.4457369e-38
2.3211193 1.1883808 0.087176144 1.4274415e-38
2.3234212 1.1986903 0.090425059 1.4273698e-38
2.3238497 1.2106994 0.092815146 1.4089659e-38
2.3218997 1.2197077 0.093201913 1.3997469e-38
2.3238332 1.2298697 0.096196912 1.3813438e-38
2.322638 1.2380551 0.096905403 1.4181145e-38
2.3157492 1.2409465 0.093152478 1.3260997e-38
2.3286831 1.2562053 0.10385887 1.3904917e-38
2.3260338 1.2631336 0.1034447 1.381308e-38
2.3248343 1.2713623 0.10415822 1.3537572e-38
2.3245318 1.2850993 0.10640147 1.2801093e-38
2.3265247 1.2953101 0.10944183 1.3905264e-38
2.3236697 1.3021064 0.10887692 1.353686e-38
2.2667582 0.99575049 0.019441634 1.5564086e-38
2.2669411 1.0076375 0.021658029 1.4643195e-38
2.259083 1.0104424 0.017290015 1.3447538e-38
2.2605989 1.0174133 0.01946174 1.4366258e-38
2.27846 1.082765 0.042081431 1.3906717e-38
2.2849772 1.0949947 0.048279632 1.4089313e-38
2.2913837 1.1072184 0.054408357 1.3721606e-38
2.2902236 1.1151388 0.055091504 1.3537575e-38
2.2985618 1.1342858 0.063640907 1.3537933e-38
2.2907112 1.1383629 0.059502527 1.3077689e-38
2.3007958 1.1530324 0.068340786 1.4089664e-38
2.3091879 1.1668454 0.075979762 1.4181495e-38
2.3111506 1.1768236 0.078960225 1.4180779e-38
2.3049669 1.1836531 0.076340728 1.3997827e-38
2.3151956 1.1988508 0.085361615 1.4089665e-38
2.307898 1.2031703 0.08160843 1.3261345e-38
2.3091202 1.2114531 0.083830543 1.3076238e-38
2.3083529 1.2193393 0.084750935 1.3997462e-38
2.3137395 1.2317122 0.090274729 1.3904549e-38
2.3173237 1.2429841 0.094487838 1.3813075e-38
2.3198156 1.2546659 0.098097265 1.3813077e-38
2.3183217 1.2630881 0.098662637 1.3813075e-38
2.3165989 1.2713987 0.099066518 1.353757e-38
2.3220634 1.2844802 0.10476399 1.3813068e-38
2.3134181 1.2877806 0.099996179 1.2708896e-38
2.3155327 1.3022132 0.10385886 1.362904e-38
2.3212397 1.3152531 0.10969881 1.3904921e-38
2.2591403 0.99634176 0.014830433 1.4918697e-38
2.2506733 1.0022624 0.010636759 1.381416e-38
2.2543447 1.0109097 0.014439496 1.3354261e-38
2.253114 1.0158861 0.014558154 1.4366968e-38
2.2753828 1.0836971 0.040341377 1.3906353e-38
2.2846363 1.099673 0.048896383 1.3722326e-38
2.2960997 1.1145068 0.058617204 1.4089305e-38
2.2813661 1.1141628 0.049435847 1.2892571e-38
2.2830906 1.1301811 0.053337488 1.3537214e-38
2.3028083 1.1456771 0.068285108 1.3721606e-38
2.2915411 1.1525755 0.062531054 1.38138e-38
2.2949281 1.1633563 0.066535152 1.4089302e-38
2.3000562 1.1752312 0.071810752 1.4181135e-38
2.2842369 1.1724398 0.061524209 1.3353539e-38
2.2997193 1.1885058 0.073950887 1.390635e-38
2.2985456 1.1965714 0.074651413 1.4181146e-38
2.3005173 1.2066221 0.077650227 1.3997824e-38
2.2935898 1.214618 0.074776821 1.2984392e-38
2.3024127 1.229793 0.082923256 1.3720876e-38
2.3012314 1.2379171 0.083629534 1.3811996e-38
2.3001339 1.2458975 0.084362224 1.3076603e-38
2.3101549 1.2616932 0.093360446 1.3720881e-38
2.3070443 1.2705553 0.093002751 1.372088e-38
2.305856 1.2787373 0.093715005 1.362976e-38
2.3165019 1.2953281 0.10324053 1.3720513e-38
2.3073261 1.3022286 0.09878137 1.3627978e-38
2.3105524 1.3136972 0.10280773 1.4272986e-38
2.3143685 1.3274003 0.10759474 1.0401499e-38
2.303509 1.3284676 0.10106115 3.4947893e-39
2.2536635 1.0041723 0.012825787 1.501089e-38
2.2497549 1.0104038 0.011508993 1.4366611e-38
2.2486343 1.0180783 0.012172987 1.4090377e-38
2.2451537 1.0269233 0.011583365 1.335462e-38
2.264246 1.0821843 0.033179663 1.3813796e-38
2.2723143 1.0952708 0.040489778 1.3813803e-38
2.2771606 1.1083606 0.04580579 1.3721601e-38
2.2803247 1.1187996 0.049611554 1.3537572e-38
2.275856 1.1240401 0.047772441 1.2617067e-38
2.2836409 1.1381501 0.055088133 1.2340833e-38
2.2705898 1.1406214 0.047446325 1.3077317e-38
2.2863142 1.1573671 0.060143139 1.4090378e-38
2.281934 1.1633649 0.05849297 1.4181496e-38
2.2873542 1.1772107 0.064298153 1.2985111e-38
2.2958069 1.189932 0.071781315 1.4272962e-38
2.2938175 1.1988844 0.072133973 1.4180775e-38
2.2926018 1.2068906 0.072797909 1.3997107e-38
2.2962048 1.2180281 0.07699886 1.390527e-38
2.2863309 1.2247093 0.072068758 1.3720877e-38
2.2930853 1.2380074 0.078602977 1.3628676e-38
2.2933593 1.2490503 0.080726296 1.362904e-38
2.292182 1.2571721 0.081434637 1.3628681e-38
2.2941463 1.2674102 0.084462129 1.3628325e-38
2.2976921 1.2787762 0.088668041 1.3813084e-38
2.3124301 1.2977191 0.10114307 1.372088e-38
2.3024988 1.3045992 0.096212618 1.3445015e-38
2.3013093 1.3128204 0.096930914 1.3629046e-38
2.2982824 1.3194362 0.096227728 1.3906353e-38
2.2453446 1.0043924 0.00771514 1.5654824e-38
2.244225 1.0120592 0.0083784526 1.4734306e-38
2.2428296 1.0195485 0.0088398103 1.4367324e-38
2.2585919 1.0838126 0.029967792 1.3721241e-38
2.2647486 1.0958307 0.035905365 1.3630125e-38
2.2710471 1.1090453 0.042142544 1.3629403e-38
2.2745955 1.1204395 0.046355315 1.3630119e-38
2.2777429 1.1309246 0.05015862 1.3537203e-38
2.2941155 1.1538372 0.064347886 1.381307e-38
2.2753365 1.1568097 0.053249076 1.3076962e-38
2.286473 1.1711214 0.062675156 1.2984402e-38
2.2824464 1.1775974 0.061328426 1.4273332e-38
2.2830415 1.187463 0.063442357 1.3075508e-38
2.2860291 1.1969285 0.066966526 1.4089288e-38
2.287894 1.2092288 0.070297368 1.3996739e-38
2.2867265 1.21729 0.071000755 1.3720164e-38
2.2826757 1.2235878 0.069607735 1.28922e-38
2.2870834 1.2371792 0.074740976 1.3628674e-38
2.2886889 1.2491139 0.077846386 1.362832e-38
2.290849 1.2594924 0.08102005 1.3811996e-38
2.301841 1.2750483 0.09057685 1.2523417e-38
2.3000891 1.2833918 0.090968609 1.2430884e-38
2.298337 1.2917354 0.091360308 1.2341189e-38
2.2965851 1.300079 0.091751963 1.2615997e-38
2.2948334 1.3084227 0.092143819 1.2247916e-38
2.2930813 1.3167665 0.092535675 1.2431572e-38
2.2927823 1.3266183 0.094093837 1.2431237e-38
2.3033569 1.3424141 0.10343452 8.7445298e-39
2.232502 1.0186003 0.0022790078 1.4550642e-38
2.2326329 1.028545 0.0041195285 1.4182937e-38
2.2522769 1.0917324 0.027459953 1.2893284e-38
2.2586868 1.1187651 0.036210742 1.3629767e-38
2.2809281 1.1580665 0.056932859 1.3814153e-38
2.2821603 1.1813736 0.061819457 1.2984402e-38
2.2787287 1.1977154 0.062586747 1.2892193e-38
2.2801349 1.2072831 0.065149926 1.3905261e-38
2.2821426 1.2173685 0.068177179 1.3996019e-38
2.2738461 1.225054 0.064401314 1.3534681e-38
2.2758517 1.235182 0.067434825 1.3536126e-38
2.2805877 1.2486906 0.072756648 1.3628313e-38
2.2780125 1.2563632 0.072520174 1.3811633e-38
2.2846973 1.2698122 0.079037823 1.3536131e-38
2.2857003 1.2775884 0.081034638 1.2800009e-38
2.2861626 1.2850181 0.082635432 1.3352104e-38
2.2802134 1.2946965 0.080665112 1.2707448e-38
2.2921813 1.3105482 0.090878345 1.2062802e-38
2.2904291 1.3188919 0.091270067 1.2154274e-38
2.2886772 1.3272355 0.091661826 1.2246823e-38
2.2222419 1.0094699 -0.0056879343 1.4735752e-38
2.2251046 1.0290762 -0.00044686813 1.4366601e-38
2.242687 1.0870936 0.020702768 1.3629413e-38
2.2445567 1.0966054 0.023543084 1.3813434e-38
2.2447352 1.1069449 0.025483133 1.3629403e-38
2.254035 1.1209974 0.033726394 1.3445731e-38
2.2562864 1.1510849 0.040443454 1.316914e-38
2.2543285 1.1613547 0.04104865 1.4181858e-38
2.2744162 1.2079676 0.061731063 1.3076957e-38
2.2642026 1.2132449 0.056342158 1.3720161e-38
2.2631195 1.2210786 0.057057705 1.2982239e-38
2.2620363 1.2289125 0.05777343 1.3075142e-38
2.2662368 1.2402707 0.06238322 1.2892198e-38
2.2705691 1.2508043 0.066928893 1.3811269e-38
2.2694063 1.2588781 0.067637749 1.3903109e-38
2.2746828 1.2713826 0.07311634 1.3536123e-38
2.2814574 1.2850275 0.079724468 1.3351377e-38
2.2912812 1.30433 0.089220926 1.2246823e-38
2.2817864 1.30532 0.083518587 1.3259181e-38
2.2806098 1.3134955 0.084236816 1.3075147e-38
2.2753658 1.3233733 0.082738273 1.2799282e-38
2.2159724 1.0267432 -0.006512634 1.4458436e-38
2.233958 1.105499 0.018555887 1.3537205e-38
2.2358351 1.115064 0.021410124 1.353757e-38
2.2419674 1.1272488 0.02736211 1.3445008e-38
2.2503183 1.1813273 0.042100027 1.4273336e-38
2.256578 1.1940244 0.048221469 1.427333e-38
2.2613945 1.2032288 0.052831694 1.3075505e-38
2.2645831 1.2302397 0.059584793 1.3811269e-38
2.2627149 1.2510166 0.06210446 1.3719072e-38
2.2666979 1.2715175 0.068197399 1.3350657e-38
2.268707 1.2818011 0.071260713 1.3167699e-38
2.2623811 1.2883929 0.068511136 1.3075863e-38
2.269038 1.302026 0.075043872 1.3166982e-38
2.2635343 1.307273 0.072565541 1.233939e-38
2.2686331 1.3320698 0.080109231 1.2430518e-38
2.2086844 1.0220933 -0.01184679 1.4550275e-38
2.2232711 1.0956677 0.010200758 1.3721244e-38
2.2264068 1.1059504 0.013961327 1.3721244e-38
2.2360992 1.128722 0.023990246 1.3444294e-38
2.2373121 1.1398453 0.026708977 1.3629048e-38
2.2422812 1.151484 0.031844482 1.3997834e-38
2.2571108 1.2134118 0.051981732 1.2524136e-38
2.2523808 1.2170467 0.049696989 1.3167709e-38
2.2469885 1.2338259 0.04932775 1.3075512e-38
2.2523692 1.2583445 0.056996785 1.3351008e-38
2.2513223 1.2862643 0.061288752 1.3351013e-38
2.2578156 1.2997953 0.067702323 1.2982948e-38
2.2630265 1.3124782 0.073171951 1.2706719e-38
2.2577956 1.3174006 0.070805013 1.2246106e-38
2.259799 1.3327667 0.074764088 1.2982956e-38
2.2663324 1.3422153 0.080480114 1.1235912e-38
2.1911685 1.0015987 -0.026315933 1.4277665e-38
2.2305317 1.1625844 0.026535258 1.3076957e-38
2.234493 1.1734416 0.030908551 1.2984055e-38
2.2298203 1.181372 0.029419061 1.372088e-38
2.2362802 1.2048542 0.037572935 1.3720874e-38
2.2413728 1.2438041 0.047616959 1.2798925e-38
2.2465193 1.2885823 0.058725677 1.3074784e-38
2.2538385 1.320608 0.068922937 1.2798923e-38
2.2636991 1.3443258 0.079223551 1.1601818e-38
2.2586079 1.3586881 0.078613125 6.7198133e-39
2.2420924 1.3116747 0.060071155 1.2523055e-38
2.2409425 1.3197428 0.06078681 1.2523061e-38
2.2443919 1.3312215 0.064953193 1.2614899e-38
2.2319391 1.3352081 0.057949815 1.1326697e-38
2.2104464 1.0257163 -0.0101151 1.4090017e-38
2.2317801 1.3188506 0.054957144 1.2341191e-38
2.2148592 1.2920655 0.039743502 9.5775135e-39
2.226249 1.3359115 0.054551989 9.8562387e-39
2.1856303 1.0472988 -0.021658268 1.3905637e-38
2.2008212 1.2661687 0.026471172 1.1694382e-38
2.2141268 1.3136446 0.043108277 5.8029325e-39
2.2153909 1.3247597 0.045857377 5.9855049e-39
2.1818228 1.5096474 0.057790816 3.7785943e-39
2.172323 1.416132 0.035363924 2.8534024e-39
2.1823571 1.4415452 0.046071984 4.5154461e-39
2.1760969 1.4977417 0.052139822 4.4218435e-39
2.167737 1.4183989 0.032926194 4.6065599e-39
2.1709735 1.4297943 0.036946081 5.8065422e-39
2.1720855 1.4436978 0.040094361 6.7292202e-39
2.1415553 1.3650044 0.0072715376 4.4196071e-39
2.1631274 1.4206679 0.030474277 6.7288475e-39
2.158113 1.4256128 0.028245108 5.345899e-39
2.1564438 1.4335624 0.028618518 5.1589896e-39
2.1242495 1.1954846 -0.033435378 2.388083e-39
2.1312289 1.2267464 -0.023583516 1.7448744e-39
2.1472836 1.3479234 0.0077953511 6.7230713e-39
2.143544 1.3551697 0.0067626429 4.970983e-39
2.1419575 1.3578603 0.0062566134 4.4203456e-39
2.1462989 1.4196473 0.019876275 2.0250865e-39
2.1267536 1.2813872 -0.016685983 1.1601117e-38
2.1347916 1.3291899 -0.0032521093 7.9212586e-39
2.1302559 1.3341181 -0.0051879506 7.3669904e-39
2.1324158 1.3444445 -0.0020238929 6.7230503e-39
2.1046495 1.0528971 -0.070797198 4.5917748e-40
2.1196396 1.3230276 -0.013722012 7.2748003e-39
2.1205347 1.3408633 -0.010012292 6.6265555e-39
2.1213086 1.35258 -0.0074601085 6.3510448e-39
2.1163497 1.3243476 -0.015525141 5.6138539e-39
2.1026561 1.3228731 -0.024262676 6.4403607e-39
2.1067574 1.3344365 -0.019677803 6.3496169e-39
2.1091251 1.3572168 -0.014181486 8.5618972e-39
2.1144445 1.3702841 -0.0085766166 6.99281e-39
2.1309404 1.424294 0.011191191 3.4951551e-39
2.0969799 1.331139 -0.026314013 9.5746002e-39
2.0872269 1.342247 -0.030386006 9.4806179e-39
2.0738862 1.3370143 -0.039570022 9.9423135e-39
2.0599165 1.334958 -0.048581641 1.031074e-38
2.0625186 1.3487326 -0.044533521 8.8381408e-39
2.0646248 1.3694099 -0.039571274 1.0955018e-38
2.0688424 1.3815651 -0.034809604 9.2951728e-39
2.046706 1.3215417 -0.05913309 8.9310412e-39
2.0527356 1.3635588 -0.047966246 1.0403293e-38
2.0437353 1.3500381 -0.055930033 1.0862458e-38
2.0414703 1.3722847 -0.053395867 1.0862805e-38
2.0439572 1.4025015 -0.046509966 4.9738641e-39
2.0309274 1.3603057 -0.062041767 1.0402578e-38
2.0326715 1.3697375 -0.05929327 8.7459269e-39
2.0267017 1.4050566 -0.056739524 4.692608e-39
2.0122507 1.3677669 -0.072283082 1.0218532e-38
2.0126221 1.3759423 -0.070606634 1.049404e-38
2.0014365 1.3725214 -0.078136146 1.0217451e-38
2.0042708 1.3830354 -0.07452137 1.0585505e-38
1.9902902 1.3776271 -0.084132783 1.0125243e-38
2.0015888 1.3960887 -0.073871888 3.7724538e-39
1.9882638 1.3626544 -0.088036209 8.286025e-39
1.9852315 1.3770961 -0.087358095 8.3771276e-39
1.9957602 1.3924333 -0.078126788 8.281367e-39
1.9804332 1.3768225 -0.090376705 1.040147e-38
1.976365 1.3887224 -0.090789653 8.2827795e-39
1.9931641 1.4185616 -0.075110838 4.3277744e-39
1.9737527 1.3930717 -0.091637008 1.0401469e-38
1.9557352 1.3450328 -0.11129033 8.3767801e-39
1.9623748 1.3832581 -0.10041675 9.4816843e-39
1.9433116 1.3539059 -0.11741099 8.2845844e-39
1.9515877 1.3713244 -0.10920586 1.0217079e-38
1.9474664 1.3953016 -0.10751462 1.0218161e-38
1.9094965 1.202383 -0.16515337 9.9415862e-39
1.9163498 1.2321165 -0.15565008 1.0676981e-38
1.8989781 1.0936 -0.19091213 1.251694e-38
1.9111513 1.2580613 -0.15427746 9.6653441e-39
1.9136455 1.2670314 -0.15114641 1.0585142e-38
1.9145505 1.2838048 -0.14761825 1.0216712e-38
1.9111171 1.2901918 -0.14861372 1.0400754e-38
1.8920405 1.0935987 -0.19520701 1.0677704e-38
1.8777094 1.0894153 -0.20481841 1.0769165e-38
1.8905699 1.1784507 -0.18110387 1.0769538e-38
1.893239 1.1963073 -0.17629211 1.0217802e-38
1.8927392 1.2140645 -0.17345977 9.6649937e-39
1.8969674 1.2319019 -0.16768636 1.0033412e-38
1.9016364 1.2490592 -0.16176037 1.0585141e-38
1.905477 1.2622508 -0.15704873 1.0492947e-38
1.9086188 1.2736093 -0.15309429 1.0401108e-38
1.9065353 1.2803367 -0.15319355 1.0217087e-38
1.9045249 1.2947645 -0.15188535 1.0400385e-38
1.9050784 1.303903 -0.1499256 1.0216714e-38
1.8689116 1.0955807 -0.20917371 1.1046479e-38
1.8719755 1.1056226 -0.20550038 1.0586586e-38
1.8823041 1.1815571 -0.18567111 1.0310013e-38
1.8831172 1.1904589 -0.18359274 1.0401121e-38
1.885491 1.2019997 -0.1800814 9.3891313e-39
1.8896022 1.2225258 -0.17390458 9.573161e-39
1.8905541 1.2303165 -0.1719369 9.6660685e-39
1.8960528 1.2415751 -0.16654101 1.0584785e-38
1.8888872 1.2428193 -0.1707565 9.479878e-39
1.8994094 1.2601293 -0.16118006 1.0676974e-38
1.8992424 1.2681751 -0.15985997 1.0400391e-38
1.9020443 1.2781856 -0.15635425 1.040111e-38
1.9013263 1.2850213 -0.15558916 1.040075e-38
1.9009326 1.3041241 -0.15245287 1.0124161e-38
1.8972292 1.308718 -0.15393259 9.8475843e-39
1.8986295 1.3320453 -0.14893852 1.0400038e-38
1.8633636 1.098983 -0.21200615 1.0954641e-38
1.8658031 1.1171833 -0.20727584 1.1230868e-38
1.8727382 1.1802895 -0.19181702 9.5728023e-39
1.8793081 1.192978 -0.18550484 1.0308564e-38
1.8776494 1.1989701 -0.18547165 1.0032687e-38
1.8809165 1.2077938 -0.18188794 9.4813213e-39
1.8785682 1.2109363 -0.18278557 9.2040198e-39
1.8775194 1.221236 -0.18161233 7.7314162e-39
1.8854374 1.2341119 -0.1744328 9.5727981e-39
1.890317 1.2470229 -0.16912761 9.6646378e-39
1.8853955 1.2526888 -0.17117175 9.4791661e-39
1.8916955 1.2675128 -0.16464882 1.0124166e-38
1.8935039 1.2766223 -0.1619177 1.0124524e-38
1.8928367 1.2845763 -0.16092339 1.030855e-38
1.8934493 1.292628 -0.15911937 1.030855e-38
1.8916397 1.3015562 -0.15865996 9.5717107e-39
1.8948148 1.3140005 -0.1544925 1.0307831e-38
1.8903654 1.32059 -0.1560811 1.0215991e-38
1.8877699 1.3281304 -0.15635335 1.0308548e-38
1.8897569 1.3388063 -0.15323445 1.0031969e-38
1.8504939 1.1002696 -0.21974547 1.0218884e-38
1.8565663 1.1199844 -0.21249786 1.0770617e-38
1.8700063 1.1773639 -0.19402574 9.7575579e-39
1.8701839 1.1926253 -0.1912156 1.0216005e-38
1.8695581 1.1992042 -0.19043894 9.5720764e-39
1.8754438 1.2116336 -0.18459634 9.8479487e-39
1.8782462 1.2221239 -0.18100539 1.0215641e-38
1.8763378 1.2294283 -0.18089435 9.0199887e-39
1.8833522 1.245006 -0.17379598 9.940496e-39
1.8834873 1.2545083 -0.17203097 1.0032327e-38
1.8821883 1.2601385 -0.17183897 7.6388591e-39
1.8828057 1.2722055 -0.16932178 1.0216726e-38
1.8766721 1.2701272 -0.17348635 8.099117e-39
1.8818845 1.2813697 -0.1682705 1.0308191e-38
1.8846991 1.292292 -0.16459541 1.021672e-38
1.8850886 1.3000982 -0.16297343 1.0124519e-38
1.8835633 1.311886 -0.16183174 1.0584409e-38
1.8849549 1.3197151 -0.15958497 1.0400022e-38
1.8799646 1.3256611 -0.16162211 9.3883914e-39
1.88482 1.3405939 -0.15597425 1.0031967e-38
1.8865467 1.3498404 -0.15326948 9.9401345e-39
1.885839 1.3567183 -0.15249054 9.7557432e-39
1.8899105 1.3817239 -0.14554584 9.9387024e-39
1.8508556 1.1094174 -0.21790279 1.0494753e-38
1.8447336 1.1146494 -0.22076669 8.2842229e-39
1.8458927 1.1231949 -0.21853717 8.1941811e-39
1.8578129 1.1789682 -0.20128994 9.3880523e-39
1.8607618 1.1895249 -0.19759661 9.6631804e-39
1.862487 1.1989975 -0.19485268 9.9401289e-39
1.8638961 1.2074358 -0.19248736 9.8479403e-39
1.8688431 1.2190176 -0.18737593 9.8475843e-39
1.871767 1.2299691 -0.18362804 9.7568236e-39
1.8728259 1.2416573 -0.18090455 9.7571824e-39
1.8749145 1.2512183 -0.17791994 9.848299e-39
1.870358 1.2526472 -0.1804878 7.91509e-39
1.8699414 1.2622824 -0.1790408 7.9150886e-39
1.8769175 1.2751999 -0.17243697 1.0584068e-38
1.8737187 1.2800543 -0.17355809 1.03082e-38
1.8776565 1.291144 -0.16915832 1.0308558e-38
1.8813026 1.3027264 -0.16485189 1.0768442e-38
1.8715756 1.3022125 -0.17096418 8.0061941e-39
1.8761096 1.3156865 -0.16577333 1.0399664e-38
1.8705571 1.3184317 -0.16872486 7.9154432e-39
1.8791486 1.3315908 -0.16107813 9.8486633e-39
1.8790495 1.3506076 -0.15777463 9.8479346e-39
1.880859 1.3603059 -0.15493862 9.7553831e-39
1.8813061 1.3683498 -0.15323868 9.7543125e-39
1.8771151 1.3808287 -0.15362489 9.5706303e-39
1.8826213 1.4039503 -0.14612535 7.0846105e-39
1.8922904 1.4726377 -0.12798686 4.6969268e-39
1.8453875 1.1034764 -0.22233911 8.4686169e-39
1.8448626 1.1087929 -0.22172314 1.0862454e-38
1.8393562 1.1153688 -0.22396831 1.0125968e-38
1.8576083 1.1820946 -0.20086348 9.6657014e-39
1.8616563 1.1923753 -0.1965386 9.848299e-39
1.8579463 1.2009336 -0.19732089 9.8479403e-39
1.8573325 1.2086569 -0.19633456 9.6642763e-39
1.8633528 1.2212243 -0.19038408 9.7557516e-39
1.8659899 1.2308477 -0.18704887 9.7564663e-39
1.8648208 1.2377889 -0.18654449 9.296214e-39
1.86522 1.2438333 -0.18522786 9.665337e-39
1.8660768 1.2504364 -0.18352905 9.940859e-39
1.86621 1.2603332 -0.18169558 9.848306e-39
1.8623965 1.2648113 -0.18326396 8.0076402e-39
1.8643144 1.2775732 -0.17981848 1.0216719e-38
1.866146 1.2860547 -0.17718412 9.387695e-39
1.8668107 1.2941478 -0.17534056 9.6635588e-39
1.8706061 1.3069339 -0.17072897 1.0216005e-38
1.8704484 1.3144611 -0.16949475 9.3866118e-39
1.8686919 1.3204545 -0.16952163 1.0031254e-38
1.8726293 1.3326836 -0.16492043 9.9390583e-39
1.8739436 1.3399559 -0.16282004 9.9401317e-39
1.8694654 1.3452289 -0.16465937 8.9263511e-39
1.8721465 1.3550837 -0.16125587 1.0031611e-38
1.8731005 1.3644974 -0.15899961 9.7546656e-39
1.8724033 1.3713595 -0.15821728 9.8464983e-39
1.8717375 1.3819585 -0.15675403 8.6501257e-39
1.872558 1.3904667 -0.15474069 8.4657359e-39
1.8752997 1.4010389 -0.15117292 8.3731829e-39
1.8391441 1.1095766 -0.22512452 1.0678423e-38
1.8415153 1.1196533 -0.22187361 1.0402919e-38
1.8383734 1.1237844 -0.2230875 8.3789409e-39
1.8526824 1.181801 -0.20396478 1.0216723e-38
1.8561018 1.1927621 -0.19990852 1.0124159e-38
1.8497212 1.1951839 -0.20342976 7.2718814e-39
1.8491517 1.2013255 -0.20269571 7.6399325e-39
1.8495656 1.2132829 -0.20032382 9.1114612e-39
1.8556799 1.2224004 -0.19492556 9.3880593e-39
1.8600219 1.2329878 -0.19036444 9.7564691e-39
1.8541918 1.2375592 -0.19316469 9.8482962e-39
1.8591555 1.2502723 -0.18784274 9.9408575e-39
1.8575081 1.2572111 -0.18763466 9.9408674e-39
1.8602769 1.2671232 -0.18416686 1.0216367e-38
1.8592341 1.2737725 -0.18363596 7.6392066e-39
1.8618999 1.2864822 -0.17973696 9.2958539e-39
1.8575325 1.2902384 -0.18177582 9.9397884e-39
1.86026 1.3002353 -0.17831866 1.0123811e-38
1.8589839 1.3051749 -0.17823467 7.7321295e-39
1.8644243 1.3185397 -0.17250216 9.3862488e-39
1.8647609 1.3279246 -0.17063326 9.8475787e-39
1.8616496 1.3325466 -0.17174129 7.6359878e-39
1.8571562 1.337949 -0.17356718 7.5466578e-39
1.8633775 1.3510567 -0.16739672 7.4548336e-39
1.8643554 1.3598195 -0.16524084 7.4537434e-39
1.8675501 1.3723145 -0.16105245 9.4787948e-39
1.8682138 1.3819164 -0.15894277 9.4784347e-39
1.8675214 1.3887924 -0.15815479 9.1100249e-39
1.8713359 1.4001998 -0.15377495 6.9009353e-39
1.8647128 1.3989807 -0.15809046 8.834517e-39
1.8682659 1.411993 -0.15358867 8.0980324e-39
1.8754848 1.4748859 -0.13799205 3.7756936e-39
1.8327204 1.1107647 -0.22889076 1.0770611e-38
1.8383658 1.1223471 -0.22334671 1.0678057e-38
1.8387886 1.1296999 -0.22178388 1.0862094e-38
1.8458794 1.1817312 -0.20818828 1.0216374e-38
1.8471876 1.1900101 -0.20591362 1.0124536e-38
1.848696 1.1995544 -0.20329116 1.0031981e-38
1.8480231 1.2061341 -0.20254362 9.9404974e-39
1.8484766 1.2139167 -0.20088592 1.012345e-38
1.8500258 1.221262 -0.19862711 9.1118284e-39
1.8517041 1.2309664 -0.1958712 9.5717219e-39
1.8469844 1.2348078 -0.19811323 9.2958441e-39
1.8510683 1.2458872 -0.19362466 9.387681e-39
1.8550569 1.256785 -0.18922742 1.0216368e-38
1.8545455 1.26481 -0.18812409 1.012453e-38
1.856312 1.2738181 -0.18543664 9.940859e-39
1.8519093 1.2774853 -0.18751329 9.3884138e-39
1.8498845 1.2866068 -0.1871528 9.94051e-39
1.8482206 1.2933872 -0.18698318 9.4806025e-39
1.8526193 1.304598 -0.18227659 9.3883942e-39
1.8535993 1.312593 -0.1802554 9.2029408e-39
1.8561974 1.3202678 -0.17728905 9.6632029e-39
1.8619094 1.3364226 -0.1708948 9.8472326e-39
1.8599415 1.3427286 -0.17099711 9.5713604e-39
1.8580425 1.3482952 -0.17118776 9.3876782e-39
1.8643473 1.3621662 -0.16483073 9.3876796e-39
1.8544641 1.364257 -0.17057873 8.92707e-39
1.8554451 1.3731589 -0.16839635 9.5702912e-39
1.8566018 1.3809813 -0.1662963 9.0178363e-39
1.855952 1.3892449 -0.16523637 8.3753451e-39
1.8574944 1.3984274 -0.16265696 8.1916783e-39
1.8662863 1.4156315 -0.15417036 6.5328815e-39
1.859606 1.4172243 -0.15802397 8.0994743e-39
1.8653368 1.4813136 -0.14313658 3.2235988e-39
1.8323591 1.1186241 -0.22772388 1.0402562e-38
1.8336608 1.1253817 -0.22572228 1.0770254e-38
1.839252 1.1871238 -0.21133658 9.2972818e-39
1.8372939 1.1912793 -0.21181351 9.7575481e-39
1.8439063 1.2026718 -0.20570461 1.0307849e-38
1.8438101 1.2093226 -0.20458749 9.5717289e-39
1.8470949 1.2217003 -0.20036389 9.4802479e-39
1.8396524 1.2233371 -0.20468141 7.6395751e-39
1.8423245 1.2332319 -0.20127654 9.5724436e-39
1.842067 1.2431682 -0.19967787 9.4795291e-39
1.8415524 1.2507111 -0.1986618 1.0216726e-38
1.8423878 1.2585179 -0.19676347 1.0308212e-38
1.8428277 1.2638109 -0.19555466 1.0124529e-38
1.8437849 1.2748199 -0.19301406 9.5724366e-39
1.8485224 1.2843623 -0.18839292 9.2951392e-39
1.8477216 1.2910155 -0.18771161 8.9274385e-39
1.8506746 1.303202 -0.18372728 9.1111039e-39
1.8449776 1.3074235 -0.18650699 1.0031621e-38
1.8501228 1.3226054 -0.18063577 8.743043e-39
1.8477688 1.3285228 -0.18104608 9.387325e-39
1.8483096 1.3377911 -0.17907122 9.4784459e-39
1.853294 1.3502663 -0.17377852 9.1118242e-39
1.8537415 1.3581889 -0.17209968 9.3869747e-39
1.8547084 1.3689412 -0.16959871 8.5579357e-39
1.8487544 1.3681489 -0.17342448 9.5706401e-39
1.8498315 1.3788977 -0.17085591 8.4653814e-39
1.8504655 1.3874576 -0.16894907 7.4534e-39
1.8446364 1.3918858 -0.17177369 7.1804327e-39
1.84746 1.4024173 -0.16816254 7.0893077e-39
1.8509551 1.414119 -0.16392851 6.8141557e-39
1.8519362 1.4237703 -0.16161366 6.903829e-39
1.8593102 1.4807391 -0.14696892 2.5785966e-39
1.8226475 1.1128643 -0.23475464 8.1009106e-39
1.8255869 1.1239611 -0.23097153 1.0586227e-38
1.837129 1.1926032 -0.21168135 9.8479318e-39
1.8329437 1.1957008 -0.21372423 1.0124524e-38
1.8354164 1.2050798 -0.21053405 1.021672e-38
1.8357776 1.2125458 -0.20898935 1.0032689e-38
1.8397177 1.2244273 -0.20444806 1.0216015e-38
1.8362131 1.2319516 -0.20528637 1.0216367e-38
1.8369818 1.240044 -0.20337859 9.6649937e-39
1.8390987 1.2535502 -0.19967835 9.387332e-39
1.8336855 1.253778 -0.2029891 8.0072843e-39
1.8360708 1.2613945 -0.20016496 9.8486647e-39
1.8343318 1.2672887 -0.20019849 9.8479431e-39
1.8346992 1.2748891 -0.19862625 9.7553915e-39
1.8373628 1.2856823 -0.19506775 9.7564691e-39
1.8440832 1.2995793 -0.18844864 1.0124163e-38
1.8310751 1.2973998 -0.19688667 9.3873306e-39
1.8340614 1.3105757 -0.19270679 9.2032995e-39
1.8416779 1.3274623 -0.18500417 9.2025821e-39
1.8451059 1.3405043 -0.18057457 9.7553943e-39
1.8346837 1.3338754 -0.18819912 7.4544664e-39
1.8439682 1.3489797 -0.17977916 9.2954994e-39
1.8443656 1.3572346 -0.17807247 9.4795151e-39
1.8465657 1.3688991 -0.17464678 8.4661002e-39
1.8387229 1.3732224 -0.17873664 8.1895245e-39
1.8399816 1.3816493 -0.17646654 6.9956673e-39
1.8456267 1.3965048 -0.17034356 6.3514203e-39
1.8379794 1.3961873 -0.17513353 5.800043e-39
1.8371869 1.4029353 -0.17443012 4.3263282e-39
1.8402501 1.4114356 -0.17102988 5.1539435e-39
1.84214 1.4217883 -0.16802834 4.4181778e-39
1.8483735 1.4361725 -0.16162458 4.6025662e-39
1.8463709 1.4423319 -0.16177434 3.9564863e-39
1.8534977 1.4803995 -0.15062708 2.2090994e-39
1.8107178 1.1144139 -0.24186528 8.5622531e-39
1.8190095 1.1299275 -0.2339875 1.0124896e-38
1.8274434 1.1967676 -0.21694018 1.0031981e-38
1.8308326 1.2069343 -0.21304324 9.9397814e-39
1.8291836 1.2137425 -0.21285965 9.7564565e-39
1.8295578 1.2212281 -0.21130332 9.9404988e-39
1.8319942 1.2322751 -0.20784076 9.5702828e-39
1.8318089 1.2412372 -0.20636952 1.0031971e-38
1.830074 1.2467366 -0.20647043 9.4805969e-39
1.8335418 1.2560879 -0.20266935 7.1796774e-39
1.827038 1.2574519 -0.20645392 9.1111053e-39
1.8316449 1.2707123 -0.20125592 1.0215295e-38
1.8290576 1.2758336 -0.2019513 9.6631973e-39
1.8316107 1.2856127 -0.19864069 9.6639161e-39
1.8319824 1.2932519 -0.19705904 9.7557432e-39
1.8284224 1.3008591 -0.19791667 9.8468641e-39
1.8355016 1.3144382 -0.19113198 9.2022191e-39
1.8272059 1.3110708 -0.19686282 9.2958483e-39
1.831771 1.3240408 -0.19174206 9.2951476e-39
1.8285795 1.3317134 -0.19236024 9.4788116e-39
1.8335496 1.3455362 -0.18683766 9.3876852e-39
1.8364344 1.3559082 -0.1832169 9.3869733e-39
1.8377767 1.3647434 -0.18082263 9.2029422e-39
1.8427994 1.3782297 -0.17532727 8.9252763e-39
1.8357333 1.3796707 -0.17944635 6.4410572e-39
1.8330482 1.3834463 -0.18044066 6.4450411e-39
1.827214 1.3886967 -0.18312308 3.8700444e-39
1.8353724 1.4022492 -0.17567484 4.2352424e-39
1.8362139 1.4108344 -0.1736349 5.7953262e-39
1.8340218 1.4167316 -0.17394847 5.7034963e-39
1.836706 1.4272218 -0.17043084 5.5201841e-39
1.8186218 1.1160907 -0.23667578 8.8348617e-39
1.8231202 1.1271346 -0.23193699 9.8472144e-39
1.8234586 1.1377485 -0.22984955 1.0767719e-38
1.8230469 1.2059355 -0.21803969 1.0400036e-38
1.8224655 1.212778 -0.21718894 9.9397785e-39
1.8263643 1.2239871 -0.21279205 1.0124527e-38
1.828251 1.233259 -0.20998375 1.0398969e-38
1.8144891 1.226958 -0.21961753 7.7314205e-39
1.8260702 1.243324 -0.20955284 1.0216014e-38
1.8232162 1.247949 -0.21050121 1.0031617e-38
1.8245173 1.2584904 -0.20783074 9.5717205e-39
1.8184537 1.2605101 -0.21122684 7.7307058e-39
1.8211188 1.2745376 -0.20709512 9.8475857e-39
1.8226697 1.2833141 -0.2045822 9.6635546e-39
1.8220603 1.2912798 -0.20354997 9.7553929e-39
1.8222722 1.2990741 -0.20203987 9.0185467e-39
1.8205253 1.3035526 -0.20232868 1.012381e-38
1.8218489 1.3108493 -0.20021838 9.5717219e-39
1.8251762 1.3227193 -0.19605839 9.2962168e-39
1.8173618 1.3249567 -0.20049977 7.3629897e-39
1.8295046 1.3453729 -0.18937075 8.8348757e-39
1.8263212 1.3489044 -0.19071637 9.9390639e-39
1.8275188 1.3576139 -0.18843403 9.47882e-39
1.8291285 1.3676819 -0.18565626 9.1107522e-39
1.8297117 1.376151 -0.18379681 8.1898819e-39
1.8204195 1.3736881 -0.18998462 5.7049565e-39
1.8287513 1.3873695 -0.18240629 6.4461215e-39
1.8322129 1.4050155 -0.17714119 6.808032e-39
1.8281493 1.4066211 -0.17937267 4.3227381e-39
1.8244991 1.4138086 -0.18036057 4.8762496e-39
1.8439217 1.4800282 -0.15662085 2.1183289e-39
1.825941 1.1337886 -0.22901362 1.2334322e-38
1.814122 1.1305188 -0.2369085 8.6522837e-39
1.8183434 1.1949019 -0.22290346 1.0675902e-38
1.8185735 1.2014475 -0.22160296 9.762241e-39
1.8181602 1.2099305 -0.22035779 7.3615477e-39
1.8168087 1.2163671 -0.22005552 7.2704437e-39
1.8166475 1.2229675 -0.21898744 9.663556e-39
1.8263364 1.2391418 -0.21012805 1.0308555e-38
1.8278868 1.2494682 -0.207341 9.2958511e-39
1.8163426 1.2477143 -0.21479777 9.9401373e-39
1.8179715 1.2576916 -0.21202409 9.7550412e-39
1.820447 1.2672668 -0.20879745 9.8475885e-39
1.8082045 1.2662851 -0.21654947 7.6385003e-39
1.8103364 1.2785453 -0.21306068 8.4686071e-39
1.8172065 1.2866889 -0.20736696 1.0031967e-38
1.8108445 1.2880062 -0.21107206 9.5717163e-39
1.8100328 1.2947733 -0.21037711 8.9274343e-39
1.8149198 1.3074226 -0.20511386 9.2022233e-39
1.8133482 1.31287 -0.20512299 9.9394198e-39
1.8159199 1.3227791 -0.20177777 9.4795319e-39
1.8130391 1.3280915 -0.20262109 9.2958665e-39
1.8150703 1.3389411 -0.19944406 7.4541175e-39
1.8191061 1.3542644 -0.19423456 9.2033023e-39
1.8202056 1.3623987 -0.19211452 9.1111067e-39
1.8266521 1.3754892 -0.18580788 8.4671792e-39
1.8237482 1.3802353 -0.1867656 8.1909595e-39
1.8157731 1.3815596 -0.19146803 5.7049271e-39
1.817937 1.3919814 -0.18828464 5.7038467e-39
1.8272779 1.4086882 -0.17954637 7.729617e-39
1.8299323 1.4191509 -0.17605191 7.9118516e-39
1.8195609 1.4185704 -0.18257491 6.1640989e-39
1.8376884 1.4885937 -0.15896374 3.7756908e-39
1.8272886 1.4852234 -0.16599785 2.026492e-39
1.8229985 1.5106744 -0.16415037 4.3281457e-39
1.8171514 1.2024013 -0.22231451 1.0861719e-38
1.8161144 1.2115701 -0.2213341 7.4530371e-39
1.8147629 1.2180067 -0.22103187 7.4530371e-39
1.8076007 1.2189546 -0.22529764 7.4530371e-39
1.8062565 1.2253565 -0.22499706 7.1778977e-39
1.8107173 1.2372155 -0.22013746 9.4805997e-39
1.8148017 1.250155 -0.21531959 8.3800255e-39
1.8045135 1.2487155 -0.22194305 8.470782e-39
1.8065559 1.2569141 -0.21922821 9.482043e-39
1.8092297 1.2666789 -0.21584512 9.2972902e-39
1.8034903 1.2684877 -0.21907821 9.3880565e-39
1.8059419 1.2820171 -0.21516643 9.2061876e-39
1.8054556 1.2898583 -0.21408033 9.4805997e-39
1.8065664 1.297799 -0.2119877 9.296207e-39
1.799073 1.2973454 -0.21670662 9.2087057e-39
1.7997273 1.3054488 -0.21486761 8.4700589e-39
1.8048346 1.3181354 -0.20946144 9.113985e-39
1.8084805 1.3305787 -0.20500286 9.0217851e-39
1.8142035 1.3438489 -0.19911228 9.2047316e-39
1.8136932 1.3541565 -0.1976044 7.1793201e-39
1.8271555 1.3690974 -0.18662716 8.284576e-39
1.8125511 1.3634915 -0.19665961 6.9949344e-39
1.816364 1.3765718 -0.19198486 8.6515635e-39
1.8158418 1.3853073 -0.1907625 5.7971157e-39
1.8174653 1.3964616 -0.18778397 5.9815056e-39
1.8249304 1.411662 -0.18047325 5.7042096e-39
1.823526 1.4183508 -0.18015921 5.5208917e-39
1.820717 1.4317281 -0.17953102 5.2450489e-39
1.8327109 1.487357 -0.16226375 1.7495464e-39
1.8251374 1.4869475 -0.1670244 2.118689e-39
1.8109431 1.1949776 -0.22747125 7.6428192e-39
1.8154202 1.2067733 -0.22261268 7.4580776e-39
1.8127171 1.2196463 -0.22200823 6.9970756e-39
1.8055661 1.2205855 -0.22626884 6.7186992e-39
1.7984294 1.2214553 -0.23053259 6.3509985e-39
1.8028774 1.2333894 -0.22566752 6.4431928e-39
1.7957555 1.2341902 -0.22993475 6.3506398e-39
1.7946774 1.2373153 -0.23004907 8.9313888e-39
1.7924467 1.2487653 -0.22940397 6.9974413e-39
1.7802321 1.2418832 -0.23818278 6.9034464e-39
1.7905244 1.2737467 -0.22617388 7.5473921e-39
1.7874079 1.2782384 -0.22730845 8.6566109e-39
1.7866173 1.2867197 -0.22629723 7.2722276e-39
1.8063304 1.3133698 -0.20937864 9.3912991e-39
1.7995014 1.3157041 -0.2131931 6.7186992e-39
1.8101083 1.3347355 -0.2032596 6.3520747e-39
1.8011364 1.3361592 -0.20856179 6.6293805e-39
1.813044 1.3538728 -0.19805636 6.3520747e-39
1.8179066 1.3671442 -0.19269796 6.3509985e-39
1.8165174 1.3737603 -0.19238731 6.1669688e-39
1.8151282 1.3803766 -0.19207674 5.800703e-39
1.8199589 1.3938 -0.18671127 5.7052802e-39
1.8185617 1.4004542 -0.18639876 4.8780433e-39
1.8214 1.4200547 -0.18117367 4.6011019e-39
1.8103685 1.4838322 -0.17671801 3.5012605e-39
1.8200533 1.5167357 -0.16490109 3.9615352e-39
1.8127462 1.4892299 -0.17429127 4.0529924e-39
2.3993049 1.1390343 0.12684396 1.5933592e-38
2.3639584 1.1403946 0.10520424 1.4737934e-38
2.3666139 1.1591868 0.11017299 1.5012714e-38
2.36566 1.1672897 0.11101618 1.510491e-38
2.3765049 1.1823589 0.12039586 1.5288582e-38
2.3906679 1.2199705 0.13581803 1.5748828e-38
2.277745 0.98059309 0.023560962 1.3908879e-38
2.3594615 1.2127067 0.11521518 1.4552452e-38
2.2505383 1.0056177 0.011146957 1.5287836e-38
2.2584145 0.99750245 0.014586661 1.3538655e-38
2.2985091 1.1248744 0.061943054 1.48265e-38
2.2433317 0.99455082 0.0047277445 1.1424269e-38
2.2372322 1.0266559 0.0066324444 1.4643552e-38
2.3077679 1.2513951 0.090060495 1.4825414e-38
2.2984569 1.1958952 0.074476868 1.5101276e-38
2.3241565 1.3537438 0.11831492 7.8333943e-39
2.2622969 1.1701632 0.047539826 1.4825071e-38
2.2821214 1.191264 0.063545421 1.5469689e-38
2.2882528 1.2318138 0.074515581 1.4364063e-38
2.2887504 1.2707345 0.081710063 1.3997108e-38
2.2878163 1.2788054 0.082559876 1.4181146e-38
2.2936208 1.2915481 0.088407673 1.4181494e-38
2.2506647 1.168718 0.040083475 1.491833e-38
2.2594199 1.1911796 0.049477458 1.4826136e-38
2.2745287 1.2103344 0.062219609 1.5287105e-38
2.2748835 1.2182746 0.063843936 1.4732501e-38
2.2878664 1.2939857 0.08527679 1.3813433e-38
2.2841182 1.303085 0.084566556 1.372016e-38
2.2943459 1.3190984 0.093731172 1.3537203e-38
2.2766581 1.3184339 0.082664356 1.3535768e-38
2.27439 1.3144933 0.080562986 1.3627591e-38
2.2744415 1.3321991 0.083727658 1.3443591e-38
2.1193922 1.1136684 -0.050918393 9.2123183e-40
2.1302333 1.1776539 -0.032886066 1.2882179e-39
2.1373456 1.1940273 -0.025586437 5.0656911e-39
2.1266303 1.2111866 -0.029183324 5.6188369e-39
2.1350102 1.2259146 -0.021390002 9.5763966e-39
2.1910083 1.4201089 0.047634508 3.4973075e-39
2.1897395 1.4284037 0.048316758 3.2243457e-39
2.1884706 1.4366988 0.048998967 5.8029493e-39
2.1777296 1.4164399 0.038765341 5.6178504e-39
2.1846845 1.4308844 0.045626502 7.7412085e-39
2.1834157 1.4391794 0.046308611 8.1096225e-39
1.8587793 1.1144835 -0.21210147 1.1691133e-38
1.8494427 1.1199096 -0.21692084 1.1507093e-38
1.8671776 1.1814328 -0.19505677 1.067627e-38
1.8844726 1.2677275 -0.169082 1.1412023e-38
1.8295833 1.1183578 -0.22948906 1.0583333e-38
1.8368499 1.1315833 -0.22265077 1.1690407e-38
1.856194 1.4045504 -0.16237837 8.6512075e-39
1.8244451 1.221943 -0.21434182 1.1138675e-38
1.8075824 1.1966535 -0.22925493 2.3001992e-39
1.8631648 1.5103942 -0.13933581 4.0508442e-39
1.8346895 1.423988 -0.17225131 8.2867242e-39
1.8354433 1.4332842 -0.1701398 9.0196383e-39
1.8377222 1.5130606 -0.1546137 4.6039983e-39
1.7758858 1.206238 -0.24718028 7.3576017e-40
1.7285516 1.2184939 -0.27431306 1.3804023e-39
1.7177693 1.2144142 -0.28170961 1.2871319e-39
1.7056686 1.2193048 -0.28833479 2.7550649e-39
1.7049862 1.2257953 -0.2876088 1.4718791e-39
1.7009172 1.2212937 -0.2909241 6.1565656e-39
1.695444 1.2244895 -0.29374683 0
1.6927044 1.2268292 -0.29502875 2.8469004e-39
1.6948552 1.2362802 -0.29202518 1.7470268e-39
1.6848876 1.2255763 -0.30008939 7.3543801e-39
1.6801529 1.2275536 -0.30267039 1.0026951e-38
1.6769725 1.2312955 -0.30397695 3.3979134e-39
1.6589825 1.2294434 -0.31544119 6.7075785e-39
1.6555184 1.2327609 -0.31699857 1.8385036e-39
1.6483921 1.2319638 -0.321551 3.3979134e-39
1.6373335 1.2346479 -0.32792175 2.2040519e-39
1.6334604 1.2365485 -0.329983 4.2244328e-39
1.6330749 1.2393472 -0.3297264 2.2051281e-39
1.6419345 1.2613032 -0.32035726 1.7506141e-39
1.6238946 1.2393538 -0.33540806 2.1122164e-39
1.6328297 1.257193 -0.32672057 2.1190365e-39
1.6183006 1.2371255 -0.3392652 6.433507e-39
1.6190746 1.2475666 -0.3369385 1.2892843e-39
1.6279564 1.2654971 -0.32826811 3.4965774e-39
1.6110412 1.2371172 -0.34376043 1.0861019e-38
1.6130172 1.2452959 -0.34109005 4.3198655e-39
1.6240609 1.2674087 -0.33034125 4.4142191e-39
1.6035664 1.2415345 -0.347606 6.8987829e-39
1.5937974 1.2436718 -0.35327506 1.0863922e-38
1.5878916 1.2424477 -0.3571476 1.2061371e-38
1.5846993 1.2448449 -0.35869965 1.2891858e-38
1.5815884 1.2553687 -0.3587634 5.5122822e-39
2.5260255 1.1974684 0.21562706 9.8609849e-39
2.2509871 0.99919355 0.010288063 1.381489e-38
2.3690138 1.2350144 0.1250754 1.335608e-38
2.3184943 1.1833793 0.084666222 1.381489e-38
2.3284245 1.205204 0.094674774 1.3813815e-38
2.2177808 0.99591827 -0.010847122 1.4642837e-38
2.2109201 1.0122453 -0.012205217 1.4182228e-38
2.2650554 1.1324866 0.042581137 1.3354266e-38
2.2505417 1.0995065 0.027761342 1.3169521e-38
2.2592738 1.1274184 0.038105298 1.3169152e-38
2.3072116 1.2426993 0.088177711 1.3354266e-38
2.3831544 1.3669111 0.15716608 1.1707423e-38
2.2617145 1.1579163 0.045012452 1.3629772e-38
2.2821853 1.1860752 0.062666804 1.3446815e-38
2.2468076 1.1319815 0.031195799 1.3261711e-38
2.2463565 1.139331 0.032216888 1.3446815e-38
2.2943149 1.24742 0.08102937 1.3261351e-38
2.2593179 1.1765692 0.046829175 1.3997115e-38
2.2588606 1.1840185 0.047864079 1.3997468e-38
2.2859988 1.2801946 0.081680559 1.2984408e-38
2.2956297 1.3027326 0.091630176 1.3631209e-38
2.2626412 1.2005612 0.053131483 1.418078e-38
2.3320906 1.3761762 0.12719531 4.5986103e-39
2.272635 1.2925189 0.075588748 1.3077307e-38
2.2821755 1.3151402 0.085496902 1.022143e-38
2.3146017 1.3544111 0.11251807 7.8334042e-39
2.3254106 1.3786216 0.12349283 3.037767e-39
2.2294362 1.1841943 0.029680816 1.3997468e-38
2.3187304 1.3810668 0.11979025 1.6544739e-39
2.1813126 1.0402149 -0.025584469 1.4737198e-38
2.2502728 1.2747922 0.058608957 1.2984039e-38
2.2832484 1.3614193 0.09434963 7.5571648e-39
2.2379265 1.2719287 0.050459959 1.3076238e-38
2.1104391 1.1757717 -0.045472369 2.4795584e-39
2.1979673 1.3793112 0.044723745 8.0195905e-39
1.8886046 1.0976613 -0.19661516 1.2887158e-38
1.8659608 1.2878422 -0.17698243 1.1689331e-38
1.8694468 1.2989193 -0.17286468 1.0676974e-38
1.8663344 1.3102673 -0.17278346 1.1689315e-38
1.8667778 1.3414841 -0.16698548 1.0308572e-38
1.878999 1.3894 -0.15094222 1.0950693e-38
1.8726538 1.3985423 -0.15325244 1.0581904e-38
1.8796366 1.4132204 -0.14633293 1.0397523e-38
1.8110716 1.2292386 -0.22132951 1.0033411e-38
1.8124453 1.2825024 -0.21105504 1.1049741e-38
1.8237199 1.3897196 -0.18510513 1.0400043e-38
1.8480519 1.4835503 -0.15344083 4.1448377e-39
1.6704037 1.2391891 -0.30664667 2.9448343e-39
1.6431502 1.2317021 -0.32484213 2.6700453e-39
1.6378413 1.2336453 -0.3277846 2.7611633e-39
1.6164573 1.2398932 -0.33991659 3.4980039e-39
1.8274113 1.0715029 -0.23912403 1.3537212e-38
1.8165987 1.0745821 -0.24527252 1.3719802e-38
1.9291097 1.3743448 -0.12258586 7.7332169e-39
1.8138894 1.1221147 -0.23853955 8.5633335e-39
1.8521638 1.2023245 -0.20065442 7.8253999e-39
1.8074595 1.1132443 -0.24408935 9.7535754e-39
1.8609465 1.2506196 -0.1866724 8.4686169e-39
1.8981329 1.3685422 -0.14278837 7.6406583e-39
1.8758805 1.2988552 -0.16889328 8.3771276e-39
1.8079416 1.1259658 -0.24153979 1.3719058e-38
1.8082662 1.1315591 -0.24034926 9.9426372e-39
1.8054467 1.1899084 -0.23177058 7.8254027e-39
1.8124793 1.2136259 -0.22322066 8.468254e-39
1.8128089 1.2193091 -0.222011 8.1016295e-39
1.8594882 1.3289872 -0.17370906 8.2817048e-39
1.7945579 1.1987234 -0.23695116 8.4664688e-39
1.8472725 1.318941 -0.18304858 7.4569902e-39
1.7886246 1.194699 -0.24133642 7.734649e-39
1.7889507 1.2003202 -0.24013983 7.8254027e-39
1.7833434 1.2019172 -0.24332847 8.2888976e-39
1.7836694 1.2075384 -0.24213195 7.5513298e-39
1.8023673 1.2410774 -0.2246231 7.8250524e-39
1.8097589 1.2769406 -0.21370214 8.2831537e-39
1.8366182 1.347502 -0.18459041 7.7314022e-39
1.7974783 1.2613908 -0.22405532 7.7339232e-39
1.8939458 1.4776376 -0.12607732 2.9484371e-39
1.7975645 1.2686697 -0.22271402 7.0953907e-39
1.7924727 1.2818633 -0.22353159 7.5527717e-39
1.787016 1.2818907 -0.22690468 7.5517053e-39
1.8148687 1.3862188 -0.19120356 3.221417e-39
1.8220001 1.4187574 -0.18103182 4.4152883e-39
1.8096261 1.4023014 -0.19160327 6.6247114e-39
1.809531 1.418659 -0.18876797 4.1448124e-39
1.643801 1.2295675 -0.32481703 2.8469004e-39
1.6223224 1.2342553 -0.33728331 9.1835496e-41
1.6167737 1.2358356 -0.34043846 7.3468397e-40
1.5883303 1.2510504 -0.35535407 0
2.562233 1.1518934 0.22997661 1.4284207e-38
2.5617626 1.1616197 0.23140641 1.4560441e-38
2.5685754 1.2489775 0.25108048 1.1514716e-38
2.3136985 1.0530891 0.058644447 1.4368784e-38
2.3011181 1.0595285 0.051996347 1.4184747e-38
2.293632 1.0602061 0.047481813 1.4183668e-38
2.2794223 1.0615937 0.038931109 1.3907444e-38
2.2715154 1.061964 0.03410197 1.3906363e-38
2.2766509 1.0732772 0.039282814 1.3814166e-38
2.2702687 1.0723361 0.035165466 1.3905997e-38
2.2580748 1.0702547 0.027248908 1.3814153e-38
2.2535038 1.0724789 0.024812704 1.3721959e-38
2.2489185 1.0747038 0.022368053 1.3813793e-38
2.2359123 1.0881554 0.01669688 1.3628681e-38
2.2244043 1.0857466 0.009146966 1.2893276e-38
1.8775625 1.1704495 -0.19057155 9.7575439e-39
1.871276 1.1678259 -0.19492736 1.0217093e-38
1.8656938 1.1669519 -0.19853754 9.9412247e-39
1.8606371 1.1677246 -0.20153119 9.4802507e-39
1.864114 1.174036 -0.19826204 1.0401114e-38
1.8576813 1.172963 -0.20243415 1.0308921e-38
1.8574113 1.1784369 -0.20163265 1.0676985e-38
1.8465507 1.1751779 -0.20893225 1.0309641e-38
1.8413068 1.1730331 -0.21255787 9.9397842e-39
1.8355736 1.1754829 -0.21567364 9.5720806e-39
1.8389977 1.1789243 -0.21294495 1.0308921e-38
1.8342761 1.1827824 -0.21518509 9.7564775e-39
1.8336371 1.1820432 -0.21571144 1.0308554e-38
1.8229333 1.1841363 -0.22196712 9.2958469e-39
1.8219244 1.1771473 -0.22382821 1.0124529e-38
1.8228531 1.186049 -0.22167847 1.0216726e-38
1.811321 1.187461 -0.22856709 7.6399409e-39
1.8122439 1.181182 -0.22910669 9.572082e-39
1.8197939 1.1777929 -0.22503275 1.141095e-38
1.817983 1.1827246 -0.22528112 1.1414194e-38
1.813424 1.1860327 -0.22751822 1.1414917e-38
1.7973295 1.1789458 -0.23873492 8.0065668e-39
1.8122872 1.1885756 -0.22777183 8.2863935e-39
1.7426232 1.202804 -0.26837844 1.2427984e-38
1.7311894 1.2068677 -0.27473751 1.0214933e-38
1.7217951 1.2043896 -0.28099111 1.1783323e-38
1.7213458 1.2107093 -0.2801511 5.516231e-39
1.7176739 1.207178 -0.2830489 1.2242869e-38
1.7196451 1.2159019 -0.28028506 9.7500119e-39
1.7057548 1.2115197 -0.28965902 9.2954994e-39
1.6981575 1.2112181 -0.29441532 1.1783332e-38
1.6931754 1.2130842 -0.29716912 1.2150676e-38
1.6927439 1.2193576 -0.29632637 1.0953205e-38
1.6845443 1.2178115 -0.30167568 1.2152816e-38
1.6783994 1.2184542 -0.30536586 1.2152098e-38
1.6716647 1.2229683 -0.30873609 1.1691135e-38
1.667093 1.2247279 -0.31125474 1.0953566e-38
1.6624671 1.2189453 -0.31514147 1.1596766e-38
1.6569302 1.222296 -0.31797612 1.0771706e-38
1.6520358 1.2214909 -0.3211484 1.1874809e-38
1.6477282 1.2233698 -0.32348236 1.1046835e-38
1.6428218 1.225198 -0.32619625 1.2059915e-38
1.6406854 1.2305282 -0.32657561 7.4472932e-39
1.6308427 1.2277269 -0.3331643 9.6632001e-39
1.6238122 1.225785 -0.33785975 1.169184e-38
1.6196275 1.2266966 -0.34028915 1.0400769e-38
1.6158993 1.2280177 -0.34236327 1.1783327e-38
1.604517 1.2347997 -0.34820917 1.1230873e-38
1.5981457 1.237031 -0.35175842 1.1600022e-38
1.5962179 1.2402071 -0.35238996 7.8175134e-39
1.5910143 1.2347304 -0.35658005 1.2244669e-38
1.5895436 1.2394638 -0.35665286 1.1784788e-38
1.58507 1.2387865 -0.35954204 1.3168077e-38
1.5801685 1.2405933 -0.36225656 1.4368414e-38
1.8324636 1.179722 -0.21684852 1.2148874e-38
1.6069738 1.2303128 -0.34748241 9.6592512e-39
1.5858853 1.2363863 -0.35946196 4.6836103e-39
1.7888685 1.188255 -0.24232554 8.0094339e-39
1.7541013 1.1943768 -0.26276428 0
1.7428247 1.1975882 -0.26917666 1.5612034e-39
1.7431525 1.2032404 -0.26797354 1.0101905e-39
1.7094693 1.2058128 -0.28836936 1.4693679e-39
1.6873659 1.2178216 -0.29992712 0
1.6817585 1.2194185 -0.30311567 4.5917748e-40
1.6713741 1.2160295 -0.31014383 2.4795584e-39
1.6657945 1.2176185 -0.31331655 5.8864401e-39
1.6327744 1.2199705 -0.333341 1.0404372e-38
1.6330969 1.2255327 -0.33215693 5.7038453e-39
1.5998054 1.2350136 -0.35108796 1.0770634e-38
1.5709425 1.2446307 -0.36725324 1.1794541e-38
1.8557601 1.1620122 -0.20556098 1.0309997e-38
2.2978683 1.0492859 0.048171964 1.436842e-38
2.290391 1.0499709 0.043664563 1.4184387e-38
2.2637687 1.0602524 0.029003648 1.3906713e-38
2.2561433 1.0607543 0.02437217 1.3721966e-38
2.2579734 1.0496737 0.023544513 1.3814873e-38
2.3266442 1.0335221 0.063195929 1.501343e-38
2.3084912 1.0418142 0.05342602 1.4460978e-38
2.2960885 1.0398891 0.045407653 1.455245e-38
2.278991 1.0513053 0.036843713 1.4091826e-38
2.2745075 1.0532726 0.03441634 1.4183296e-38
2.2465045 1.0611647 0.018478146 1.3814154e-38
2.2419555 1.0633873 0.016055347 1.3813793e-38
2.2308869 1.0685555 0.010118038 1.3260992e-38
1.8708345 1.0901523 -0.20894404 1.1964473e-38
1.8615936 1.0841134 -0.21573277 1.0212072e-38
1.8602421 1.0905499 -0.21543054 8.8363247e-39
1.8547555 1.0903959 -0.21885429 9.1143535e-39
1.8489667 1.092651 -0.22203852 8.9317475e-39
1.8531917 1.0886953 -0.22012314 1.4359393e-38
1.8487662 1.0954436 -0.22166851 8.7462772e-39
1.8451486 1.0992723 -0.22323069 1.1046842e-38
1.8419043 1.0921671 -0.22649606 1.0951397e-38
1.8333186 1.0889981 -0.23237166 1.1136151e-38
1.8394332 1.1007946 -0.22649936 1.1046483e-38
1.8303934 1.0910717 -0.23381545 1.2976816e-38
1.8269088 1.0981634 -0.2347178 1.1046838e-38
1.8236226 1.0890785 -0.23835967 1.3530358e-38
1.8167971 1.0907879 -0.24228224 9.0217921e-39
1.8244053 1.1019802 -0.23559223 1.012416e-38
1.8193364 1.0952979 -0.23991241 1.0122383e-38
1.819738 1.1025842 -0.23837453 1.058623e-38
1.816012 1.1032006 -0.24057204 9.0221439e-39
1.8146895 1.109499 -0.24027632 7.9161662e-39
1.8652322 1.0910817 -0.2122476 1.3345601e-38
1.8343487 1.0789919 -0.23350458 1.5466821e-38
1.8323303 1.0812328 -0.23435737 1.675611e-38
1.8529099 1.0952876 -0.21913119 1.3804776e-38
1.8412806 1.092468 -0.22682896 1.3619661e-38
1.8896285 1.0785924 -0.19935516 1.012597e-38
1.8610443 1.0795594 -0.21687856 9.9459148e-39
1.8501203 1.0826705 -0.22309047 9.4849171e-39
1.8388952 1.0798044 -0.23054625 9.3927214e-39
1.8177906 1.0968897 -0.24058768 8.8381253e-39
1.8170308 1.0865277 -0.24289142 1.3442129e-38
1.8233794 1.097459 -0.2370272 1.3535408e-38
1.8178588 1.0990311 -0.24016656 1.4181859e-38
1.8178768 1.1050602 -0.23908864 1.4643541e-38
1.8071185 1.101653 -0.24635115 1.1141199e-38
1.8019154 1.1130961 -0.24754746 8.9317629e-39
1.8071382 1.1077099 -0.24526717 1.409038e-38
1.9301827 1.4803288 -0.1031693 3.4054748e-39
