# .PCD v0.7 - Point Cloud Data file format
VERSION 0.7
FIELDS x y z rgb
SIZE 4 4 4 4
TYPE F F F F
COUNT 1 1 1 1
WIDTH 1006
HEIGHT 1
VIEWPOINT 0 0 0 1 0 0 0
POINTS 1006
DATA ascii
0.66193801 0.65914708 -0.46781889 1.0109247e-39
0.66090411 0.66154295 -0.46650973 2.7659249e-40
0.66006112 0.66458446 -0.46466455 5.5282345e-40
0.65801263 0.66679925 -0.46388081 5.5138152e-40
0.65888941 0.67040771 -0.46095905 6.4286249e-40
0.65794885 0.67313254 -0.45937833 7.3469798e-40
0.65563893 0.67530155 -0.45872924 3.6735039e-40
0.65572989 0.67832565 -0.45653206 4.5954462e-40
0.65604609 0.68150508 -0.45413586 1.8403813e-40
0.65578181 0.6843546 -0.45220211 3.6735039e-40
0.65383643 0.68717861 -0.45094255 3.6735039e-40
0.65357077 0.69003689 -0.44900295 5.5138152e-40
0.65210539 0.69621772 -0.44515654 1.1210388e-44
0.65205437 0.69925243 -0.44300714 9.1841101e-41
0.65178186 0.70213974 -0.44104958 2.7623236e-40
0.64984441 0.70501637 -0.4397493 3.6842799e-40
0.64956969 0.7079134 -0.43778563 2.7659249e-40
0.6487658 0.72095585 -0.42877612 9.1835496e-41
0.64593869 0.72636223 -0.42601472 3.6770352e-40
0.64433497 0.73148096 -0.4229815 2.2105371e-39
0.64074409 0.73945427 -0.41868311 2.1176352e-39
0.63746917 0.74449021 -0.41636118 1.7509925e-39
0.63656569 0.75013369 -0.41267955 1.5640957e-39
0.63304663 0.76134884 -0.40603593 1.9325167e-39
0.6313687 0.76450133 -0.40443715 1.3793471e-39
0.6249795 0.80993229 -0.37445477 0
0.70162368 0.59301633 -0.49960464 2.1179828e-39
0.69759095 0.59504402 -0.49972889 2.759755e-39
0.69281596 0.59680849 -0.50033104 2.759755e-39
0.6910907 0.59939271 -0.49915695 2.8533758e-39
0.68823713 0.60162514 -0.49867478 2.2987769e-39
0.68652356 0.60417563 -0.49752033 2.026492e-39
0.68443882 0.60659456 -0.49660474 1.4726133e-39
0.68273473 0.60911745 -0.49546617 2.0257829e-39
0.68066156 0.61150271 -0.49457017 2.0254368e-39
0.67971146 0.61425513 -0.49297342 1.7510079e-39
0.67801905 0.61674428 -0.49185455 2.3016636e-39
0.6763308 0.61922133 -0.49074274 2.0250809e-39
0.67427778 0.62154824 -0.48988044 1.8403379e-39
0.67259914 0.62399757 -0.48878461 2.0250865e-39
0.67092466 0.62643474 -0.48769599 2.0254368e-39
0.66998625 0.62915331 -0.48611873 1.8410441e-39
0.66831815 0.63157213 -0.48504075 8.2941034e-40
0.66738176 0.63428462 -0.48346713 6.4501908e-40
0.66644543 0.63699722 -0.48189351 8.2835377e-40
0.6655091 0.63970977 -0.48031995 9.2160738e-40
0.66428012 0.64321446 -0.47829416 8.2761528e-40
0.66363645 0.64513475 -0.4771727 1.1027728e-39
0.66162473 0.64734221 -0.47637981 5.5282345e-40
0.66074014 0.65031868 -0.47459725 4.5954462e-40
0.65845907 0.65294474 -0.47361019 2.7623236e-40
0.65785313 0.65556413 -0.47197425 2.7623236e-40
0.65895474 0.65869749 -0.46930453 5.5282345e-40
0.65801835 0.66141003 -0.46773097 5.521172e-40
0.65494365 0.66372192 -0.46727818 6.4358275e-40
0.65469116 0.66652673 -0.46537164 5.5138712e-40
0.65373069 0.66896558 -0.46400318 5.5138152e-40
0.65347701 0.67177588 -0.46209323 2.7659249e-40
0.65192926 0.67478901 -0.46054339 5.5138152e-40
0.65240502 0.6780284 -0.45804197 7.3541965e-40
0.65214646 0.68086249 -0.45611706 3.6807627e-40
0.65020138 0.68367374 -0.45486656 6.4357575e-40
0.65031815 0.68674827 -0.45262304 3.6842799e-40
0.65005612 0.68959999 -0.45068693 3.6842799e-40
0.64876825 0.6958853 -0.4466964 3.6734899e-40
0.6459468 0.70428538 -0.44179279 2.7623937e-40
0.64567655 0.70717245 -0.43983454 4.6063623e-40
0.64717418 0.71127808 -0.43631521 5.5138152e-40
0.64717889 0.71453506 -0.43398514 6.4285968e-40
0.64495158 0.71898967 -0.43167004 1.8367099e-40
0.6449191 0.7233392 -0.42857346 7.3468537e-40
0.64258361 0.72596842 -0.42760554 6.4393028e-40
0.63204181 0.75516671 -0.41084728 1.7477569e-39
0.62988293 0.76100069 -0.40751943 7.3648324e-40
0.69831675 0.58957475 -0.50335521 1.7495464e-39
0.69619733 0.59211671 -0.50236535 2.3020139e-39
0.69332796 0.59443229 -0.5018298 2.1143856e-39
0.68971515 0.59650332 -0.50175911 2.667558e-39
0.68762112 0.59897166 -0.50081193 2.6689859e-39
0.68590844 0.60153461 -0.49964818 2.4835269e-39
0.68419993 0.60408533 -0.49849162 2.1179828e-39
0.68212289 0.60650456 -0.49757281 1.8410441e-39
0.67930859 0.60866076 -0.49712962 2.0254368e-39
0.67761707 0.61116248 -0.49600139 1.7506576e-39
0.67666906 0.61390877 -0.49440828 1.9354076e-39
0.67498386 0.61639208 -0.49329075 2.1172821e-39
0.67438561 0.61906022 -0.49161696 1.1045609e-39
0.67052674 0.62090898 -0.49180123 2.0257829e-39
0.6688574 0.62334633 -0.49071044 1.7481423e-39
0.66792107 0.62605888 -0.48913687 1.7484898e-39
0.66698468 0.62877142 -0.48756319 1.7506576e-39
0.66496164 0.63103437 -0.48673511 6.4501908e-40
0.66258359 0.63312596 -0.48616794 0
0.66165471 0.63581699 -0.48460668 4.6026909e-40
0.66121894 0.6383003 -0.48300156 5.5138152e-40
0.65979683 0.64119911 -0.48148438 6.4501908e-40
0.66029584 0.64455098 -0.47889367 1.1031204e-39
0.6581198 0.64634067 -0.4784635 6.4357575e-40
0.65712637 0.64876825 -0.47711578 2.7623236e-40
0.65608108 0.65196353 -0.47523972 4.5992157e-40
0.65388483 0.65382218 -0.47476807 4.5919149e-40
0.65366983 0.65662694 -0.47284696 6.4357575e-40
0.65371859 0.66074842 -0.4698818 6.4357575e-40
0.65081447 0.66185975 -0.47022077 6.4322262e-40
0.65018648 0.66444284 -0.46861926 6.4357575e-40
0.65031981 0.66744626 -0.46642035 2.7659249e-40
0.64838648 0.67022663 -0.46518728 3.6842799e-40
0.64835113 0.6731655 -0.46310028 2.7623236e-40
0.64882618 0.67639279 -0.46060786 3.6842799e-40
0.64857239 0.67921692 -0.45868811 5.5138712e-40
0.64627606 0.68181443 -0.4577274 3.6842799e-40
0.64639252 0.68487483 -0.45549434 4.6098375e-40
0.64613551 0.68771404 -0.453565 3.68435e-40
0.64420176 0.69054478 -0.45229617 7.3577138e-40
0.65036428 0.69755059 -0.44488317 9.0236166e-39
0.6509648 0.7010988 -0.44211248 8.7481031e-39
0.64243889 0.70564699 -0.4421885 4.6063203e-40
0.64307392 0.70917135 -0.4394213 3.68435e-40
0.64108664 0.7120111 -0.43816686 5.5174025e-40
0.64081573 0.7149142 -0.43619737 3.6734899e-40
0.64298201 0.72349203 -0.4292202 2.3027201e-39
0.63914782 0.73459959 -0.42277637 2.7590488e-39
0.6381892 0.73737657 -0.42116538 3.4976886e-39
0.63520133 0.73825169 -0.42170578 2.1172849e-39
0.62610871 0.76530123 -0.40591818 1.4715259e-39
0.62294799 0.80503172 -0.37875065 0
0.69691855 0.58663797 -0.50600016 7.3504691e-40
0.69404829 0.58899403 -0.50543612 1.1960251e-39
0.69194186 0.59152079 -0.50445187 2.118689e-39
0.68909067 0.59382164 -0.50391984 1.3804163e-39
0.68737358 0.59641242 -0.502738 2.118689e-39
0.68454045 0.59866107 -0.50223607 1.7491988e-39
0.68283498 0.6012181 -0.50107378 2.1179828e-39
0.68076241 0.60364681 -0.50014645 2.1176324e-39
0.67906648 0.60617626 -0.49900019 2.0250865e-39
0.67626715 0.60832691 -0.49855524 1.8428532e-39
0.67531908 0.61107326 -0.49696207 2.1194457e-39
0.67363691 0.61356288 -0.49583888 1.8425029e-39
0.67189252 0.61636102 -0.49451941 1.1056385e-39
0.66919035 0.61810195 -0.49432939 2.3013132e-39
0.66752404 0.62054557 -0.49323285 2.0250865e-39
0.66658771 0.62325811 -0.49165919 2.0247362e-39
0.66565138 0.6259706 -0.49008554 1.8403379e-39
0.66363275 0.62824309 -0.48924899 1.2903885e-39
0.66126078 0.63034731 -0.48867038 1.1031204e-39
0.65877384 0.63274926 -0.48792389 2.7623937e-40
0.65781152 0.63520461 -0.48654434 3.68435e-40
0.65847397 0.63842058 -0.48398685 6.4501908e-40
0.65647864 0.64062554 -0.48318931 8.2941034e-40
0.65555292 0.64330745 -0.48163351 6.4501908e-40
0.65462714 0.64598924 -0.48007762 1.1031204e-39
0.65370136 0.64867121 -0.47852176 4.6026909e-40
0.64991802 0.65037286 -0.47878191 3.67356e-40
0.64967948 0.6531353 -0.47690016 3.67356e-40
0.64908391 0.65572834 -0.47527903 3.6842799e-40
0.64848816 0.6583215 -0.47365785 5.5138152e-40
0.64656544 0.66108239 -0.47243464 3.6807486e-40
0.64688838 0.66416854 -0.47010249 2.7623937e-40
0.64664471 0.66695595 -0.468205 3.6807486e-40
0.64471012 0.66972852 -0.46697804 3.6807486e-40
0.64446497 0.67252493 -0.46507472 3.6842799e-40
0.64461017 0.67556888 -0.4628422 3.68435e-40
0.64526558 0.67891264 -0.46019614 8.2796841e-40
0.64261925 0.68130052 -0.4595218 9.2016964e-40
0.64308119 0.68455702 -0.4570137 5.5282065e-40
0.65399581 0.69387496 -0.44609353 1.2523079e-38
0.643852 0.69150597 -0.45174563 1.3793611e-39
0.64721626 0.69747341 -0.4461669 8.9328643e-39
0.64722115 0.70063192 -0.44390708 8.8406673e-39
0.64752781 0.70401299 -0.44137061 8.5651636e-39
0.64179784 0.70293605 -0.4443765 3.6807486e-40
0.63947505 0.70553982 -0.44342172 3.6879373e-40
0.64119196 0.70993823 -0.4396075 2.7912604e-40
0.63757646 0.71151125 -0.43989405 5.5247173e-40
0.64093578 0.7166394 -0.43491733 1.0109247e-39
0.64196026 0.7195515 -0.43243584 8.288211e-39
0.64088202 0.72484487 -0.42907265 8.9321314e-39
0.63874137 0.72895557 -0.42696962 3.1299627e-39
0.63778281 0.73173237 -0.42535856 3.3140078e-39
0.63263947 0.73526174 -0.42484289 1.7509981e-39
0.63394868 0.73926443 -0.4214707 3.2246947e-39
0.6314227 0.74062896 -0.42148098 1.9335915e-39
0.62940621 0.74349016 -0.42022255 1.3822016e-39
0.62879902 0.7461735 -0.4185414 1.4744042e-39
0.62819141 0.74885708 -0.41686028 1.8399427e-39
0.62791091 0.75181597 -0.41485459 1.6570018e-39
0.6266368 0.75806302 -0.4108862 2.4835269e-39
0.62434399 0.75974292 -0.4105801 1.3796862e-39
0.62264258 0.76289493 -0.40899095 1.3800534e-39
0.62439483 0.76694149 -0.40541443 2.7590488e-39
0.62143898 0.76828998 -0.405604 1.1038238e-39
0.6934101 0.58626199 -0.5076381 1.8367099e-40
0.69055575 0.58860928 -0.50707412 1.011631e-39
0.68883437 0.59122783 -0.50587398 2.026492e-39
0.68599808 0.59352309 -0.50534022 1.1960251e-39
0.68391627 0.59600109 -0.50438112 2.3027201e-39
0.68146998 0.59835094 -0.50365603 2.0257829e-39
0.68438768 0.60159737 -0.5001967 1.1045567e-39
0.67918795 0.60353643 -0.50083983 1.1967509e-39
0.67740828 0.60586572 -0.49986929 1.1045595e-39
0.67396921 0.60823762 -0.49951583 1.7506576e-39
0.67389029 0.61048639 -0.49793917 1.1981929e-39
0.66952151 0.61283267 -0.49796683 2.1197988e-39
0.66862559 0.6150589 -0.49672511 1.0138058e-39
0.66619068 0.61774486 -0.49575523 1.8435623e-39
0.66525435 0.62045735 -0.4941816 2.1176324e-39
0.66323709 0.62274849 -0.49333104 2.0250865e-39
0.66158545 0.62516475 -0.49224839 1.7484898e-39
0.65993798 0.62756866 -0.49117282 1.2896822e-39
0.65793765 0.62981081 -0.49035072 2.0250809e-39
0.65701193 0.63249272 -0.48879489 1.1974866e-39
0.65608615 0.63517457 -0.48723903 5.5571433e-40
0.65516037 0.63785654 -0.4856832 1.1974866e-39
0.65423465 0.64053828 -0.48412734 1.2903885e-39
0.65330893 0.64322013 -0.48257151 1.1056385e-39
0.6498782 0.64514261 -0.48253611 8.2796841e-40
0.65075791 0.6482417 -0.47997743 1.1056385e-39
0.64983428 0.65091747 -0.4784252 6.4501908e-40
0.64891058 0.6535933 -0.47687292 7.0064923e-45
0.64798701 0.65626901 -0.47532058 1.1031204e-39
0.64520538 0.65806156 -0.47512472 3.6842939e-40
0.64290696 0.66061574 -0.47419578 3.6879373e-40
0.6430409 0.66358906 -0.47201812 2.7623937e-40
0.64317203 0.66657466 -0.46983275 7.3541825e-40
0.64123517 0.66934055 -0.46861133 4.6098375e-40
0.64099324 0.67213041 -0.46671161 3.6879373e-40
0.64040136 0.67472774 -0.4650858 6.4431563e-40
0.64228827 0.67869925 -0.46151048 1.6559466e-39
0.63913697 0.68087775 -0.46118313 6.4466315e-40
0.64278221 0.6855582 -0.45641473 9.2125985e-40
0.64688903 0.69141412 -0.45062593 9.0246984e-39
0.6468972 0.69455492 -0.44837761 8.8417421e-39
0.64379901 0.69721502 -0.44768521 7.8279587e-39
0.63970035 0.69685483 -0.44954216 1.1031204e-39
0.64267933 0.70134854 -0.44516733 7.4588132e-39
0.63641798 0.70230883 -0.44692433 5.5138712e-40
0.63615686 0.70518267 -0.44497195 4.6063623e-40
0.6362344 0.70829326 -0.44271797 3.6807486e-40
0.63794607 0.71259522 -0.43897495 1.8693041e-40
0.6339882 0.71403426 -0.43949071 1.8403673e-40
0.63703394 0.71886498 -0.43484905 6.999647e-39
0.63720804 0.72222239 -0.43238097 8.3814996e-39
0.63545436 0.72810358 -0.42886132 3.1296151e-39
0.63449901 0.73087126 -0.42725566 3.7760551e-39
0.63354355 0.73363894 -0.42565003 3.5906115e-39
0.63258821 0.73640668 -0.42404434 2.6711551e-39
0.62946957 0.7368573 -0.42493927 1.7502862e-39
0.62877101 0.74075532 -0.42242557 1.8428364e-39
0.62972206 0.74470991 -0.41922754 3.3175951e-39
0.62813914 0.7469269 -0.41826046 3.4998242e-39
0.62529737 0.74746996 -0.41898116 2.0247067e-39
0.62359375 0.75060368 -0.41740593 1.9335901e-39
0.62299132 0.75328571 -0.41572377 2.7622648e-39
0.62189764 0.75551152 -0.41455957 2.853394e-39
0.621786 0.75865006 -0.41235951 1.4733378e-39
0.61947191 0.764485 -0.40909159 6.442848e-40
0.61886984 0.76716965 -0.40740734 1.1949461e-39
0.61826748 0.76985449 -0.40572333 1.2864214e-39
0.61654836 0.77304149 -0.40411595 6.4321701e-40
0.68931395 0.58881003 -0.50741524 1.011631e-39
0.68647999 0.59113634 -0.50685817 1.6566445e-39
0.6843974 0.59363919 -0.50588173 6.4284847e-40
0.68158245 0.59591037 -0.50535673 2.026492e-39
0.67914635 0.59826076 -0.50462741 2.0254368e-39
0.6793229 0.60102433 -0.50258297 1.0120065e-39
0.67539817 0.60323507 -0.50253415 2.0254368e-39
0.67334956 0.60563999 -0.50161457 2.1176324e-39
0.6722883 0.60807788 -0.50028586 1.0130827e-39
0.66999722 0.61064452 -0.49934533 2.4889289e-39
0.66665959 0.61255282 -0.4992837 1.1059986e-39
0.66557908 0.61520648 -0.49780846 1.9357579e-39
0.66464061 0.61792517 -0.49623123 1.8435623e-39
0.66298455 0.62036914 -0.49513039 1.8410441e-39
0.66097504 0.62266058 -0.49427667 1.5666265e-39
0.65932852 0.62507713 -0.49319187 1.7481423e-39
0.65768623 0.62748122 -0.49211413 1.3818779e-39
0.65569359 0.62972361 -0.49128878 1.5666265e-39
0.65476781 0.63240552 -0.48973301 1.2896822e-39
0.65313721 0.634776 -0.48867482 1.5666265e-39
0.65050399 0.63616723 -0.48870784 6.4466315e-40
0.65128982 0.64012742 -0.48557022 1.8403379e-39
0.64724624 0.64117485 -0.4863995 1.0123625e-39
0.64874613 0.64514309 -0.48297766 1.8410441e-39
0.64606833 0.64634025 -0.4831669 5.5282065e-40
0.6469031 0.6504823 -0.47988012 1.4715568e-39
0.64319438 0.6515004 -0.48059961 9.1981652e-40
0.64251804 0.65522426 -0.47820172 7.3541825e-40
0.64228404 0.65798473 -0.47631973 4.6098375e-40
0.64008802 0.65940642 -0.47616035 7.3541965e-40
0.63985395 0.66217089 -0.47427565 7.3542385e-40
0.63926691 0.66475314 -0.47265881 4.6063063e-40
0.64112979 0.66956079 -0.4684951 9.2125985e-40
0.63745487 0.67049253 -0.46926326 4.6063063e-40
0.63928252 0.67491227 -0.4653905 1.1974866e-39
0.63778609 0.6777786 -0.46392563 8.2761528e-40
0.63977653 0.68171841 -0.46033251 1.1049407e-39
0.63568836 0.68221462 -0.46157309 4.6063063e-40
0.63857907 0.68754065 -0.45663774 1.1049407e-39
0.63764596 0.69024408 -0.45506945 9.2125985e-40
0.64063013 0.69638604 -0.44951445 4.1376294e-39
0.63892132 0.69905698 -0.44827193 4.1383398e-39
0.63421381 0.69854224 -0.45047691 2.7623236e-40
0.63620263 0.70266229 -0.44675565 4.6026909e-40
0.63591409 0.70585179 -0.44458842 4.5992157e-40
0.63497138 0.7085827 -0.44300407 2.1804204e-42
0.63564807 0.71250594 -0.43993559 9.2125985e-40
0.63076979 0.71248281 -0.44185567 3.6807486e-40
0.63536096 0.71922141 -0.43524715 5.521172e-40
0.6339134 0.72201216 -0.433817 3.6834798e-39
0.63505274 0.7259981 -0.43052316 2.9448652e-39
0.63409424 0.72877491 -0.42891219 3.2214619e-39
0.63313562 0.73155189 -0.42730129 4.0515883e-39
0.63217711 0.73432869 -0.4256902 5.5274274e-39
0.63121849 0.73710567 -0.42407921 5.5274274e-39
0.62931687 0.73908448 -0.42340696 5.2508349e-39
0.62773484 0.74131393 -0.42243052 4.4210742e-39
0.62678158 0.74407554 -0.42082846 4.052642e-39
0.62357014 0.74518722 -0.421287 1.9335901e-39
0.62296891 0.74786896 -0.41960466 1.932874e-39
0.62392181 0.75236022 -0.41602224 3.1296151e-39
0.62032986 0.75341272 -0.41667157 1.3814995e-39
0.61972964 0.75609428 -0.41498891 1.841742e-39
0.61945194 0.75906348 -0.41297483 2.0246941e-39
0.61740798 0.76192981 -0.41172358 2.1168967e-39
0.61712718 0.76492542 -0.40969184 2.76082e-39
0.61700308 0.76808488 -0.40748164 2.4856737e-39
0.61640054 0.77077734 -0.40579212 1.5662509e-39
0.61434931 0.77364945 -0.4045395 2.2998573e-39
0.68583679 0.58842587 -0.50904673 1.1038294e-39
0.6830188 0.5907436 -0.50848967 1.4726133e-39
0.681315 0.59334105 -0.50729775 7.3504691e-40
0.67928362 0.59615016 -0.50608248 1.2896528e-39
0.67729968 0.59845787 -0.50520712 1.104914e-39
0.67322189 0.60072017 -0.50518125 1.0123583e-39
0.67164916 0.603104 -0.50409091 9.2016964e-40
0.66990566 0.60541934 -0.50311625 7.3685878e-40
0.66874158 0.60790902 -0.50179088 1.013803e-39
0.666623 0.61018062 -0.50099379 2.7641117e-39
0.66496152 0.61265552 -0.49987304 1.3854708e-39
0.66330421 0.61511809 -0.49875933 1.1063476e-39
0.66165125 0.61756843 -0.49765286 2.0254368e-39
0.65867907 0.61928713 -0.49758404 1.1045595e-39
0.65800261 0.62229216 -0.4957 1.8399848e-39
0.65636337 0.62470269 -0.49461657 1.8399848e-39
0.65543443 0.62739378 -0.49305543 2.4857045e-39
0.65344948 0.62963641 -0.4922269 2.1194457e-39
0.64948797 0.63125998 -0.49261218 1.1059972e-39
0.65089822 0.63468897 -0.48961073 1.9354076e-39
0.64997452 0.63736475 -0.48805848 1.8428532e-39
0.64905089 0.6400404 -0.48650619 2.0250865e-39
0.64433324 0.6411317 -0.48756719 1.1045623e-39
0.64374715 0.64371091 -0.4859522 1.0120093e-39
0.64559078 0.64772588 -0.48236266 1.105291e-39
0.64122462 0.64903843 -0.48312825 7.3614132e-40
0.6406396 0.65161741 -0.48151296 7.3649585e-40
0.64005435 0.6541965 -0.4798978 4.6099356e-40
0.63946897 0.65677553 -0.47828269 5.5247173e-40
0.64098316 0.66107404 -0.47461903 1.1031204e-39
0.63729769 0.66228878 -0.47518882 4.6098936e-40
0.63914013 0.66641331 -0.47152153 7.3650846e-40
0.63648683 0.66766077 -0.47166523 4.6063063e-40
0.63488972 0.6706109 -0.47017959 3.6879653e-40
0.63430476 0.6731984 -0.46855819 5.5282766e-40
0.63678586 0.67791039 -0.46422178 9.2125985e-40
0.63299406 0.67930073 -0.46470758 5.5282626e-40
0.63592684 0.68390638 -0.46027079 7.3722733e-40
0.6400075 0.69015628 -0.45421067 4.3195095e-39
0.63054723 0.68771064 -0.4596507 6.4466315e-40
0.63379538 0.69241959 -0.455017 8.2835377e-40
0.63528347 0.69728225 -0.45096022 3.4022434e-39
0.62962288 0.69720399 -0.45322526 4.6098375e-40
0.62937117 0.70005524 -0.45128527 3.6842799e-40
0.62946045 0.7031576 -0.44903269 2.7587923e-40
0.62920833 0.70603919 -0.44707119 3.68435e-40
0.62805462 0.70946193 -0.44507483 3.6879373e-40
0.63240224 0.71516281 -0.43930292 9.2125985e-40
0.62820923 0.71575016 -0.44051939 7.3577838e-40
0.63273335 0.72238821 -0.43400875 2.3938592e-39
0.62726349 0.72253948 -0.43603528 1.5644544e-39
0.62732679 0.72571552 -0.43374017 1.8414029e-39
0.63081205 0.73146158 -0.42827258 5.804359e-39
0.62985349 0.73423845 -0.42666158 5.9880468e-39
0.62889493 0.73701537 -0.42505056 6.2625009e-39
0.62700099 0.73899448 -0.42437503 5.2504818e-39
0.62542409 0.74122423 -0.4233965 4.1441342e-39
0.62447083 0.74398577 -0.42179438 4.0519386e-39
0.62351757 0.74674731 -0.42019233 4.4199854e-39
0.61982512 0.74756062 -0.42105192 2.4853247e-39
0.6206916 0.75142664 -0.41795015 3.957578e-39
0.61807978 0.75258046 -0.41814458 1.7492002e-39
0.61879134 0.75693136 -0.41475669 3.0370608e-39
0.6178413 0.75968379 -0.41315994 3.1274459e-39
0.61423379 0.76349616 -0.41184255 2.6711551e-39
0.61394978 0.76649177 -0.40981209 3.5916877e-39
0.61325765 0.77042925 -0.40726742 3.4083446e-39
0.6112017 0.77329928 -0.40601817 3.2225212e-39
0.68274242 0.58813977 -0.51045889 1.1960251e-39
0.68067217 0.59065235 -0.50947064 2.1143856e-39
0.67787749 0.59293991 -0.50892603 3.6734899e-40
0.67548233 0.59596127 -0.50770098 1.1052686e-39
0.67258447 0.59798688 -0.50738388 1.1045567e-39
0.67172992 0.60029405 -0.50606805 1.3800674e-39
0.66771668 0.60283458 -0.50581807 1.1045595e-39
0.66672283 0.60537523 -0.50438988 1.1967551e-39
0.66635746 0.60772622 -0.5028519 2.3963829e-39
0.66389054 0.60892534 -0.50295734 1.2903871e-39
0.66196781 0.61231101 -0.50128746 1.8428532e-39
0.66031778 0.61476773 -0.50017524 1.108535e-39
0.65831733 0.61707807 -0.49930435 2.1194457e-39
0.65667683 0.61950719 -0.49820817 2.1194457e-39
0.65574574 0.62220442 -0.49664345 2.5779057e-39
0.65411156 0.62461513 -0.49555784 3.0392342e-39
0.65213114 0.62686729 -0.49472073 2.3963829e-39
0.64750946 0.62879443 -0.49514687 1.0138058e-39
0.64958286 0.63192624 -0.49209899 1.9354076e-39
0.64796466 0.63429093 -0.49104008 1.8425029e-39
0.64430004 0.6359238 -0.49130285 1.1049365e-39
0.64612156 0.6396302 -0.48794264 1.8428532e-39
0.64520007 0.64229977 -0.4863939 1.5666265e-39
0.64046878 0.64348531 -0.48739275 6.4537782e-40
0.63988626 0.64605784 -0.48578119 4.6062782e-40
0.64175344 0.64996094 -0.48226249 1.1974866e-39
0.63736546 0.65137315 -0.48296532 6.4502889e-40
0.63713765 0.65412426 -0.48108765 3.6915667e-40
0.63899523 0.65795141 -0.47762698 6.4431283e-40
0.63597339 0.65927452 -0.47786048 3.684336e-40
0.63715643 0.6632784 -0.4745366 9.2090953e-40
0.63415486 0.66499078 -0.47448391 3.6879653e-40
0.63598478 0.6689961 -0.47090662 7.3722733e-40
0.63572824 0.67206258 -0.46881473 7.3722733e-40
0.63480461 0.67473829 -0.46726239 1.8202867e-42
0.63388097 0.67741406 -0.4657101 2.7623797e-40
0.63361597 0.68050498 -0.463604 9.2125985e-40
0.62956762 0.680628 -0.46509585 2.7803863e-40
0.62923956 0.68461567 -0.46237335 6.4466596e-40
0.63490921 0.69256788 -0.45447633 3.6781044e-39
0.62736833 0.69043428 -0.45894435 8.2941175e-40
0.63060743 0.69502908 -0.45439562 1.3818779e-39
0.63129133 0.69885629 -0.45139298 1.105291e-39
0.63099885 0.70202702 -0.4492406 7.3650846e-40
0.62659222 0.70184284 -0.45109186 3.68435e-40
0.62976158 0.70793468 -0.44550034 7.3722733e-40
0.62608528 0.70758706 -0.44718355 4.6063063e-40
0.62441427 0.71063256 -0.44565862 2.7803723e-40
0.62465245 0.71390998 -0.44322279 6.4501488e-40
0.62329519 0.71723115 -0.44137836 1.1971055e-39
0.629462 0.72506595 -0.43337116 2.7590488e-39
0.62383491 0.72518229 -0.4354839 1.7484926e-39
0.62755126 0.73060125 -0.43015996 5.0660905e-39
0.62659591 0.73336905 -0.42855439 4.5154335e-39
0.62564051 0.73613673 -0.4269487 3.869362e-39
0.62406659 0.7383728 -0.42596453 4.8813489e-39
0.62311333 0.74113441 -0.42436242 5.3416264e-39
0.62216008 0.74389589 -0.42276037 5.3412327e-39
0.61808646 0.74529624 -0.42334902 2.3016481e-39
0.61749107 0.74797475 -0.42166674 2.3012894e-39
0.61838847 0.75133717 -0.41891292 4.9724305e-39
0.61743844 0.75408953 -0.41731617 4.6051124e-39
0.61402208 0.75465757 -0.41824338 2.2101784e-39
0.61342859 0.7573331 -0.41656229 2.2083861e-39
0.61315596 0.76030159 -0.41454673 2.5760826e-39
0.61156136 0.76362377 -0.41279414 2.3020181e-39
0.6109671 0.76630688 -0.41110814 2.3956416e-39
0.61037266 0.76899016 -0.40942201 2.8555492e-39
0.60849589 0.77866179 -0.40324077 2.6704209e-39
0.68135941 0.58523452 -0.51307529 1.472263e-39
0.67929357 0.58775669 -0.51207858 1.2882179e-39
0.67650646 0.59006011 -0.51151973 1.6562941e-39
0.67326248 0.59335184 -0.51043254 6.442834e-40
0.67204916 0.59489381 -0.50980377 2.3945654e-39
0.66945899 0.59674299 -0.50949281 1.1045567e-39
0.6684801 0.59931296 -0.50803763 8.2761948e-40
0.66711754 0.60175359 -0.50682473 1.749573e-39
0.66323268 0.6039961 -0.50673777 1.6577305e-39
0.66299546 0.60727203 -0.50448853 2.3963829e-39
0.66134214 0.60975355 -0.50335991 2.1194457e-39
0.65969294 0.61222267 -0.50223839 2.3020545e-39
0.65804809 0.61467952 -0.50112402 2.8573625e-39
0.65605521 0.61699021 -0.50024998 3.2239954e-39
0.6537177 0.61914551 -0.49962151 2.765171e-39
0.65278876 0.62183654 -0.49806032 2.4882282e-39
0.65185982 0.62452769 -0.49649915 2.8563143e-39
0.64988708 0.62678015 -0.49565887 2.4882282e-39
0.64502913 0.62775105 -0.49686068 1.3818779e-39
0.64665228 0.63153458 -0.49352264 2.2119931e-39
0.64504129 0.63389331 -0.49246511 2.1197988e-39
0.64412189 0.63655686 -0.49092001 1.9354076e-39
0.64320248 0.6392203 -0.48937479 1.8428532e-39
0.64228302 0.64188379 -0.48782966 1.8403379e-39
0.63764399 0.64226657 -0.48936632 1.0120093e-39
0.63706517 0.64483523 -0.48775607 4.6172084e-40
0.63639551 0.64856732 -0.4853496 5.5354933e-40
0.63793069 0.65218407 -0.48216507 1.1974866e-39
0.63396353 0.65270996 -0.48333737 8.2761948e-40
0.63166213 0.65526599 -0.48240831 6.4323383e-40
0.63584715 0.66052836 -0.47701344 7.3650846e-40
0.63156116 0.66097069 -0.47836977 4.6063483e-40
0.6313327 0.66374737 -0.47647399 4.6062642e-40
0.62937307 0.66649413 -0.47527525 4.6098656e-40
0.62879509 0.66907138 -0.47365847 4.6062642e-40
0.62856406 0.6718486 -0.47176337 3.6807767e-40
0.63164204 0.6773271 -0.46664611 6.4431283e-40
0.62670535 0.67761391 -0.46836743 4.6063343e-40
0.63142329 0.68373144 -0.46215332 1.1974866e-39
0.62631208 0.68452215 -0.46358272 6.4431563e-40
0.62442201 0.6860984 -0.46319357 8.2941315e-40
0.62863654 0.69180471 -0.45746982 1.7503073e-39
0.62427819 0.6919632 -0.45905718 8.2941315e-40
0.62437111 0.69502723 -0.45683074 6.4466456e-40
0.62462807 0.69822305 -0.45444596 3.6879373e-40
0.62330085 0.70148426 -0.45263255 6.4537501e-40
0.62305206 0.70434147 -0.45068729 7.3577978e-40
0.62654102 0.71057087 -0.44487268 1.3818779e-39
0.62112033 0.71025765 -0.44721204 8.2941175e-40
0.62168455 0.7137686 -0.44448203 8.2941175e-40
0.62653649 0.72097147 -0.43743974 1.7484898e-39
0.62086648 0.7206381 -0.4398908 1.1034707e-39
0.62092727 0.72381425 -0.43759662 2.1183471e-39
0.62523544 0.73051131 -0.43112808 5.805466e-39
0.62428004 0.73327905 -0.42952245 4.3314023e-39
0.62270916 0.7355215 -0.42853251 4.1444873e-39
0.62175584 0.73828304 -0.42693043 3.8679005e-39
0.6198858 0.74023813 -0.42626259 3.0348804e-39
0.6189357 0.74299049 -0.42466587 1.9285454e-39
0.61798561 0.74574286 -0.42306909 2.0203879e-39
0.61492372 0.7468583 -0.4234668 1.1020358e-39
0.61433136 0.74953634 -0.42178357 1.4708169e-39
0.61341596 0.75192928 -0.42043012 1.4711798e-39
0.61418527 0.75675243 -0.41668224 3.0367105e-39
0.61108518 0.75775558 -0.41717482 2.4867653e-39
0.60901791 0.76061928 -0.41593456 2.9477518e-39
0.60842758 0.76329702 -0.41425076 2.9481022e-39
0.6078372 0.76597476 -0.41256702 3.2232527e-39
0.60770053 0.76911962 -0.41037226 3.0388615e-39
0.67622232 0.58747143 -0.51348102 1.2878704e-39
0.67222935 0.58982283 -0.51335841 1.2882263e-39
0.67086327 0.59231848 -0.51210749 9.197983e-40
0.66836834 0.594473 -0.51154107 1.6566487e-39
0.6668188 0.59687722 -0.51042712 1.013803e-39
0.66367626 0.59939671 -0.50985235 1.0130883e-39
0.66177416 0.6016562 -0.50897956 1.3825827e-39
0.66060966 0.60412812 -0.50766701 1.3825841e-39
0.65926731 0.60653371 -0.50647128 1.2900326e-39
0.65578979 0.60885823 -0.50616658 1.3822366e-39
0.6544643 0.61124057 -0.50498104 1.47587e-39
0.65313429 0.61360377 -0.5038107 1.8428532e-39
0.65125144 0.61574215 -0.50301683 1.6588137e-39
0.64781219 0.61797857 -0.50276029 1.6588137e-39
0.64722669 0.62058169 -0.50112796 1.2903927e-39
0.64572966 0.62281549 -0.50011539 1.2903927e-39
0.64695227 0.62640065 -0.49707535 2.4885786e-39
0.64534009 0.62877816 -0.49600509 2.4885786e-39
0.64373201 0.63114321 -0.49494192 2.2119931e-39
0.64281261 0.63380671 -0.49339673 2.0276032e-39
0.6385535 0.63466799 -0.49444324 1.1056427e-39
0.63797575 0.63723898 -0.49283084 8.3084948e-40
0.63703948 0.63964671 -0.49147514 1.1042064e-39
0.63509071 0.6423856 -0.49027774 8.2906422e-40
0.6339829 0.64468443 -0.48906666 7.3830352e-40
0.6316787 0.64724576 -0.48813492 8.2870409e-40
0.63075256 0.649629 -0.4867928 7.3686859e-40
0.63070452 0.65246916 -0.48478135 8.2761948e-40
0.63387263 0.65741241 -0.48001125 1.4715568e-39
0.62887448 0.65814322 -0.48143932 3.684364e-40
0.63269913 0.66310513 -0.47639984 7.3722733e-40
0.62842262 0.66366321 -0.47766984 4.5992437e-40
0.62680012 0.66661245 -0.4761948 3.684378e-40
0.63059562 0.6714921 -0.47122547 5.521172e-40
0.62599474 0.67196733 -0.47268122 3.6735179e-40
0.62541837 0.6745469 -0.47106215 3.6879373e-40
0.62847948 0.67991573 -0.4660297 9.2020608e-40
0.623887 0.68052775 -0.46738449 6.4466456e-40
0.62330931 0.68311626 -0.46575949 2.7768551e-40
0.62182671 0.68621469 -0.46412322 4.6207396e-40
0.62158841 0.68902898 -0.46220437 8.2905862e-40
0.6254558 0.69440824 -0.45684984 1.8425029e-39
0.6251626 0.69755095 -0.45471781 1.2893291e-39
0.61977029 0.69792563 -0.45655432 3.6987833e-40
0.62001723 0.70112789 -0.45416874 7.3722172e-40
0.62009704 0.70422393 -0.4519245 6.4466736e-40
0.61841661 0.70726043 -0.45040971 9.2160738e-40
0.62332052 0.71320713 -0.44424504 1.9350545e-39
0.62300295 0.71642029 -0.44207206 2.3020545e-39
0.62361252 0.72038746 -0.43899828 1.3818835e-39
0.61795801 0.71925944 -0.44201127 1.1045595e-39
0.6238749 0.72765368 -0.43370181 4.3317555e-39
0.61710918 0.72482681 -0.43836278 3.0413824e-39
0.62135166 0.73267007 -0.43110058 5.5274274e-39
0.6203984 0.73543161 -0.4294984 4.2392011e-39
0.61853284 0.7373963 -0.4288221 4.052642e-39
0.6175828 0.7401486 -0.42722529 3.2196416e-39
0.6166327 0.74290103 -0.42562857 2.7582935e-39
0.61230916 0.74248785 -0.42761117 1.0105492e-39
0.61202878 0.74544412 -0.42560729 1.1945789e-39
0.61318475 0.75059623 -0.42147329 1.4697267e-39
0.6122368 0.75334245 -0.41988009 2.0221886e-39
0.60879713 0.75364643 -0.42100513 1.9332356e-39
0.60820997 0.75632066 -0.41932264 2.4878373e-39
0.60645068 0.75947678 -0.41775313 2.7633592e-39
0.60616368 0.76245594 -0.41573554 3.3165301e-39
0.60526001 0.76483357 -0.41438848 3.5938261e-39
0.60467267 0.76751089 -0.41270387 3.5931156e-39
0.60434818 0.77145696 -0.41000962 4.4178316e-39
0.60259324 0.77699584 -0.40673515 3.1310389e-39
0.60136902 0.78752697 -0.39968488 7.3576577e-40
0.67280155 0.58708954 -0.51508898 1.472263e-39
0.66954815 0.5899632 -0.5143044 9.2016264e-40
0.66706556 0.5921374 -0.51371902 8.2796841e-40
0.66514677 0.59444249 -0.51281995 1.1989033e-39
0.66342652 0.5967887 -0.51181418 1.0141561e-39
0.66066015 0.59942013 -0.51101273 1.0130883e-39
0.65913635 0.60179067 -0.50991273 1.290034e-39
0.657242 0.60401881 -0.50905925 1.3829471e-39
0.65590924 0.6064173 -0.50786489 1.4747952e-39
0.6528036 0.6088649 -0.50732726 2.0275962e-39
0.65514326 0.61204582 -0.50414026 3.412002e-39
0.65052605 0.61373228 -0.5047366 1.935409e-39
0.65083718 0.61654693 -0.50260317 2.6715657e-39
0.64921415 0.61897045 -0.50150406 2.8573681e-39
0.64828521 0.6216616 -0.49994293 2.4882282e-39
0.64632475 0.6239239 -0.49909082 2.3956739e-39
0.64471334 0.62631375 -0.49801129 2.1194457e-39
0.64018738 0.62736207 -0.49902812 1.1981943e-39
0.64150327 0.63105667 -0.4958736 2.3935089e-39
0.63692915 0.63238358 -0.49671006 1.1052882e-39
0.6363529 0.63495719 -0.49509525 9.2269058e-40
0.6336807 0.63737309 -0.49441105 7.3865945e-40
0.63310701 0.63994032 -0.49279979 8.3014603e-40
0.63165259 0.64207625 -0.49184048 7.3758746e-40
0.63073093 0.64445764 -0.49049795 6.4610509e-40
0.62877673 0.64718783 -0.48930889 9.2125285e-40
0.62820685 0.6497438 -0.48770407 7.3686859e-40
0.63091052 0.65377003 -0.48377097 9.2125985e-40
0.62706643 0.6548562 -0.48449469 5.5282345e-40
0.62545848 0.65777415 -0.48303637 4.602747e-40
0.62523019 0.66052938 -0.4811559 6.4358556e-40
0.62500763 0.6632852 -0.47927278 4.6063343e-40
0.62863159 0.66834563 -0.4742412 1.105291e-39
0.62331271 0.6691041 -0.47577462 3.684378e-40
0.62274027 0.67167681 -0.47415894 3.6879653e-40
0.62284726 0.67466789 -0.47197899 5.5282906e-40
0.62086731 0.67742109 -0.47078368 4.6099216e-40
0.62029457 0.67999971 -0.46916386 1.8584861e-40
0.62039387 0.68301535 -0.46696943 2.7768971e-40
0.62410653 0.68828911 -0.46175066 7.3975106e-40
0.61907858 0.68793678 -0.46396467 5.5426959e-40
0.61875242 0.69197047 -0.4612084 1.1978411e-39
0.61883938 0.69503075 -0.458987 1.1056497e-39
0.61692232 0.69658947 -0.45862076 1.1056441e-39
0.62166995 0.70332128 -0.45195588 2.1194457e-39
0.61642605 0.70227545 -0.45474988 9.2125985e-40
0.62073678 0.7094419 -0.44794485 1.7503073e-39
0.62042046 0.71263647 -0.44578475 1.4758938e-39
0.61503088 0.71164733 -0.44859502 9.2090392e-40
0.62069875 0.71980393 -0.44055256 1.9354076e-39
0.61481988 0.71898532 -0.44343191 7.3757205e-40
0.61503279 0.72227985 -0.44099379 1.381152e-39
0.61444539 0.72493732 -0.43932322 3.0403006e-39
0.62054443 0.73239243 -0.4316141 5.4316206e-39
0.61717987 0.73455435 -0.43138152 5.4345227e-39
0.61622977 0.73730677 -0.42978474 4.6980114e-39
0.61527967 0.7400592 -0.42818809 4.1430258e-39
0.61373073 0.74226815 -0.42721343 3.0338238e-39
0.61278272 0.74501443 -0.42562026 2.7582935e-39
0.61183476 0.74776071 -0.42402712 2.3909515e-39
0.61088675 0.75050694 -0.42243391 2.0225361e-39
0.6070289 0.75139499 -0.42330468 2.3005747e-39
0.60644388 0.75407159 -0.42161956 2.0247179e-39
0.60585862 0.75674826 -0.4199346 2.3934991e-39
0.60709488 0.76149195 -0.41606122 3.037767e-39
0.60318786 0.76228988 -0.41701552 3.1321431e-39
0.6028977 0.76526988 -0.41499853 3.4087286e-39
0.59958112 0.77535093 -0.40908644 2.119059e-39
0.60111719 0.78143746 -0.40413612 1.7499205e-39
0.67004359 0.58750623 -0.51586735 1.9335887e-39
0.6663993 0.58869809 -0.51643753 9.2123603e-40
0.66412121 0.5909245 -0.51573509 6.4500087e-40
0.66259336 0.59334886 -0.51459819 1.1059972e-39
0.66125262 0.59580749 -0.5133639 1.0141575e-39
0.65810698 0.59832573 -0.5127914 9.2125285e-40
0.65659267 0.60069609 -0.51168793 1.1056427e-39
0.65508109 0.60305399 -0.51059234 1.6584634e-39
0.65474528 0.60652012 -0.50824565 3.502034e-39
0.65380687 0.6092388 -0.50666839 3.6857148e-39
0.65217525 0.61170238 -0.50554401 3.1354095e-39
0.64746672 0.61245161 -0.50684607 2.0265172e-39
0.64652169 0.61493206 -0.50544173 1.3815177e-39
0.64696234 0.61888301 -0.5024454 2.2116427e-39
0.64924687 0.62289548 -0.49868551 3.774616e-39
0.64339799 0.62355089 -0.50049949 2.3956739e-39
0.6393702 0.62416404 -0.50163305 1.0141687e-39
0.64087242 0.62860453 -0.49787271 2.0276032e-39
0.63538593 0.62889999 -0.49980256 1.0148918e-39
0.63445407 0.6313206 -0.4984358 1.2896794e-39
0.63308167 0.63475698 -0.49651498 9.2233745e-40
0.63484168 0.63815427 -0.4933995 2.0250865e-39
0.63011444 0.63862056 -0.49491104 6.4646382e-40
0.62910742 0.64219791 -0.4927468 8.2905722e-40
0.62853831 0.6447565 -0.49113986 5.5426259e-40
0.626665 0.64629918 -0.49076816 7.3721471e-40
0.6260975 0.64885771 -0.48916081 5.5390946e-40
0.62508738 0.65242583 -0.48700431 6.4467296e-40
0.62778777 0.65632617 -0.4831624 4.6026909e-40
0.62687576 0.65896821 -0.48162967 1.105291e-39
0.62242687 0.65926439 -0.48315418 7.3721471e-40
0.62186003 0.66182268 -0.48154658 7.3686159e-40
0.62188196 0.66597688 -0.4785684 6.4502469e-40
0.61999881 0.66751581 -0.47820315 8.2942015e-40
0.62392169 0.6731838 -0.47262064 1.1974866e-39
0.61968857 0.67316979 -0.47428259 4.6098656e-40
0.61770403 0.67591405 -0.47309527 4.6063763e-40
0.62244189 0.681997 -0.46689808 1.2893291e-39
0.61782384 0.68313795 -0.46788463 9.2125145e-40
0.61590225 0.68468451 -0.46752912 9.2161438e-40
0.61599261 0.68771541 -0.46532717 6.4576037e-40
0.61624086 0.69087261 -0.46297339 1.289685e-39
0.61566699 0.6934703 -0.4613404 1.2903941e-39
0.61431003 0.69670779 -0.45955566 1.2900354e-39
0.61373609 0.69931126 -0.45791858 1.1060042e-39
0.61381269 0.70239288 -0.45568588 9.2125565e-40
0.61754161 0.7086401 -0.44976494 1.7496038e-39
0.61201644 0.70840055 -0.45209235 9.2126266e-40
0.61239594 0.71176314 -0.4495405 1.1063644e-39
0.61278987 0.71514326 -0.44697052 1.2900438e-39
0.61184603 0.7188462 -0.44469178 4.6063343e-40
0.61189991 0.72200769 -0.44241086 5.5139413e-40
0.6146428 0.72672725 -0.43796679 2.2995028e-39
0.61582685 0.73171252 -0.43394104 4.3306989e-39
0.61487681 0.73446494 -0.43234429 4.6994758e-39
0.61365277 0.73742092 -0.43070886 4.0504826e-39
0.61262757 0.74000597 -0.42926106 3.7738873e-39
0.61143279 0.74217892 -0.42817408 3.773537e-39
0.61048478 0.74492514 -0.42658085 3.0352503e-39
0.60953683 0.74767143 -0.4249877 2.2072875e-39
0.60621792 0.74709052 -0.42669812 2.3005733e-39
0.60444534 0.75023794 -0.4251399 2.301658e-39
0.60386348 0.75291401 -0.42345399 2.4857003e-39
0.60318339 0.75688636 -0.42087984 3.3179679e-39
0.60260046 0.75956255 -0.41919431 4.3313869e-39
0.60091752 0.7614314 -0.41851515 4.4232322e-39
0.60033613 0.76411027 -0.41682705 4.1455691e-39
0.60195303 0.76964134 -0.41224226 4.697308e-39
0.59914637 0.76946449 -0.41346392 4.053728e-39
0.59704578 0.77232999 -0.41223532 4.6973178e-39
0.59936041 0.77860498 -0.40684646 1.9335901e-39
0.66742468 0.58671457 -0.51745528 2.3020139e-39
0.66334975 0.58873814 -0.51759905 1.1045539e-39
0.66090328 0.59090865 -0.51700211 1.0123583e-39
0.65919888 0.59326833 -0.51598054 1.1059972e-39
0.65786332 0.59572387 -0.51474643 1.0145177e-39
0.65668309 0.59872413 -0.5130623 2.1194457e-39
0.65574038 0.60145503 -0.51147807 2.3956739e-39
0.65410334 0.60394955 -0.51033372 2.8591814e-39
0.65076607 0.60546839 -0.51055032 2.0272515e-39
0.64908588 0.60773081 -0.50958884 1.8432176e-39
0.64722961 0.609909 -0.5087561 1.474435e-39
0.64413762 0.61231244 -0.50824469 1.4737134e-39
0.6435563 0.61492592 -0.50660324 1.1060014e-39
0.64969891 0.62034822 -0.50032997 2.6682685e-39
0.63864648 0.61940467 -0.50531769 1.5666251e-39
0.64115906 0.62346399 -0.50143552 2.4882282e-39
0.63562083 0.62504458 -0.5024668 1.5666251e-39
0.63338304 0.62644815 -0.50233686 1.2914815e-39
0.6324544 0.62886947 -0.50096834 1.2918318e-39
0.63153768 0.63128167 -0.49960184 1.3836729e-39
0.63009375 0.63344616 -0.49861804 9.2269478e-40
0.63262582 0.6380682 -0.49432588 1.7506576e-39
0.62721217 0.63857394 -0.49607691 1.0138128e-39
0.6266458 0.641132 -0.49446934 1.104212e-39
0.62607944 0.64369017 -0.49286172 7.3830633e-40
0.6276567 0.6479674 -0.48918876 1.4740791e-39
0.62740105 0.65095615 -0.48715192 1.4740791e-39
0.62262511 0.65135705 -0.48872918 8.2905862e-40
0.62171012 0.65372723 -0.48739198 7.3686439e-40
0.62114507 0.65627944 -0.48578814 6.4467577e-40
0.61986929 0.65938735 -0.48406425 6.4538903e-40
0.622841 0.66416639 -0.47948831 1.1971363e-39
0.61732483 0.66467804 -0.48127523 7.3722873e-40
0.6174323 0.66763949 -0.47911638 9.2125565e-40
0.61686742 0.67020309 -0.47750425 9.2125565e-40
0.6198281 0.67514265 -0.47281787 1.8425029e-39
0.61479986 0.67582315 -0.47429374 1.106e-39
0.61489666 0.67881995 -0.47211364 9.2125425e-40
0.61465085 0.6816119 -0.47021374 9.2161438e-40
0.61265028 0.68436426 -0.46902704 7.3902099e-40
0.61806804 0.69035786 -0.46262836 1.660641e-39
0.61316031 0.69065285 -0.46433264 1.382238e-39
0.61259031 0.69324523 -0.46270204 1.3822394e-39
0.61684263 0.69952792 -0.45655137 2.5790015e-39
0.61112207 0.69943184 -0.45885253 1.1978411e-39
0.61559874 0.70537943 -0.45285392 2.1194457e-39
0.61095452 0.70536506 -0.4546766 9.2235146e-40
0.60938549 0.70852113 -0.45303282 8.3122643e-40
0.60944903 0.71163476 -0.45078233 1.1067245e-39
0.60983902 0.7150135 -0.44821489 1.1056441e-39
0.6083104 0.71693707 -0.44743642 4.6062642e-40
0.60869038 0.72034359 -0.44485289 2.755149e-40
0.61324376 0.72903991 -0.43685964 3.0352559e-39
0.60699296 0.72659922 -0.44104367 2.4874897e-39
0.61136961 0.73437726 -0.43377563 3.5916695e-39
0.61162364 0.73712784 -0.43171027 5.0660905e-39
0.61008281 0.73934335 -0.43072781 4.6036662e-39
0.60913485 0.74208963 -0.42913467 3.5920226e-39
0.60874057 0.74405283 -0.42788512 3.1263613e-39
0.60723889 0.74758214 -0.42594832 2.2994831e-39
0.60629094 0.75032836 -0.42435512 2.2072875e-39
0.60534292 0.75307459 -0.42276192 2.6679055e-39
0.60149741 0.75334233 -0.42407125 2.5786036e-39
0.60344696 0.75856709 -0.41957557 3.3133072e-39
0.60033715 0.75869954 -0.42069441 4.423235e-39
0.601551 0.7640596 -0.41638917 6.6334008e-39
0.6006031 0.76680583 -0.41479605 7.0004219e-39
0.59965509 0.76955205 -0.41320282 5.2504818e-39
0.59524316 0.7700991 -0.41453356 4.0533707e-39
0.59466404 0.7727806 -0.41284278 3.3140162e-39
0.59693033 0.7826851 -0.40487817 1.2882249e-39
0.59505934 0.78505093 -0.40391713 7.3684617e-40
0.5935716 0.7868855 -0.40318626 1.1052686e-39
0.66403407 0.58633959 -0.51904655 2.1176212e-39
0.66167849 0.588709 -0.51827204 1.3793611e-39
0.65787488 0.59094399 -0.51815873 8.2940614e-40
0.65581107 0.59319013 -0.51735848 1.3822296e-39
0.65430903 0.59557831 -0.5162375 1.1978383e-39
0.65279692 0.59795439 -0.51512909 1.1060014e-39
0.6527639 0.60113609 -0.51286751 2.4882282e-39
0.64908069 0.60308421 -0.51291233 1.5669894e-39
0.64777303 0.60547996 -0.51171005 1.6581074e-39
0.64413053 0.60772783 -0.51152468 1.8432049e-39
0.64247137 0.60996068 -0.51057607 1.4747868e-39
0.64785892 0.61492342 -0.50492603 5.7064054e-39
0.63971257 0.61457562 -0.50835359 1.3811548e-39
0.63662511 0.61693972 -0.50786865 1.5666237e-39
0.63498479 0.61910349 -0.50696194 1.6588193e-39
0.63406646 0.62154067 -0.50557816 1.7510163e-39
0.63732624 0.62576127 -0.50128901 2.4882282e-39
0.63080227 0.62657505 -0.50325316 1.475514e-39
0.6295352 0.62883842 -0.50212979 1.5659132e-39
0.62896752 0.63140696 -0.50051522 1.1999963e-39
0.62753427 0.63357085 -0.4995276 1.1992831e-39
0.62975031 0.63766003 -0.49573976 1.8425029e-39
0.62465179 0.63870078 -0.49698552 1.1992831e-39
0.62727088 0.64260978 -0.49316901 2.1158514e-39
0.6235413 0.64381498 -0.49376303 8.3050616e-40
0.62262589 0.64619553 -0.49241847 1.2896794e-39
0.62239522 0.64893079 -0.49055335 1.2875354e-39
0.62427825 0.6535123 -0.48654336 1.3818779e-39
0.6177386 0.65402424 -0.48872954 1.1060042e-39
0.62245423 0.65879637 -0.48347786 2.2119931e-39
0.61730742 0.65951329 -0.48497397 9.2161999e-40
0.61674529 0.66207039 -0.48336545 8.3157675e-40
0.6147576 0.66480482 -0.4821865 9.2125425e-40
0.6194405 0.66976023 -0.47681677 2.1194457e-39
0.61395681 0.67012286 -0.47869742 1.1060042e-39
0.61373639 0.67289203 -0.47680393 1.1060042e-39
0.61174166 0.67563277 -0.47562319 1.104935e-39
0.61231244 0.67894441 -0.47303316 1.0138072e-39
0.61174792 0.68151796 -0.47141373 1.1060028e-39
0.61613119 0.68716264 -0.46566823 1.3851205e-39
0.6152097 0.68983221 -0.46411943 1.4758938e-39
0.60966474 0.68885946 -0.46697879 1.2903955e-39
0.60999012 0.69336969 -0.4636277 1.2903941e-39
0.60852039 0.69524091 -0.46286356 1.0159666e-39
0.60826063 0.69807035 -0.46094242 9.2305211e-40
0.60824198 0.70239437 -0.45785871 9.2233185e-40
0.6130175 0.70846432 -0.45165607 1.3836982e-39
0.60650969 0.70713973 -0.45514256 8.308719e-40
0.60657078 0.7102471 -0.45289749 9.2449125e-40
0.6063273 0.71311843 -0.45094001 1.0152548e-39
0.60564947 0.71705019 -0.44839397 6.4502329e-40
0.60602456 0.72045851 -0.44581115 7.3613431e-40
0.60577291 0.72336566 -0.44383126 1.6570088e-39
0.61062884 0.73101532 -0.43646801 4.3314023e-39
0.60968089 0.73376155 -0.43487471 4.0559099e-39
0.60873288 0.73650777 -0.43328154 4.8820524e-39
0.60722888 0.7381922 -0.43266442 3.4036727e-39
0.60683692 0.74200028 -0.43009517 3.8657326e-39
0.60588896 0.74474657 -0.42850205 3.4962271e-39
0.60494101 0.74749279 -0.42690888 2.4845806e-39
0.60118097 0.74764431 -0.42826781 2.5771686e-39
0.59938675 0.75080353 -0.42670965 2.578598e-39
0.60209703 0.75573158 -0.4221293 2.3916788e-39
0.59823132 0.7561599 -0.42333162 2.5789749e-39
0.59854597 0.75994986 -0.42049974 2.8526667e-39
0.59925306 0.76397032 -0.4173497 4.6969577e-39
0.59830517 0.76671654 -0.41575664 5.5292365e-39
0.59570688 0.76733238 -0.41633031 3.2232555e-39
0.59252554 0.77206796 -0.41418669 3.7782202e-39
0.59313077 0.77581525 -0.41127172 2.1151003e-39
0.59105378 0.77956396 -0.40940255 1.6555683e-39
0.59197134 0.78406632 -0.40582606 9.2051857e-40
0.66230685 0.58387309 -0.52148372 2.3023726e-39
0.66043282 0.586236 -0.52052587 2.1176268e-39
0.65820402 0.58847451 -0.5197956 1.3814953e-39
0.65448242 0.59087765 -0.51953006 1.1967565e-39
0.6522516 0.59305996 -0.51884061 1.6573788e-39
0.65236515 0.59559792 -0.51698202 2.2119931e-39
0.65142459 0.59832275 -0.5154013 2.5797204e-39
0.65048397 0.60104752 -0.51382059 2.4882282e-39
0.64618891 0.60185629 -0.51491863 1.5666209e-39
0.64477724 0.60549206 -0.51287043 1.4740833e-39
0.64826888 0.60829479 -0.50950438 1.2878746e-39
0.64067799 0.60912013 -0.51187664 1.2900354e-39
0.64105147 0.61284757 -0.50906646 1.9354076e-39
0.64256573 0.61503643 -0.5069108 5.249393e-39
0.63785708 0.61766565 -0.5068689 2.5807742e-39
0.63204986 0.61909008 -0.5081169 1.8432119e-39
0.63148111 0.62167031 -0.50649446 1.7510219e-39
0.63021368 0.62395155 -0.50535828 1.4755154e-39
0.63284504 0.62774932 -0.50161654 2.6729698e-39
0.62645268 0.62873501 -0.50340652 1.3836771e-39
0.62555277 0.63114017 -0.50203848 1.291836e-39
0.62463534 0.63353753 -0.50068277 1.199639e-39
0.62407249 0.63609463 -0.49907452 1.4740749e-39
0.62597519 0.63988817 -0.49562022 2.2119931e-39
0.62128824 0.64000243 -0.49736768 1.2914787e-39
0.62131494 0.6441195 -0.49441415 1.1070902e-39
0.62324554 0.64779598 -0.49103269 2.2116427e-39
0.62233567 0.65043187 -0.4895035 1.5655727e-39
0.62206757 0.65342641 -0.48746756 2.1176661e-39
0.61595213 0.65330702 -0.4899393 1.2893305e-39
0.62024355 0.6587106 -0.48440209 2.8573625e-39
0.61933154 0.66135252 -0.4828693 2.5790015e-39
0.61841959 0.66399461 -0.48133659 2.4882282e-39
0.61227721 0.66370869 -0.48393801 1.2889676e-39
0.61722469 0.66967416 -0.47774303 2.4882282e-39
0.61631048 0.67232227 -0.47620672 2.5790015e-39
0.61091697 0.67158329 -0.47883976 1.3818807e-39
0.61448228 0.67761856 -0.47313413 2.4868059e-39
0.609164 0.67740929 -0.47535914 1.2900368e-39
0.61420041 0.68398011 -0.46869674 2.3956739e-39
0.61328101 0.6866436 -0.46715149 1.3851205e-39
0.60843831 0.68577558 -0.46966183 8.3050476e-40
0.60675806 0.68875474 -0.4681879 1.2900508e-39
0.61174285 0.69553542 -0.46139562 2.4868059e-39
0.61142725 0.69866782 -0.45927957 1.9368691e-39
0.60533643 0.69795561 -0.46216556 1.0152491e-39
0.6054045 0.70102739 -0.45994323 1.1070916e-39
0.60483778 0.7036289 -0.4583047 1.289685e-39
0.60342294 0.70689631 -0.45652118 9.2307173e-40
0.60395867 0.71037203 -0.45382759 7.3937972e-40
0.60368687 0.71323663 -0.45188585 1.1060042e-39
0.6063109 0.71861911 -0.44701427 1.3804219e-39
0.60601234 0.72296059 -0.4440273 1.6552095e-39
0.60310388 0.72348475 -0.44478774 1.4736994e-39
0.60166121 0.72684956 -0.44294533 2.0279479e-39
0.60778981 0.73253357 -0.4364906 3.2221667e-39
0.60478574 0.7350021 -0.43589824 3.40513e-39
0.60548699 0.73916477 -0.43264899 3.3136575e-39
0.60453898 0.74191105 -0.43105581 2.759755e-39
0.60359102 0.74465728 -0.42946261 2.9423344e-39
0.60264307 0.74740344 -0.42786941 2.7575844e-39
0.60169506 0.75014979 -0.42627627 2.6653818e-39
0.59813064 0.75160968 -0.42662364 2.0228962e-39
0.5962432 0.75305182 -0.42632934 2.3012824e-39
0.59564543 0.75579786 -0.42459962 2.944498e-39
0.59553486 0.75810599 -0.4229928 2.9477434e-39
0.59354323 0.76141346 -0.4214057 2.3002146e-39
0.59294665 0.76415938 -0.41967571 3.2214534e-39
0.59256655 0.76665789 -0.41803795 4.4243196e-39
0.59198725 0.76849461 -0.41695109 3.9600933e-39
0.59012789 0.77252549 -0.41479519 4.7008813e-39
0.58924705 0.77489042 -0.41344845 4.1451908e-39
0.59048688 0.77964872 -0.40956324 1.6559242e-39
0.58873439 0.78145421 -0.4089565 1.472256e-39
0.65823805 0.58520222 -0.52212143 2.3931277e-39
0.65488911 0.58774352 -0.52161175 1.7481324e-39
0.65175933 0.58970243 -0.52143282 1.2889508e-39
0.65008551 0.59205073 -0.52040732 1.4733462e-39
0.64876562 0.59449232 -0.51917702 1.8435665e-39
0.64914459 0.59823412 -0.51635438 2.9463295e-39
0.64820397 0.60095894 -0.51477373 3.0385251e-39
0.64318568 0.6018697 -0.51608104 1.3825855e-39
0.64224136 0.60438401 -0.51465225 1.2900368e-39
0.64376873 0.60783708 -0.51158768 1.9332328e-39
0.64089596 0.61098331 -0.51045978 8.2904881e-40
0.63520265 0.61101127 -0.51266152 1.1978425e-39
0.63427132 0.6134761 -0.51126307 1.4740749e-39
0.63119382 0.61583805 -0.51077563 1.8432063e-39
0.63470167 0.6202485 -0.50625402 2.765171e-39
0.62898594 0.62057817 -0.50824887 1.6595578e-39
0.62772667 0.62286139 -0.50710815 1.8432176e-39
0.62963468 0.62721729 -0.50324976 3.0385251e-39
0.62806487 0.6295622 -0.50218624 2.7651654e-39
0.62715286 0.63220417 -0.50065345 2.765171e-39
0.62207186 0.63366938 -0.50158888 1.6599165e-39
0.6201939 0.63518697 -0.50123698 1.383324e-39
0.61928463 0.63757473 -0.49988493 1.3836771e-39
0.61907756 0.64029914 -0.49801826 1.2911242e-39
0.61851919 0.64285535 -0.49640885 1.3829709e-39
0.62103993 0.64771026 -0.49195465 2.4868059e-39
0.62076879 0.65069848 -0.4899244 2.4868059e-39
0.61537939 0.65069878 -0.49202737 1.5677111e-39
0.61894482 0.65598255 -0.48685893 2.5793701e-39
0.61247611 0.6557973 -0.48951569 1.2929206e-39
0.61191934 0.65835023 -0.4879081 1.2000117e-39
0.61136252 0.66090322 -0.48630044 1.2907682e-39
0.61529678 0.6665507 -0.480728 2.4900401e-39
0.60914564 0.66638947 -0.48324379 1.4758658e-39
0.60856086 0.66893935 -0.48164925 1.4751595e-39
0.6083439 0.67170525 -0.47975668 1.6588305e-39
0.60812622 0.6744771 -0.47786021 1.3818849e-39
0.6061157 0.67721683 -0.47668633 1.2907556e-39
0.60601932 0.68009806 -0.47466436 1.2907556e-39
0.61105227 0.68655705 -0.46808314 1.660641e-39
0.61013281 0.68922055 -0.46653801 1.660641e-39
0.604159 0.68887758 -0.46911442 1.0152548e-39
