# .PCD v0.7 - Point Cloud Data file format
VERSION 0.7
FIELDS x y z rgb
SIZE 4 4 4 4
TYPE F F F F
COUNT 1 1 1 1
WIDTH 1030
HEIGHT 1
VIEWPOINT 0 0 0 1 0 0 0
POINTS 1030
DATA ascii
-1.2680739 1.1442988 -0.83159149 1.6551927e-39
-1.2678318 1.1520871 -0.8276611 2.391669e-39
-1.2749578 1.0417788 -0.87957001 8.665292e-39
-1.273792 1.0466834 -0.87812561 7.4653265e-39
-1.2730049 1.0522881 -0.87592036 7.9248543e-39
-1.2740252 1.0608585 -0.87028635 7.5564277e-39
-1.27426 1.0695277 -0.86539811 6.9096276e-39
-1.2759291 1.074844 -0.86084926 7.0043427e-39
-1.2764587 1.0803365 -0.85736507 7.4638733e-39
-1.276215 1.0868458 -0.85412192 8.8439197e-39
-1.2751737 1.0903397 -0.85330737 2.2958874e-39
-1.2741573 1.0963033 -0.85114306 4.8794964e-39
-1.2730038 1.1050941 -0.84760201 5.8003681e-39
-1.2719281 1.1096592 -0.84624797 4.8770049e-39
-1.271678 1.1166813 -0.84273654 2.5731904e-39
-1.2729627 1.1196404 -0.83984274 2.1147303e-39
-1.2743145 1.1259878 -0.83506346 2.4827912e-39
-1.2740964 1.1336818 -0.83115917 2.2998363e-39
-1.2732819 1.1394411 -0.82889897 2.2062071e-39
-1.2727718 1.1483636 -0.82463282 2.7593795e-39
-1.2726523 1.1566412 -0.82031524 2.9444756e-39
-1.2721505 1.1635187 -0.81713724 3.5858919e-39
-1.279654 1.0403757 -0.87554526 9.583263e-39
-1.2793062 1.0444813 -0.87369728 7.8340894e-39
-1.2797918 1.0578619 -0.86602741 7.6482702e-39
-1.2797074 1.0655203 -0.86200613 7.73974e-39
-1.280674 1.0746074 -0.85614955 7.7418994e-39
-1.2816794 1.0795807 -0.85245961 9.030113e-39
-1.281293 1.0838155 -0.85058171 8.3858282e-39
-1.2800566 1.0883142 -0.84942669 2.574991e-39
-1.2783411 1.0933663 -0.84846228 4.8784384e-39
-1.2778703 1.1000011 -0.84538299 3.4980123e-39
-1.2776004 1.1064579 -0.84219468 7.4620587e-39
-1.2771116 1.1116484 -0.83990836 2.2040561e-39
-1.2770165 1.1196517 -0.83571303 2.2984027e-39
-1.2791446 1.1257061 -0.83030105 3.4018622e-39
-1.2789098 1.1332986 -0.82646805 3.219636e-39
-1.2784208 1.1400865 -0.82332522 3.0355978e-39
-1.2784714 1.1461313 -0.8200323 4.3238115e-39
-1.2782532 1.1539391 -0.8160668 3.9553835e-39
-1.2778918 1.1613357 -0.81246775 4.1386958e-39
-1.2775202 1.1710014 -0.80766195 4.0450694e-39
-1.2800014 1.1777612 -0.8015129 4.5971726e-39
-1.2791127 1.1842355 -0.79894465 3.0341657e-39
-1.2794703 1.1892043 -0.7959162 2.7597354e-39
-1.2780234 1.1951528 -0.79419798 4.1390713e-39
-1.2770702 1.200526 -0.79228592 2.205847e-39
-1.275916 1.2052622 -0.79091984 3.4933362e-39
-1.2842914 1.0310426 -0.87583333 1.7040309e-38
-1.2839468 1.0366342 -0.87318534 1.8367099e-40
-1.2853162 1.0652137 -0.85646516 7.924127e-39
-1.284801 1.0717565 -0.85348028 7.6475443e-39
-1.2869482 1.0776973 -0.84811014 8.2021474e-39
-1.2854888 1.0816866 -0.84745502 8.477291e-39
-1.2846769 1.0874037 -0.84521496 2.7582949e-39
-1.2830988 1.0909156 -0.84493697 3.8653641e-39
-1.282005 1.0977585 -0.84237981 3.035965e-39
-1.2825674 1.1030532 -0.8389681 5.9869076e-39
-1.281758 1.1087534 -0.83673441 2.943405e-39
-1.2815199 1.1183416 -0.83183467 3.4011462e-39
-1.2840846 1.1257613 -0.82524669 3.9550318e-39
-1.2835685 1.1324211 -0.82219994 4.1394287e-39
-1.2844384 1.1410398 -0.81669289 3.6784463e-39
-1.2839129 1.1477675 -0.81361938 4.5074867e-39
-1.2834202 1.1546205 -0.81044513 3.9557521e-39
-1.2825912 1.1604553 -0.80815941 4.5053203e-39
-1.2833229 1.1687974 -0.80294132 4.0450694e-39
-1.2848696 1.1757903 -0.79761779 3.9535997e-39
-1.2846409 1.1836977 -0.79360986 2.4813521e-39
-1.2840976 1.1878521 -0.79193431 2.8519226e-39
-1.2832572 1.1937416 -0.78963059 3.1292354e-39
-1.2813481 1.1980667 -0.78925312 1.5622796e-39
-1.280513 1.2039253 -0.78696072 3.3125392e-39
-1.2812046 1.2136071 -0.78106493 4.7829862e-39
-1.2805176 1.219589 -0.77855587 3.95395e-39
-1.2831639 1.2271334 -0.77181774 3.2192674e-39
-1.2890875 1.0295179 -0.87177241 1.4186192e-38
-1.2887427 1.0351094 -0.86912429 0
-1.2899481 1.0725548 -0.84781635 9.3956558e-39
-1.291616 1.0768328 -0.8438254 7.9248361e-39
-1.2899828 1.0803784 -0.84358519 7.830488e-39
-1.2891692 1.0860952 -0.84134698 3.5887618e-39
-1.2891073 1.0916238 -0.83844507 4.233048e-39
-1.2878557 1.0960423 -0.83734846 4.694759e-39
-1.2871761 1.1021644 -0.83475649 6.6294169e-39
-1.286471 1.1093888 -0.83159947 4.5986061e-39
-1.2861457 1.1174712 -0.82759589 3.8631963e-39
-1.2890577 1.1237596 -0.82126117 4.6911479e-39
-1.2891495 1.1318805 -0.81681263 4.1401335e-39
-1.2886568 1.1387178 -0.81364721 4.2301809e-39
-1.288483 1.1464348 -0.80968529 4.5989621e-39
-1.2879971 1.1532788 -0.8065092 4.4152883e-39
-1.2882932 1.1622436 -0.80140013 4.7822729e-39
-1.288204 1.1684707 -0.79815137 3.8613984e-39
-1.2906834 1.1776719 -0.79069459 4.0447149e-39
-1.2899923 1.1836712 -0.78818023 2.1140101e-39
-1.2891983 1.1882094 -0.78655416 3.4940536e-39
-1.2880253 1.1929626 -0.78519839 3.4061894e-39
-1.2878293 1.1980788 -0.78265393 2.7615249e-39
-1.286986 1.2039678 -0.78035349 4.3234444e-39
-1.2862904 1.2104479 -0.77758574 4.1379839e-39
-1.2852811 1.218191 -0.7744599 3.2189087e-39
-1.2884612 1.2256789 -0.76720941 3.4029426e-39
-1.2876312 1.2340389 -0.76357025 3.7702832e-39
-1.2878706 1.2411072 -0.75953573 4.231976e-39
-1.2938837 1.0279931 -0.86771131 1.2156875e-38
-1.2935389 1.0335846 -0.86506325 0
-1.2946289 1.0795338 -0.83931208 8.7510066e-39
-1.2945738 1.0850699 -0.83639932 3.4940606e-39
-1.2937555 1.0907913 -0.83416337 3.9543143e-39
-1.2927803 1.0960326 -0.83234453 5.6145615e-39
-1.2924427 1.1030731 -0.82891208 6.4442956e-39
-1.292048 1.1102058 -0.82548821 4.8726791e-39
-1.2918652 1.1152836 -0.8229509 3.862839e-39
-1.2929993 1.1228491 -0.81774008 4.5085657e-39
-1.2943413 1.1303862 -0.81233263 3.9543157e-39
-1.2940212 1.137692 -0.80874044 3.4962102e-39
-1.293545 1.1466992 -0.80439419 4.5074853e-39
-1.2930623 1.153553 -0.80120963 4.1387e-39
-1.292377 1.1599466 -0.79847795 4.1383427e-39
-1.2933 1.1687806 -0.79280126 3.5858933e-39
-1.2955267 1.1750489 -0.78717452 2.8490556e-39
-1.2946788 1.1809564 -0.78486896 2.6639469e-39
-1.293467 1.1863678 -0.78319937 3.6827707e-39
-1.2924933 1.1910439 -0.78168207 4.8780797e-39
-1.2926025 1.1973139 -0.77820855 2.7600871e-39
-1.2917559 1.2032079 -0.77590883 5.0595731e-39
-1.2909098 1.2091018 -0.77360862 3.9535927e-39
-1.2905436 1.216801 -0.76985216 2.7604501e-39
-1.2932717 1.2249299 -0.76271755 3.4018622e-39
-1.2930931 1.2332528 -0.75843567 4.0465015e-39
-1.2933822 1.2431978 -0.75280821 5.2443259e-39
-1.2931893 1.2487435 -0.75003028 4.5074853e-39
-1.2986797 1.0264683 -0.8636502 0
-1.2983351 1.0320599 -0.86100221 4.5917748e-40
-1.2990649 1.0837688 -0.83252841 3.9539556e-39
-1.298245 1.0894896 -0.83029455 5.1542742e-39
-1.2977564 1.096031 -0.82728332 6.8131103e-39
-1.2969364 1.1017631 -0.8250435 6.626931e-39
-1.2970294 1.1077379 -0.82174474 4.0447163e-39
-1.2968628 1.1154293 -0.81778908 4.0465086e-39
-1.2989404 1.1234649 -0.81136626 3.7731517e-39
-1.2988906 1.1290673 -0.80841249 3.4025825e-39
-1.2989379 1.1374155 -0.80388719 3.3107428e-39
-1.2984262 1.1441376 -0.80080271 3.4032943e-39
-1.2989039 1.1513135 -0.79646832 3.5862479e-39
-1.2985535 1.1587323 -0.79284614 3.7695601e-39
-1.2982888 1.1680994 -0.7880919 3.675931e-39
-1.3006358 1.1729963 -0.78307831 2.2058568e-39
-1.2993085 1.1796136 -0.78087944 3.4929774e-39
-1.2984592 1.1855208 -0.77857566 7.0914979e-39
-1.298417 1.1912266 -0.77555853 4.1423237e-39
-1.2972203 1.1959714 -0.77423126 3.2214184e-39
-1.2965312 1.2024573 -0.77145386 5.5209212e-39
-1.2960235 1.2095455 -0.76816881 3.4011419e-39
-1.2963098 1.21647 -0.76416397 3.4951326e-39
-1.2980191 1.2253648 -0.75765508 3.7717251e-39
-1.2986809 1.2311723 -0.75386739 4.5985991e-39
-1.2979945 1.2378607 -0.75097865 4.8751986e-39
-1.2984602 1.2455231 -0.74639541 4.3227339e-39
-1.2975919 1.2515361 -0.74405408 4.6911521e-39
-1.298622 1.2612923 -0.73777401 4.6904388e-39
-1.3047125 1.0202144 -0.86086744 2.1570896e-38
-1.3034759 1.0249436 -0.8595891 0
-1.3031311 1.0305352 -0.85694116 5.8854536e-44
-1.3046181 1.0798076 -0.82900393 7.7364819e-39
-1.3030304 1.0869771 -0.82677394 5.7053026e-39
-1.3026166 1.0956956 -0.82251948 6.7216111e-39
-1.3019377 1.1018707 -0.81989831 4.509293e-39
-1.3022066 1.1083655 -0.81614166 3.0327252e-39
-1.3020397 1.1158788 -0.81228191 3.862476e-39
-1.3042698 1.1219538 -0.80675536 3.5873325e-39
-1.3041749 1.1297431 -0.80267465 3.1270746e-39
-1.3038383 1.1369653 -0.79914385 3.6784449e-39
-1.3043301 1.1441931 -0.79476744 3.6773729e-39
-1.3040019 1.1515174 -0.79117328 4.3205745e-39
-1.3040506 1.1600288 -0.78655922 3.9510787e-39
-1.3036851 1.1679515 -0.78268218 3.7692014e-39
-1.3043368 1.169472 -0.78120369 2.9452127e-39
-1.3048178 1.1751117 -0.7776897 2.3906068e-39
-1.3051063 1.1835222 -0.77288586 7.7378888e-39
-1.3041217 1.187289 -0.77186728 5.3376341e-39
-1.3029048 1.192136 -0.77050561 2.205491e-39
-1.3022214 1.1985592 -0.7677561 6.4457389e-39
-1.3013673 1.2044721 -0.76545382 4.0436401e-39
-1.3011918 1.2127765 -0.76117885 4.5064091e-39
-1.3017088 1.2203176 -0.75660861 4.3227353e-39
-1.3043501 1.227856 -0.74987894 4.9680977e-39
-1.3043634 1.236825 -0.74505544 4.4138491e-39
-1.3034923 1.2428383 -0.74271661 3.310747e-39
-1.3033638 1.2513895 -0.73826134 4.6915122e-39
-1.3040416 1.2598426 -0.73303854 4.5989607e-39
-1.3035139 1.2670946 -0.72968614 4.4152855e-39
-1.3086168 1.0178273 -0.85817611 2.3506298e-38
-1.3087198 1.0225017 -0.85556453 7.0011057e-39
-1.307249 1.029408 -0.85335684 2.2040519e-39
-1.3098714 1.078519 -0.82435113 7.8265252e-39
-1.3080485 1.0870445 -0.82163334 5.9829517e-39
-1.3081886 1.0930701 -0.81825936 6.3521126e-39
-1.3077031 1.0996294 -0.8152355 3.6770114e-39
-1.3073646 1.1067144 -0.81178021 2.6653818e-39
-1.3062223 1.1137326 -0.80917841 4.2301852e-39
-1.3082738 1.1168814 -0.80540293 3.5873395e-39
-1.309617 1.1252534 -0.7995466 3.1259984e-39
-1.3099207 1.1317413 -0.79575837 3.0341657e-39
-1.3101648 1.1405905 -0.79076397 3.4040272e-39
-1.3093158 1.1464659 -0.78847677 3.4940677e-39
-1.3090173 1.1538807 -0.78480387 5.4298017e-39
-1.3083394 1.1603224 -0.78203881 6.0744425e-39
-1.308443 1.1692971 -0.77712035 3.1245593e-39
-1.3097641 1.1724749 -0.77407229 1.0109149e-39
-1.3087934 1.1802254 -0.77090317 8.1085197e-39
-1.3089294 1.1865194 -0.76738942 3.3089631e-39
-1.3080713 1.1924447 -0.76508462 3.8614082e-39
-1.3074876 1.1985888 -0.76238304 8.0112878e-39
-1.3072675 1.2061123 -0.75857228 3.4007888e-39
-1.3068645 1.2119145 -0.75587046 3.8646354e-39
-1.306728 1.2201649 -0.75158489 3.6798868e-39
-1.3094002 1.2277005 -0.74482524 3.5869737e-39
-1.3090672 1.2354549 -0.74100536 2.6661021e-39
-1.3086331 1.2442307 -0.73674047 2.8526401e-39
-1.3094721 1.2516754 -0.73189461 3.4965676e-39
-1.3089591 1.2591145 -0.72842669 3.3114659e-39
-1.3088298 1.267761 -0.72392124 3.7717153e-39
-1.3134128 1.0163026 -0.85411513 2.100228e-38
-1.3130111 1.0212367 -0.85187757 7.2809156e-39
-1.3127233 1.0274857 -0.84881908 0
-1.3129272 1.0789433 -0.82101536 4.2312698e-39
-1.3134702 1.0846707 -0.81739128 5.5212883e-39
-1.3139075 1.0894024 -0.8144089 6.6333868e-39
-1.3131117 1.0972285 -0.81102127 4.4152953e-39
-1.3122762 1.1030006 -0.80877566 3.3075142e-39
-1.3123578 1.1110994 -0.8043493 3.8617614e-39
-1.3127141 1.1176336 -0.80048281 3.7717251e-39
-1.3155245 1.1267258 -0.79274774 4.1380049e-39
-1.3156132 1.1333717 -0.78909326 5.3386963e-39
-1.3149457 1.1397805 -0.78633541 6.3542748e-39
-1.3148632 1.1476908 -0.78217703 6.3564342e-39
-1.3138047 1.1530757 -0.78036588 8.0163226e-39
-1.3129501 1.1589746 -0.7780714 6.4461131e-39
-1.3124753 1.1659681 -0.77480406 2.8501458e-39
-1.3157932 1.1725817 -0.76788217 4.2355605e-39
-1.315012 1.180558 -0.76439917 6.7249028e-39
-1.3143129 1.1865765 -0.76188242 2.7615403e-39
-1.313206 1.190376 -0.76097089 4.4192385e-39
-1.3129151 1.1986138 -0.75684893 7.3666204e-39
-1.3125048 1.2026247 -0.75511527 2.5728288e-39
-1.3118854 1.2117583 -0.75084716 2.9441225e-39
-1.3113922 1.218816 -0.74756366 3.1274319e-39
-1.3144606 1.2274486 -0.73981291 2.6675342e-39
-1.3145537 1.2365484 -0.73483783 1.9299803e-39
-1.3152168 1.2465181 -0.72881675 3.495497e-39
-1.3142269 1.2504914 -0.72769278 3.3121973e-39
-1.3136575 1.257116 -0.72471917 3.03453e-39
-1.3135929 1.2663774 -0.71981817 3.6777246e-39
-1.3195554 1.0109584 -0.85073274 1.1332484e-38
-1.3182091 1.0147779 -0.85005403 1.5200738e-38
-1.3178642 1.0203693 -0.84740591 1.0593865e-38
-1.3175195 1.0259609 -0.84475797 4.1618564e-43
-1.3178068 1.0762182 -0.81751293 5.7978696e-39
-1.3184161 1.0808393 -0.81441504 4.6929654e-39
-1.318419 1.0880932 -0.81052172 6.0773151e-39
-1.3179408 1.0946543 -0.80748957 5.3365173e-39
-1.3174615 1.1012368 -0.80444688 3.1224069e-39
-1.3177058 1.109585 -0.7997213 5.0595871e-39
-1.3174479 1.1168263 -0.79610026 4.8784412e-39
-1.3202461 1.1264422 -0.78809679 5.7074578e-39
-1.3211985 1.134611 -0.78274709 7.0928978e-39
-1.3209219 1.1420106 -0.77906013 8.013429e-39
-1.3200612 1.1479357 -0.77675813 7.2758625e-39
-1.3202239 1.1541156 -0.77327842 6.9074556e-39
-1.3197529 1.1611211 -0.77000034 3.1263908e-39
-1.3188154 1.1676419 -0.76745701 1.469382e-39
-1.3189753 1.17251 -0.76468354 7.3673813e-39
-1.3199641 1.1790768 -0.76015604 5.4298228e-39
-1.3192641 1.185096 -0.75763994 4.4199448e-39
-1.3185643 1.1911149 -0.75512391 5.8929351e-39
-1.3182243 1.1960136 -0.75284249 5.3397809e-39
-1.3177395 1.2030246 -0.74957579 2.6650231e-39
-1.3172543 1.2101586 -0.74624342 2.5757029e-39
-1.3164345 1.2185615 -0.74257106 2.8526415e-39
-1.3200517 1.2264541 -0.73465854 2.8494129e-39
-1.3193452 1.2346313 -0.73099202 1.7491792e-39
-1.3185956 1.2426517 -0.72745323 2.9408883e-39
-1.3191662 1.2494907 -0.72320503 2.7611633e-39
-1.3186148 1.2557191 -0.72042572 1.8442629e-39
-1.3228887 1.0185902 -0.84324914 9.8577157e-39
-1.3212945 1.0225855 -0.84272802 2.85551e-39
-1.3238345 1.0707164 -0.81433201 8.4740708e-39
-1.3233333 1.0769014 -0.81152493 4.6979736e-39
-1.3241814 1.0819588 -0.80794996 4.4167358e-39
-1.3237067 1.088515 -0.80491686 5.4330401e-39
-1.3235184 1.0962921 -0.80093747 5.9786553e-39
-1.322389 1.1008885 -0.79962128 4.2298348e-39
-1.3217394 1.1071906 -0.79690236 5.9844118e-39
-1.3228909 1.1156608 -0.79118836 6.8141697e-39
-1.3270005 1.1260492 -0.7814368 6.166292e-39
-1.3263372 1.1324849 -0.77866006 6.4446571e-39
-1.3257437 1.1412048 -0.77458751 6.9963834e-39
-1.3259234 1.1474756 -0.77104151 5.2454035e-39
-1.3254548 1.1543807 -0.76781499 4.3216745e-39
-1.3245872 1.160329 -0.7655077 3.4018804e-39
-1.3237576 1.166154 -0.76322746 1.2856969e-39
-1.3240048 1.1709111 -0.76042503 1.170199e-38
-1.3252138 1.1787441 -0.75499421 7.3468397e-40
-1.3232816 1.182638 -0.75487143 3.8711178e-39
-1.3229201 1.1885012 -0.75209475 5.0646262e-39
-1.3234994 1.1958908 -0.74754256 5.5281154e-39
-1.3235742 1.2050577 -0.74255019 3.7695671e-39
-1.3237151 1.2140297 -0.73759532 3.5876954e-39
-1.3227935 1.21983 -0.73542213 4.0490421e-39
-1.3279133 1.2317398 -0.72382694 7.3655652e-39
-1.3276783 1.2398856 -0.71969754 8.3822465e-39
-1.3267803 1.2460046 -0.71732932 9.8566339e-39
-1.3262764 1.2533607 -0.71389681 8.4722603e-39
-1.3258077 1.2608693 -0.71034676 9.9448555e-39
-1.326066 1.0210686 -0.8386879 9.3999914e-39
-1.3265662 1.0269794 -0.83500916 1.2864144e-39
-1.3284675 1.0344982 -0.82904279 4.784103e-39
-1.3304865 1.0759078 -0.80478138 8.0141773e-39
-1.3297282 1.0772318 -0.80484253 7.4584643e-39
-1.3292748 1.0819008 -0.80280006 6.8156116e-39
-1.3284292 1.0876918 -0.80055428 9.1179702e-39
-1.327957 1.0942677 -0.797508 5.4279871e-39
-1.3281424 1.100366 -0.79404891 5.5227176e-39
-1.3286728 1.1093018 -0.78871721 6.8134438e-39
-1.3284369 1.1166643 -0.78500873 6.6286784e-39
-1.3305401 1.1244242 -0.77870762 5.8914875e-39
-1.33199 1.1336185 -0.77230179 5.0606661e-39
-1.3308418 1.1399949 -0.77005041 4.6036452e-39
-1.3317181 1.146781 -0.76551968 4.0465086e-39
-1.331243 1.1543771 -0.76192898 4.5989607e-39
-1.3308796 1.1602727 -0.75913709 3.6806323e-39
-1.3305161 1.1661681 -0.75634515 1.3793667e-39
-1.3301526 1.1720635 -0.75355321 1.1708492e-38
-1.3286725 1.1751757 -0.75338972 3.3060779e-39
-1.328311 1.1810391 -0.75061291 6.5458897e-39
-1.3273153 1.1872423 -0.74829912 4.8831076e-39
-1.329376 1.1985326 -0.74014795 7.4570196e-39
-1.3298999 1.2084059 -0.73431993 8.1041714e-39
-1.330519 1.2159847 -0.72962582 9.1187101e-39
-1.3306695 1.2250497 -0.72461116 9.5789596e-39
-1.3315631 1.0269783 -0.82992673 5.5212953e-39
-1.333088 1.0338671 -0.82468104 2.1154632e-39
-1.3329889 1.0405985 -0.82117182 5.9855035e-39
-1.3339571 1.0494292 -0.81545132 6.3531958e-39
-1.3368652 1.0765516 -0.79794741 6.25851e-39
-1.3364624 1.076692 -0.79828197 8.2911117e-39
-1.334445 1.0820086 -0.79748279 7.7386357e-39
-1.3344102 1.0895281 -0.79348552 9.4878598e-39
-1.3341074 1.0924481 -0.79222751 3.2167647e-39
-1.3345635 1.1033201 -0.78593308 5.3379606e-39
-1.3345098 1.1109613 -0.78188962 5.6138118e-39
-1.3344929 1.1187406 -0.77773488 5.9815182e-39
-1.3372917 1.1259475 -0.77102292 4.9691641e-39
-1.3368365 1.132804 -0.76780874 4.1383412e-39
-1.3374976 1.1401755 -0.763183 2.578214e-39
-1.33662 1.1461456 -0.76087415 3.0366866e-39
-1.3361562 1.1530675 -0.75763363 3.6802638e-39
-1.3359363 1.1586651 -0.75485522 2.9452001e-39
-1.3355728 1.1645606 -0.75206327 4.7816325e-39
-1.3352094 1.1704559 -0.74927145 1.401374e-38
-1.3359424 1.177549 -0.74472177 4.7833379e-39
-1.3333403 1.1794401 -0.74635434 8.6595299e-39
-1.3357269 1.1910657 -0.73769212 8.1056442e-39
-1.3362213 1.2032042 -0.73067921 1.0868603e-38
-1.3376323 1.2104034 -0.72538304 1.0501622e-38
-1.3367834 1.2189776 -0.7216484 1.0778561e-38
-1.3365436 1.2270192 -0.71757966 1.0316502e-38
-1.3367572 1.0273724 -0.82443184 6.8199557e-39
-1.3373966 1.032608 -0.82097363 1.9306978e-39
-1.3373059 1.0393282 -0.81746173 4.9692005e-39
-1.3397019 1.0477962 -0.81048322 6.6283561e-39
-1.3407832 1.05848 -0.80365336 7.0867923e-39
-1.3411804 1.0676123 -0.79835194 6.7183769e-39
-1.3412738 1.0691763 -0.79741836 5.5241568e-39
-1.3414097 1.0761189 -0.79355675 4.7873036e-39
-1.3405504 1.0819649 -0.79129553 7.4602608e-39
-1.3403835 1.0895534 -0.78739572 1.1055899e-38
-1.3399056 1.0939403 -0.78552926 2.7561411e-39
-1.3399644 1.1037483 -0.78020948 4.4142135e-39
-1.3395269 1.1105129 -0.77702659 4.5982446e-39
-1.3403845 1.1192578 -0.77146441 4.6003956e-39
-1.3408411 1.120514 -0.7703262 3.0391824e-39
-1.3417163 1.1320649 -0.76324129 4.4178092e-39
-1.3423738 1.1393783 -0.75865 7.095109e-39
-1.3417095 1.1459064 -0.75582504 5.5274176e-39
-1.3413566 1.1511619 -0.75336558 5.7986039e-39
-1.340993 1.1570574 -0.75057364 1.3811226e-39
-1.3408426 1.1672382 -0.74526662 1.1886388e-38
-1.3397282 1.1712472 -0.74425024 9.8577325e-39
-1.3387312 1.171978 -0.74487263 1.2856969e-39
-1.3390166 1.1782371 -0.74122566 1.0133588e-38
-1.3403754 1.1889635 -0.73409092 6.0751543e-39
-1.3418936 1.1982415 -0.72757071 6.3506762e-39
-1.3434933 1.2083725 -0.72051036 5.4287157e-39
-1.3437872 1.2376672 -0.70450073 7.7346673e-39
-1.3427323 1.0400801 -0.81153899 2.942326e-39
-1.344873 1.0489146 -0.80462337 4.2294705e-39
-1.3448757 1.0562874 -0.80066645 4.7826289e-39
-1.345113 1.0641948 -0.79618436 5.2468412e-39
-1.3453318 1.0703038 -0.79268557 3.2199821e-39
-1.3459709 1.0748024 -0.78962296 1.7491792e-39
-1.3459522 1.0821772 -0.78568697 9.8606122e-39
-1.3457917 1.0877088 -0.78288352 1.1518685e-38
-1.3453616 1.0944201 -0.77972198 2.5713939e-39
-1.3451107 1.1015761 -0.77613932 4.1369133e-39
-1.3451267 1.109315 -0.77197272 3.5894989e-39
-1.3456067 1.116119 -0.7678355 2.6700649e-39
-1.3458321 1.1244704 -0.76312733 6.167378e-39
-1.3456045 1.1273798 -0.76179874 7.3749147e-39
-1.3459297 1.1351982 -0.75727469 1.1793462e-38
-1.3455682 1.1410617 -0.75449806 7.0065147e-39
-1.3464134 1.1495544 -0.7490837 4.414568e-39
-1.3485301 1.1577059 -0.74255896 1.0102227e-39
-1.3467075 1.1692746 -0.73820871 7.827621e-39
-1.3449594 1.1731362 -0.73791599 3.1324808e-39
-1.3479246 1.1813284 -0.73050624 1.0409448e-38
-1.3474493 1.188377 -0.72720951 6.534699e-39
-1.348398 1.2049376 -0.7173633 4.8784272e-39
-1.3555363 1.0480072 -0.79426283 9.48609e-39
-1.35092 1.0503135 -0.79772174 4.4174575e-39
-1.3500611 1.0561506 -0.79546517 3.399707e-39
-1.3496686 1.0628725 -0.7922594 4.0450792e-39
-1.350777 1.0715868 -0.78645831 1.3789674e-39
-1.3516054 1.0755014 -0.78351641 4.4232336e-39
-1.3507396 1.081375 -0.78124702 9.5854953e-39
-1.351276 1.0882155 -0.77703315 1.1705239e-38
-1.3498571 1.0919551 -0.77647084 3.4029356e-39
-1.3510118 1.099581 -0.77120674 3.4965774e-39
-1.352996 1.1073153 -0.76504034 6.0820319e-39
-1.352437 1.1160754 -0.76091081 8.5659147e-39
-1.3515521 1.1220554 -0.75860405 1.1701291e-38
-1.3509241 1.1286401 -0.75571144 1.0041751e-38
-1.3521972 1.1361558 -0.75038582 5.7107242e-39
-1.3536857 1.1435624 -0.74489939 5.2465189e-39
-1.3541386 1.1502994 -0.74082571 2.8498011e-39
-1.3532411 1.1563461 -0.73849612 5.0649891e-39
-1.3532959 1.1646296 -0.73399782 9.5836932e-39
-1.3521363 1.1700501 -0.73227042 5.155363e-39
-1.3512363 1.1761158 -0.72993279 2.5778623e-39
-1.3520008 1.1805331 -0.72678632 1.078147e-38
-1.3533587 1.1899 -0.72038156 3.4944124e-39
-1.3540933 1.2000401 -0.71419615 2.8530016e-39
-1.3532541 1.2312913 -0.69829011 4.4181609e-39
-1.3557754 1.0642771 -0.78529429 6.6240317e-39
-1.3550388 1.0689423 -0.78354162 7.7303947e-39
-1.3557197 1.0715055 -0.78147423 4.88203e-39
-1.3563181 1.0805089 -0.77603704 1.041196e-38
-1.3575311 1.084831 -0.77248538 8.7528213e-39
-1.3571304 1.0916746 -0.76922256 9.2119834e-39
-1.3587689 1.100512 -0.76281625 9.3963956e-39
-1.3588701 1.1162521 -0.75427228 1.1702339e-38
-1.358492 1.1233519 -0.75084925 9.4924953e-39
-1.358885 1.1311686 -0.74625731 6.1677115e-39
-1.3611442 1.1379623 -0.74031574 6.0780494e-39
-1.3588276 1.1431203 -0.73990625 3.402958e-39
-1.3593636 1.1500765 -0.73563039 1.1942202e-39
-1.3586568 1.156557 -0.73287386 4.877344e-39
-1.3562129 1.1754159 -0.72524583 4.6958226e-39
-1.3567463 1.1824696 -0.72092044 1.3452265e-38
-1.3580953 1.1901228 -0.71544391 6.0784053e-39
-1.3619353 1.073927 -0.77385288 7.8236749e-39
-1.3605964 1.0790585 -0.7724629 8.845356e-39
-1.3642805 1.0874535 -0.76421332 8.4693456e-39
-1.3641261 1.0948099 -0.76042497 8.5633531e-39
-1.3631887 1.1628442 -0.72489202 3.0359524e-39
-1.3623246 1.1797348 -0.71671271 1.9904883e-38
-1.362855 1.2238874 -0.69249457 3.9597149e-39
-1.3680688 1.0753926 -0.7668277 1.0964056e-38
-1.3686074 1.0951058 -0.7557078 7.9201445e-39
-1.3697938 1.1483465 -0.72594833 8.9346566e-39
-1.3680031 1.2095704 -0.69493556 6.8170003e-39
-1.3740433 1.0749261 -0.76100057 1.3548081e-38
-1.3755765 1.1483479 -0.72006506 7.5502886e-39
-1.37191 1.2026881 -0.69465256 7.4605915e-39
-1.3715461 1.2098683 -0.69117188 9.0283026e-39
-1.3930014 1.0914909 -0.73283195 1.6588339e-38
-1.3941056 1.0997132 -0.72729939 6.5447911e-39
-1.1792322 1.0731841 -0.9601025 8.1956454e-39
-1.1782763 1.0790243 -0.95794272 7.4555566e-39
-1.1848081 1.0660386 -0.95826268 9.0225334e-39
-1.1838522 1.0718788 -0.95610303 8.0084193e-39
-1.1887619 1.0728884 -0.95056707 9.0254089e-39
-1.1875163 1.0764135 -0.94994372 9.0254089e-39
-1.1925235 1.0651144 -0.95091003 9.8530186e-39
-1.1974041 1.0658926 -0.94552779 9.9416142e-39
-1.2141347 1.21498 -0.84855402 2.3884404e-39
-1.2441614 1.0748478 -0.89316243 1.1503279e-38
-1.2437383 1.0780149 -0.89189404 3.7753363e-39
-1.2709475 1.045113 -0.88186145 7.8237156e-39
-1.2764947 1.0380038 -0.88003105 1.3718453e-38
-1.3016027 1.0777037 -0.83319968 9.1183598e-39
-1.2935054 1.1853364 -0.78371346 5.1531952e-39
-1.321569 1.1713998 -0.7626406 8.7539003e-39
-1.3311367 1.156338 -0.76098567 3.4965774e-39
-1.3301229 1.162532 -0.75869519 2.2962461e-39
-1.3551773 1.2222639 -0.70117497 9.6427775e-39
-1.2042731 1.1600897 -0.8880229 8.279544e-40
-1.2039529 1.1750981 -0.88029993 8.2831313e-40
-1.203096 1.1854062 -0.87564343 7.361189e-40
-1.2005725 1.17864 -0.88183892 1.0119841e-39
-1.1974756 1.1842431 -0.88198447 8.2831313e-40
-1.191481 1.2184267 -0.86974972 0
-1.1785567 1.2804962 -0.84960914 1.2885682e-39
-1.2063543 1.1645886 -0.88349342 8.279544e-40
-1.1983438 1.2168038 -0.8636393 7.3468397e-40
-1.2422135 1.0831082 -0.89071387 2.9452001e-39
-1.2442571 1.0875266 -0.88626528 6.4392467e-40
-1.2467355 1.0939161 -0.88031769 1.0101905e-39
-1.2190822 1.2535107 -0.82285756 9.1835496e-41
-1.2499888 1.1100599 -0.86835039 7.3576017e-40
-1.2142477 1.3026443 -0.80142528 4.5917748e-40
-1.2624984 1.0724772 -0.87578052 4.3321058e-39
-1.2611924 1.0777324 -0.8742907 4.7909161e-39
-1.256443 1.1007372 -0.86678457 2.8530044e-39
-1.2240391 1.2683924 -0.80983442 1.2856969e-39
-1.2216491 1.2824588 -0.80472189 1.0101905e-39
-1.2755684 1.0365903 -0.88173133 1.2262722e-38
-1.2737024 1.0401497 -0.88172084 3.9690938e-39
-1.2783765 1.034098 -0.88021153 7.7462308e-39
-1.2757647 1.0446084 -0.87723178 5.2551509e-39
-1.2663503 1.0905087 -0.86219227 4.3317527e-39
-1.2610794 1.1117194 -0.85617882 8.2831313e-40
-1.2603182 1.1193626 -0.85285389 8.2831313e-40
-1.2817448 1.0333015 -0.87721229 6.7259229e-39
-1.2663832 1.1078954 -0.85283434 4.5917748e-40
-1.2607299 1.1387758 -0.84202403 8.279544e-40
-1.2851131 1.032505 -0.8742131 1.6548326e-39
-1.2838072 1.0377603 -0.87272328 5.7978752e-39
-1.2817835 1.0500268 -0.8682034 5.7125123e-39
-1.2817193 1.0591197 -0.863392 5.345899e-39
-1.2769803 1.0823137 -0.8557741 4.6108507e-39
-1.2724483 1.096428 -0.85281467 9.1835496e-40
-1.2695215 1.1164519 -0.84505326 8.279544e-40
-1.2674335 1.1295661 -0.84014422 8.279544e-40
-1.2593755 1.1619922 -0.83095098 6.4320721e-40
-1.2836579 1.0726191 -0.85418034 5.3484157e-39
-1.2750902 1.1029161 -0.84664762 4.1480649e-39
-1.2743043 1.1102597 -0.84350896 1.0101905e-39
-1.2646797 1.1579484 -0.82772398 1.0101905e-39
-1.2785215 1.1021047 -0.84359246 3.0431564e-39
-1.2853454 1.0833452 -0.8467117 1.8392211e-39
-1.2756846 1.1400188 -0.82614511 1.2856969e-39
-1.3012373 1.0273576 -0.86057162 0
-1.294719 1.0722461 -0.8431288 5.9901572e-39
-1.2913251 1.0809284 -0.84192497 2.667558e-39
-1.2805126 1.133768 -0.82458621 1.0119841e-39
-1.2981831 1.0714269 -0.8400445 7.183325e-39
-1.29684 1.0768312 -0.83851236 6.4511605e-39
-1.2865996 1.1319029 -0.81939423 2.0232508e-39
-1.279792 1.1592977 -0.81162769 1.0119841e-39
-1.2761021 1.1886404 -0.79964501 8.2831313e-40
-1.3115807 1.0255262 -0.85103226 0
-1.3102443 1.0309035 -0.84950775 1.3812408e-38
-1.2942152 1.1049821 -0.82608503 2.7582935e-39
-1.2853272 1.1554319 -0.80807042 2.0225361e-39
-1.273614 1.207674 -0.79196823 3.0348776e-39
-1.3136909 1.0300884 -0.84643888 1.639676e-38
-1.3065614 1.0736506 -0.83032912 6.7201972e-39
-1.3227558 1.0164872 -0.8445121 1.2990929e-38
-1.321407 1.0219153 -0.84297323 6.7284859e-39
-1.318709 1.0327716 -0.83989531 1.7782585e-38
-1.3262349 1.0156646 -0.84141433 1.2251199e-38
-1.3150702 1.0758433 -0.82049775 6.7295523e-39
-1.3000194 1.13641 -0.80332643 1.6544739e-39
-1.3306073 1.016618 -0.83645529 1.1054468e-38
-1.3199677 1.0695027 -0.81891638 5.6188495e-39
-1.306285 1.1245635 -0.80330616 1.6548326e-39
-1.3049166 1.1300695 -0.80174506 2.5731876e-39
-1.2946082 1.1869918 -0.78170395 2.5742638e-39
-1.2847948 1.2372235 -0.76474756 1.3811226e-39
-1.3327482 1.0212463 -0.83179533 8.9440285e-39
-1.3313925 1.0267017 -0.83024883 3.1292228e-39
-1.3139189 1.1072105 -0.80484694 2.3923864e-39
-1.3111824 1.1182227 -0.80172479 1.8392211e-39
-1.3009627 1.1749773 -0.78168333 2.9387471e-39
-1.3002969 1.183093 -0.77800828 5.434873e-39
-1.2933249 1.2111487 -0.77005416 1.2856969e-39
-1.3370508 1.0219902 -0.82701969 8.2950886e-39
-1.3158562 1.1477249 -0.78114855 6.4504571e-39
-1.3033067 1.1982254 -0.76683122 2.3891606e-39
-1.2956494 1.2575754 -0.74279124 2.5731876e-39
-1.3422936 1.0331283 -0.81571311 1.0137778e-39
-1.3385372 1.0588078 -0.80576235 4.4192539e-39
-1.3380653 1.0663415 -0.8022024 4.052642e-39
-1.329486 1.0903012 -0.79807979 4.0443576e-39
-1.3224895 1.1459217 -0.77536798 4.2377424e-39
-1.3090582 1.1943371 -0.76306587 4.3245402e-39
-1.3467827 1.0341307 -0.81060922 8.6588292e-39
-1.3454077 1.0396639 -0.80904055 3.3979134e-39
-1.3162657 1.1847211 -0.7608912 3.4111865e-39
-1.3051478 1.2415729 -0.74171138 2.2998335e-39
-1.342448 1.0758169 -0.79266232 5.2440008e-39
-1.3359016 1.1136918 -0.77900958 3.2206995e-39
-1.3325678 1.1328735 -0.7721138 2.4845806e-39
-1.3264685 1.1639034 -0.76167691 2.4831737e-39
-1.310993 1.2377104 -0.73783702 1.6544739e-39
-1.3519841 1.0451673 -0.7993992 5.5284952e-39
-1.3506032 1.0507243 -0.79782367 2.4845806e-39
-1.3468696 1.1028291 -0.77367818 2.7582935e-39
-1.338369 1.1554648 -0.75409687 2.7550649e-40
-1.3332185 1.170294 -0.75138336 6.4392467e-40
-1.3317963 1.176017 -0.74976087 2.9437581e-39
-1.3255087 1.2072161 -0.73942477 3.4054608e-39
-1.3229285 1.2301309 -0.72976041 1.6551913e-39
-1.3624861 1.0664117 -0.77732313 1.169873e-38
-1.3315767 1.2034665 -0.73526341 6.6355294e-39
-1.3203199 1.2614362 -0.71562505 4.2301725e-39
-1.3643163 1.0789694 -0.76872671 9.304165e-39
-1.3559804 1.1321081 -0.74870819 5.0653871e-39
-1.3505791 1.147061 -0.74618357 1.2907388e-39
-1.3424643 1.1736869 -0.74015868 2.4795682e-39
-1.3278836 1.2519555 -0.71301556 1.0316888e-38
-1.3447711 1.1982465 -0.72464108 3.221417e-39
-1.3785458 1.0908283 -0.74789208 5.7081753e-39
-1.3595864 1.1671233 -0.72626179 5.8036359e-39
-1.3493971 1.2283622 -0.70378441 9.8555395e-39
-1.3710389 1.1558906 -0.72063583 7.6497037e-39
-1.374409 1.2000198 -0.69354129 7.6366955e-39
-1.3746996 1.2290391 -0.67768306 4.6061661e-39
-1.3849527 1.2231091 -0.67043328 5.7099956e-39
-1.3847814 1.2323227 -0.66566646 5.2490174e-39
-1.3873024 1.2281892 -0.66531861 6.9949793e-39
-1.3858147 1.2341766 -0.66362119 6.9024277e-39
-1.3831375 1.2372044 -0.66472065 5.9836734e-39
-1.391004 1.2365187 -0.65708631 4.8672813e-39
-1.3881643 1.2392566 -0.65850639 8.5554624e-39
-1.406491 1.2236516 -0.64823306 1.6672959e-38
-1.4064416 1.2328682 -0.64334053 9.7716381e-39
-1.4118165 1.2167566 -0.6465134 1.6759329e-38
-1.417142 1.2098615 -0.64479387 1.7129538e-38
-1.4143053 1.2130133 -0.64598942 1.8325268e-38
-1.1820474 1.3333659 -0.81770456 2.1154478e-39
-1.1869987 1.3249007 -0.81720787 2.8501332e-39
-1.1867882 1.3324459 -0.81337541 2.9423344e-39
-1.1916589 1.3222197 -0.8139053 2.8501332e-39
-1.1963893 1.3280497 -0.80596662 2.8501318e-39
-1.1992806 1.3180997 -0.80836171 3.2181954e-39
-1.2010155 1.3258122 -0.80246085 3.3114645e-39
-1.2051404 1.3199697 -0.80139816 3.5884185e-39
-1.2072227 1.3175484 -0.80057859 1.9303419e-39
-1.2095222 1.3226914 -0.79548091 2.4852995e-39
-1.2114081 1.3163155 -0.79698193 2.4831513e-39
-1.2122906 1.3222183 -0.79291874 2.1143716e-39
-1.2121435 1.3207017 -0.7938816 2.2062043e-39
-1.216813 1.3132412 -0.79313272 2.3913158e-39
-1.2163397 1.3203005 -0.78982824 2.4838702e-39
-1.216289 1.3209486 -0.7895323 1.7470268e-39
-1.221723 1.3139012 -0.78778416 2.2076392e-39
-1.2261285 1.3056279 -0.78773981 4.691864e-39
-1.226375 1.3119626 -0.78409165 3.2185472e-39
-1.2279242 1.3039459 -0.78681523 3.1263529e-39
-1.2291752 1.3073784 -0.78370184 2.3913102e-39
-1.2323751 1.3070989 -0.78059655 3.8635578e-39
-1.2377098 1.309514 -0.77387482 3.4029384e-39
-1.2377123 1.3119996 -0.77253926 2.8522828e-39
-1.3032315 1.2779114 -0.72417235 4.8755405e-39
-1.3083397 1.2751667 -0.7204482 4.0468603e-39
-1.3189729 1.2671366 -0.7139383 4.6890165e-39
-1.3899525 1.2511036 -0.650334 9.3867505e-39
-1.193886 1.3211839 -0.8121953 9.1835496e-41
-1.2034895 1.3274581 -0.79906142 1.2856969e-39
-1.3920021 1.2383491 -0.65508938 1.8239966e-38
-1.3958398 1.2374415 -0.65167224 9.3081433e-39
-1.4025823 1.2337807 -0.64677691 1.4099775e-38
-1.4117974 1.225934 -0.64161116 1.740765e-38
-1.2005262 1.1049178 -0.9214229 6.1651793e-39
-1.1986996 1.1096139 -0.9207626 5.6134489e-39
-1.1999965 1.1143533 -0.91690171 4.2352228e-39
-1.2005422 1.1199005 -0.9133715 3.6788162e-39
-1.2022179 1.0979637 -0.92343158 9.9426932e-39
-1.2023548 1.1084343 -0.91767693 5.3379508e-39
-1.205456 1.1120265 -0.91259593 5.2479146e-39
-1.205145 1.1184709 -0.90945607 3.5866122e-39
-1.2049613 1.1254765 -0.90588605 4.0479575e-39
-1.2049679 1.1310557 -0.90288717 2.5746351e-39
-1.2048266 1.1382133 -0.89919233 2.8519465e-39
-1.2073022 1.0947286 -0.91999459 1.2153952e-38
-1.206652 1.1036259 -0.91588444 3.2199919e-39
-1.2077031 1.1077158 -0.9126218 4.3245234e-39
-1.2066641 1.111434 -0.91168475 4.5117999e-39
-1.2088896 1.1151674 -0.90741873 3.3107484e-39
-1.2073336 1.1196744 -0.90658438 2.5771476e-39
-1.2088361 1.1273813 -0.90092295 1.9325013e-39
-1.2098395 1.1345451 -0.89606035 3.218194e-39
-1.208928 1.1411327 -0.89345449 2.6671811e-39
-1.2096887 1.1473477 -0.88934779 1.93286e-39
-1.2094933 1.1538116 -0.88607997 2.2998377e-39
-1.2103925 1.1601502 -0.88176596 3.4936977e-39
-1.2131817 1.185284 -0.86544931 3.4944222e-39
-1.2150426 1.2201235 -0.8448723 5.5101718e-40
-1.2114458 1.094335 -0.91599065 1.1325273e-38
-1.210508 1.1018176 -0.9129318 5.7045922e-39
-1.2110131 1.107178 -0.90954322 5.1532345e-39
-1.2107698 1.1099911 -0.90828204 5.7993073e-39
-1.2114595 1.1122448 -0.90637177 4.9688152e-39
-1.2117807 1.1171064 -0.90343809 2.4827968e-39
-1.2103657 1.123893 -0.90123755 3.0356006e-39
-1.2124196 1.1332073 -0.89415306 1.5651593e-39
-1.2133971 1.1397558 -0.88964671 3.5869723e-39
-1.2118175 1.1457903 -0.8880173 3.5876912e-39
-1.2155106 1.1529864 -0.88040143 4.0475848e-39
-1.2150497 1.158666 -0.87782431 3.6773757e-39
-1.2142245 1.1703669 -0.8723886 3.220352e-39
-1.2176142 1.1852067 -0.86098206 3.2185542e-39
-1.2190319 1.1992302 -0.85201913 3.4018748e-39
-1.2170823 1.2212305 -0.84220362 2.7554264e-39
-1.218431 1.2241571 -0.83926243 5.5101298e-40
-1.2180932 1.230739 -0.83607614 2.2090952e-39
-1.2150192 1.0998778 -0.90938306 6.9953016e-39
-1.2136396 1.1058255 -0.90759671 5.0603004e-39
-1.21587 1.1108714 -0.90262181 5.3383362e-39
-1.2158443 1.1207342 -0.89735866 3.2196416e-39
-1.2151045 1.1231234 -0.89682984 2.5753456e-39
-1.2148619 1.1306386 -0.89304638 2.9423344e-39
-1.21813 1.1399176 -0.88474554 4.1394202e-39
-1.2184275 1.1436571 -0.88243765 4.7848051e-39
-1.2182565 1.1469289 -0.88085687 3.4040286e-39
-1.2195033 1.1550403 -0.87523854 2.2069246e-39
-1.21838 1.1547554 -0.87653387 3.0355978e-39
-1.2189838 1.1657701 -0.87001252 2.7579361e-39
-1.2189264 1.1697714 -0.86792511 3.3100323e-39
-1.2188028 1.1780133 -0.86363059 3.1252809e-39
-1.2210853 1.1838005 -0.8582052 2.6661006e-39
-1.2224908 1.1933057 -0.85167801 3.4954998e-39
-1.2233976 1.2029333 -0.84559232 2.4824395e-39
-1.2226827 1.208037 -0.84358239 2.5735477e-39
-1.2220727 1.2137324 -0.8411485 3.4036643e-39
-1.2214627 1.2194282 -0.83871448 2.2969664e-39
-1.2226475 1.218991 -0.83774364 8.268824e-40
-1.2216221 1.2269332 -0.83452731 3.1256369e-39
-1.2248489 1.231988 -0.82853407 3.9557465e-39
-1.2234446 1.2398634 -0.82573903 2.8494129e-39
-1.2244643 1.2515012 -0.81846052 2.2072805e-39
-1.2190328 1.1011522 -0.90461713 6.9031227e-39
-1.2180587 1.1044726 -0.90382707 5.7053166e-39
-1.2195003 1.1092799 -0.89978254 5.1593399e-39
-1.2179593 1.1088068 -0.9016037 4.2359487e-39
-1.2197405 1.1143829 -0.89680165 3.955036e-39
-1.2195781 1.122213 -0.89276749 3.4018664e-39
-1.2199957 1.1302609 -0.88802665 3.1267299e-39
-1.2198427 1.1339169 -0.88622171 4.0522805e-39
-1.221959 1.143015 -0.87918949 4.1394259e-39
-1.2212408 1.1485417 -0.87695611 3.0338042e-39
-1.2219088 1.1516688 -0.87459946 3.2185626e-39
-1.2237058 1.1535606 -0.87175709 2.850136e-39
-1.2226204 1.1575941 -0.87069803 2.6686188e-39
-1.2236723 1.1679271 -0.86408651 3.1252809e-39
-1.2232361 1.1744094 -0.86105376 2.7579389e-39
-1.223987 1.1792194 -0.85771048 2.6682671e-39
-1.225044 1.1907481 -0.8504523 3.4025867e-39
-1.2256297 1.1956518 -0.84722698 2.8490556e-39
-1.2251142 1.1965075 -0.84729218 2.0225333e-39
-1.2268676 1.2027454 -0.84216321 1.9299803e-39
-1.2258844 1.2076961 -0.8405084 1.9335691e-39
-1.2272052 1.2131416 -0.83624434 2.7597396e-39
-1.2267568 1.2229667 -0.83143145 3.0345188e-39
-1.2256885 1.2259185 -0.8309353 2.9434022e-39
-1.228263 1.2314069 -0.82537264 3.21855e-39
-1.2273564 1.2384363 -0.8225252 3.4036629e-39
-1.2285067 1.2482799 -0.81607616 3.3103869e-39
-1.2285959 1.2507284 -0.81467235 3.773537e-39
-1.2301664 1.2698009 -0.80284595 3.4951312e-39
-1.2212034 1.094565 -0.90594155 1.0221086e-38
-1.224106 1.1015986 -0.89921713 5.9836734e-39
-1.2230302 1.1053919 -0.8982771 6.1655563e-39
-1.2215693 1.1094781 -0.89757156 5.4301479e-39
-1.224449 1.1129456 -0.89278257 4.6936702e-39
-1.22442 1.1203383 -0.88884741 3.6798798e-39
-1.2239785 1.1266214 -0.88592696 3.2199933e-39
-1.2238469 1.1344957 -0.8818379 4.324536e-39
-1.2254485 1.1403091 -0.87709105 4.7851568e-39
-1.2241274 1.1432055 -0.87688172 3.2217954e-39
-1.2263316 1.1484562 -0.87182349 2.9423274e-39
-1.2259893 1.151734 -0.87041372 1.6548368e-39
-1.2281572 1.1580247 -0.8648349 2.7579389e-39
-1.2278687 1.1652004 -0.86128014 2.7579389e-39
-1.228338 1.1733137 -0.85645151 2.3905956e-39
-1.2280761 1.1807208 -0.85274553 2.5760644e-39
-1.2293277 1.1877649 -0.84769464 2.9430491e-39
-1.2292651 1.1933095 -0.84478486 3.1263585e-39
-1.228273 1.196134 -0.84427929 2.6668237e-39
-1.2298589 1.2032255 -0.8388629 1.4693707e-39
-1.2292922 1.2101129 -0.83574587 2.5764189e-39
-1.2318745 1.2166984 -0.82958728 1.5629999e-39
-1.231504 1.2175611 -0.82950145 1.3782527e-39
-1.2306645 1.2241573 -0.82681805 3.0334454e-39
-1.2319698 1.2285835 -0.82311612 3.3139812e-39
-1.2312346 1.232625 -0.82169682 2.7611661e-39
-1.2326959 1.2415535 -0.81542194 2.7600955e-39
-1.2326223 1.2504468 -0.81072736 3.0363195e-39
-1.2320714 1.2533139 -0.80975014 3.0341629e-39
-1.2351545 1.2620347 -0.80193704 2.5760644e-39
-1.2367734 1.2669656 -0.79764563 3.4050894e-39
-1.2285759 1.0937899 -0.89885789 7.6450178e-39
-1.2271479 1.0970857 -0.89854282 5.2446916e-39
-1.2263476 1.1025046 -0.89645088 8.1960252e-39
-1.2258699 1.1038396 -0.89622086 4.694036e-39
-1.2271689 1.1122409 -0.89039397 4.5117999e-39
-1.2261612 1.1123892 -0.8913393 2.6675412e-39
-1.2289416 1.1183892 -0.88529336 3.5880499e-39
-1.2285573 1.1292102 -0.87988096 2.482794e-39
-1.2277199 1.1354089 -0.8774085 2.9423372e-39
-1.2299453 1.1398649 -0.87275493 3.4036629e-39
-1.2301601 1.1449398 -0.86981487 3.2189143e-39
-1.2295029 1.1521584 -0.86661208 3.0345202e-39
-1.2330079 1.1584055 -0.85969639 2.390597e-39
-1.2327938 1.1660087 -0.85583651 2.9408897e-39
-1.233193 1.173717 -0.85129648 2.2069218e-39
-1.2326376 1.1797583 -0.84862167 2.5753442e-39
-1.2341781 1.183792 -0.84489143 2.7604529e-39
-1.2342343 1.1886399 -0.84223425 3.1270788e-39
-1.2339828 1.1931072 -0.84009433 2.7561439e-39
-1.2342147 1.2007052 -0.8357836 2.1140171e-39
-1.2335316 1.206031 -0.83362234 2.576063e-39
-1.2331781 1.2096326 -0.83205056 4.049391e-39
-1.2368991 1.216534 -0.82456392 1.7452332e-39
-1.2365594 1.2211804 -0.82241786 1.9292643e-39
-1.236135 1.227918 -0.81923628 3.4043719e-39
-1.2355762 1.2341245 -0.81647599 2.4831471e-39
-1.2374699 1.2412051 -0.81075251 2.0228934e-39
-1.2372137 1.2470946 -0.80785465 2.2079994e-39
-1.236877 1.2538406 -0.8045795 2.5753399e-39
-1.2413698 1.2559615 -0.79887164 2.9430435e-39
-1.2410142 1.2633094 -0.79529285 2.6678957e-39
-1.2406591 1.2706918 -0.79169494 2.6686132e-39
-1.2405413 1.2796332 -0.78701937 2.3927494e-39
-1.2407297 1.2865292 -0.78312945 2.7608074e-39
-1.2420456 1.294075 -0.77774411 3.0352349e-39
-1.2023116 1.0995197 -0.92250174 8.279188e-39
-1.2068572 1.1036725 -0.91565067 6.0708285e-39
-1.2060893 1.1071417 -0.9145714 5.9815042e-39
-1.2118659 1.0805153 -0.92297488 1.4735794e-38
-1.2109621 1.1055927 -0.91044521 4.785849e-39
-1.2106118 1.1112738 -0.90775484 7.9201473e-39
-1.2112056 1.1531767 -0.88467854 3.4937005e-39
-1.2158351 1.1040436 -0.90631932 9.2976784e-39
-1.2149698 1.1072205 -0.90549576 7.1786264e-39
-1.215116 1.1137937 -0.90182161 3.4022209e-39
-1.2151421 1.1352133 -0.8903079 2.7629738e-39
-1.2149305 1.1433036 -0.88618422 4.3241674e-39
-1.2210598 1.0753324 -0.9164021 1.5014914e-38
-1.2198154 1.10568 -0.90139276 6.4410404e-39
-1.2188388 1.2027521 -0.85032666 2.7572215e-39
-1.2260542 1.0815431 -0.90799099 1.3543753e-38
-1.2246608 1.1041396 -0.89728987 6.0773333e-39
-1.2302028 1.0913008 -0.89853752 7.1833082e-39
-1.2297769 1.0966114 -0.89612293 7.7332576e-39
-1.2303513 1.1068963 -0.89002287 6.7169434e-39
-1.2292508 1.111631 -0.88860315 4.8780517e-39
-1.2266098 1.2186288 -0.83390737 2.205491e-39
-1.2350484 1.0897604 -0.89443469 5.9826168e-39
-1.2357914 1.09972 -0.88833755 3.8596132e-39
-1.2336854 1.1012868 -0.88963974 2.4849394e-39
-1.234419 1.1102512 -0.88408589 4.3263226e-39
-1.2339008 1.1171819 -0.88089609 4.048305e-39
-1.2340716 1.1240263 -0.87705171 2.8497702e-39
-1.2334373 1.1305397 -0.87420386 2.7579347e-39
-1.235739 1.1356204 -0.86913759 3.219273e-39
-1.235103 1.1446919 -0.86491978 2.4831499e-39
-1.2343127 1.150432 -0.86264539 2.3913102e-39
-1.23965 1.0804427 -0.89475101 3.9604058e-39
-1.241069 1.0873499 -0.88960314 5.0635374e-39
-1.2395457 1.0938691 -0.88765669 3.6773659e-39
-1.240364 1.1011569 -0.8829155 6.4284847e-40
-1.2391164 1.1047336 -0.8822667 3.1303088e-39
-1.2393479 1.1139435 -0.87709183 4.692587e-39
-1.2390054 1.1183954 -0.87505275 3.4018622e-39
-1.2385049 1.1254207 -0.87179416 2.1150863e-39
-1.2383001 1.1335342 -0.86765158 2.2072805e-39
-1.2397994 1.1399233 -0.86269975 2.4835045e-39
-1.239496 1.1478097 -0.85877907 2.757576e-39
-1.2395446 1.1543208 -0.85523766 2.1140101e-39
-1.2389777 1.1610771 -0.85219079 2.482787e-39
-1.2384353 1.1679692 -0.84904647 2.2065658e-39
-1.2379118 1.1752228 -0.84568906 2.6653846e-39
-1.2381275 1.182446 -0.84159577 3.2185514e-39
-1.2394367 1.1888872 -0.83680964 3.1270732e-39
-1.2388821 1.1991991 -0.83184367 1.9307006e-39
-1.2464453 1.0773162 -0.88951522 2.1122164e-39
-1.2454855 1.0848491 -0.8864516 5.6138245e-39
-1.2448378 1.0905641 -0.88404578 4.3187808e-39
-1.2438241 1.0968959 -0.88168097 2.0236137e-39
-1.2439883 1.1043851 -0.87749785 3.7724384e-39
-1.2431271 1.1096402 -0.87555534 3.5894765e-39
-1.2435735 1.117476 -0.8708989 2.8537205e-39
-1.2428715 1.12357 -0.8683449 1.8388623e-39
-1.2433816 1.131809 -0.86340749 2.3905928e-39
-1.2447629 1.1384439 -0.85844409 2.3913102e-39
-1.2451619 1.1461488 -0.85390615 2.7572173e-39
-1.244602 1.1528846 -0.85086358 2.5735463e-39
-1.243801 1.160832 -0.84741598 2.8504905e-39
-1.2430822 1.1670659 -0.84480393 3.2167563e-39
-1.2433581 1.1746684 -0.84044617 3.0327252e-39
-1.2447025 1.1810783 -0.83564097 3.3111001e-39
-1.2438966 1.1906298 -0.83133823 4.414568e-39
-1.2441283 1.1956664 -0.82840145 2.7575788e-39
-1.2437463 1.2030895 -0.82480925 1.4693679e-39
-1.2427146 1.2070582 -0.82373041 3.4054495e-39
-1.2423934 1.2150143 -0.81979036 1.8374274e-39
-1.2417167 1.2209767 -0.81728083 2.6643056e-39
-1.241362 1.2284707 -0.81362283 4.5975215e-39
-1.2433664 1.2326136 -0.80936205 3.1263557e-39
-1.242695 1.2419596 -0.80503279 2.2984069e-39
-1.2421266 1.2491232 -0.80176914 3.0355992e-39
-1.2484276 1.1089678 -0.87052411 3.6813204e-39
-1.2485284 1.1180053 -0.8655749 4.1365518e-39
-1.248126 1.1224933 -0.86357731 2.2062071e-39
-1.2497567 1.1299582 -0.85791516 2.3920305e-39
-1.2499833 1.1369441 -0.85393828 2.9426847e-39
-1.2495507 1.144172 -0.85050207 2.6657405e-39
-1.2493347 1.152414 -0.84630167 2.8490542e-39
-1.2488056 1.1592818 -0.84315646 3.1263529e-39
-1.2484154 1.1670468 -0.83938932 4.2298208e-39
-1.248217 1.1722184 -0.83681738 3.5851787e-39
-1.2495466 1.1808629 -0.83082873 3.1281466e-39
-1.2468351 1.187236 -0.83016956 3.3103869e-39
-1.2489603 1.193992 -0.82438445 2.2062071e-39
-1.24866 1.2016152 -0.8206014 2.2969636e-39
-1.2479826 1.2075778 -0.81809288 3.588773e-39
-1.2473052 1.2135403 -0.8155843 3.1274459e-39
-1.2466277 1.2195033 -0.81307554 3.7677665e-39
-1.2457767 1.2241501 -0.81144923 4.1379923e-39
-1.2480097 1.2322872 -0.80481368 3.6784519e-39
-1.2476345 1.2394562 -0.80135053 2.5753442e-39
-1.2478791 1.2470281 -0.797041 2.7608102e-39
-1.2470759 1.2529359 -0.79468971 3.1270732e-39
-1.2463628 1.2619658 -0.79057252 2.5760588e-39
-1.2458606 1.2698262 -0.78686786 2.6682544e-39
-1.2461064 1.2774354 -0.7825371 2.9434078e-39
-1.2453674 1.2840433 -0.7797451 3.2189101e-39
-1.2467982 1.2914521 -0.77431649 3.5851759e-39
-1.2536275 1.1096574 -0.86486489 4.7869463e-39
-1.2532979 1.1165702 -0.86149287 3.5830193e-39
-1.2527066 1.1215984 -0.85939771 2.3891578e-39
-1.2550701 1.1289476 -0.8530522 2.6675398e-39
-1.2546035 1.1360521 -0.84971678 3.2185556e-39
-1.2538959 1.1422261 -0.84712535 3.3093135e-39
-1.2536371 1.1501178 -0.84315628 3.4022224e-39
-1.2530884 1.1568563 -0.84010071 3.4015049e-39
-1.2527956 1.1647279 -0.83617705 3.5851759e-39
-1.2527977 1.1708704 -0.83288068 3.308589e-39
-1.2551332 1.178207 -0.82657057 2.8515667e-39
-1.2546699 1.1856579 -0.82304591 2.8504919e-39
-1.2542516 1.1941785 -0.81890172 2.8497744e-39
-1.2542372 1.19935 -0.81614316 2.1140101e-39
-1.2528549 1.20521 -0.81440657 3.496213e-39
-1.2520345 1.2110733 -0.81209648 2.2080022e-39
-1.2512145 1.2169368 -0.80978608 2.2076392e-39
-1.2512296 1.2231948 -0.80641443 3.3118176e-39
-1.252315 1.2285265 -0.80245113 2.3920277e-39
-1.2528589 1.2372689 -0.79720938 2.5735463e-39
-1.2525506 1.2456599 -0.79302287 2.6682544e-39
-1.2519907 1.2528313 -0.7897464 2.5760588e-39
-1.2513026 1.259451 -0.78689629 2.6664608e-39
-1.2508405 1.2672808 -0.783167 3.3107484e-39
-1.2510775 1.2748981 -0.77884108 3.0352419e-39
-1.2534144 1.2826799 -0.77229065 3.5858933e-39
-1.2594006 1.1272429 -0.84956145 3.7702874e-39
-1.2591379 1.1326956 -0.8469044 3.4029426e-39
-1.2584224 1.14091 -0.84322655 3.0341587e-39
-1.2583344 1.1464783 -0.84033 3.2181954e-39
-1.2582014 1.1548949 -0.83595151 3.0345202e-39
-1.2578932 1.1626359 -0.83211362 3.3093079e-39
-1.2576356 1.1706456 -0.82808006 2.7579347e-39
-1.2601013 1.1784465 -0.8213883 2.3923892e-39
-1.2593932 1.1848385 -0.81868064 2.4835073e-39
-1.259165 1.1927053 -0.81469387 2.7590151e-39
-1.2588674 1.1979877 -0.81216365 2.2980398e-39
-1.2577578 1.202713 -0.81075817 3.3132651e-39
-1.2569354 1.2085762 -0.8084504 2.3920361e-39
-1.2566751 1.2159835 -0.80474252 2.3923864e-39
-1.2558507 1.2218511 -0.80243456 3.03703e-39
-1.2569364 1.2271814 -0.79847133 2.1147275e-39
-1.2572253 1.2347056 -0.79414254 3.1245593e-39
-1.2570314 1.243596 -0.78957182 3.4025825e-39
-1.2564787 1.2507486 -0.78629804 3.5858961e-39
-1.2571524 1.2602434 -0.7805208 3.5858961e-39
-1.25659 1.2674685 -0.77721786 3.3114659e-39
-1.2559993 1.2747567 -0.77391046 3.0355978e-39
-1.2582539 1.2819195 -0.76777548 3.5862521e-39
-1.2580544 1.2913643 -0.76291329 3.6777316e-39
-1.2635386 1.1456177 -0.83549768 2.4842247e-39
-1.2629972 1.1545553 -0.83125526 2.6671782e-39
-1.2627308 1.1624085 -0.82731456 2.6653818e-39
-1.263046 1.1695786 -0.82314873 2.296965e-39
-1.264528 1.1765363 -0.81790972 2.3909543e-39
-1.2647581 1.1852691 -0.81299233 3.1277949e-39
-1.2641395 1.1901871 -0.81098419 2.2991188e-39
-1.2633972 1.1971965 -0.80798012 2.7582935e-39
-1.2627168 1.20316 -0.80547392 3.5902009e-39
-1.2615482 1.2072246 -0.80448312 2.8497772e-39
-1.2604303 1.2119205 -0.80310178 3.2185472e-39
-1.2606418 1.2187581 -0.79921967 4.2316145e-39
-1.2625915 1.2244788 -0.79416841 3.6791652e-39
-1.2620354 1.2315878 -0.79092163 4.0461512e-39
-1.2614174 1.2409904 -0.78650755 3.9557507e-39
-1.2623156 1.2486094 -0.78150779 4.2312571e-39
-1.2619617 1.259495 -0.77603 4.4152897e-39
-1.2616682 1.2680085 -0.77176279 3.6798896e-39
-1.2607102 1.2733786 -0.76985723 3.6798868e-39
-1.2635972 1.2811252 -0.76276594 4.3227395e-39
-1.2635357 1.2862256 -0.76009333 4.2298264e-39
-1.2677721 1.1610997 -0.82288831 3.5833822e-39
-1.2678506 1.1697764 -0.81815505 2.8483367e-39
-1.2679734 1.1699324 -0.81794655 2.758655e-39
-1.2701747 1.1807215 -0.80992103 4.229825e-39
-1.2694933 1.1866854 -0.8074159 3.5862563e-39
-1.2691994 1.1940719 -0.80375355 2.9437581e-39
-1.26791 1.197541 -0.80320472 3.5862521e-39
-1.2678404 1.203225 -0.80022728 2.6650273e-39
-1.2665843 1.2073704 -0.7992819 2.3877229e-39
-1.2653694 1.217991 -0.79482186 4.7837219e-39
-1.2668009 1.2222112 -0.79110241 3.494418e-39
-1.2675201 1.2293082 -0.78656495 4.5985977e-39
-1.2667514 1.2360195 -0.78374761 4.0468729e-39
-1.2675053 1.2454195 -0.77793938 3.864634e-39
-1.2670814 1.2531991 -0.77419853 4.2319774e-39
-1.2669289 1.2622944 -0.76947576 4.0493798e-39
-1.2663548 1.2695761 -0.76615477 4.4152911e-39
-1.2669076 1.2780312 -0.76105797 4.1401391e-39
-1.268285 1.2848221 -0.75601488 4.1383427e-39
-1.2725124 1.1707675 -0.81288159 3.217115e-39
-1.2750884 1.1792408 -0.80571687 4.4142135e-39
-1.2744058 1.1852053 -0.80321258 3.5858975e-39
-1.2737232 1.1911697 -0.80070812 4.0447121e-39
-1.2734052 1.1964973 -0.79817468 4.2301852e-39
-1.2725711 1.202374 -0.7958715 2.7550677e-39
-1.2713141 1.2066016 -0.79488271 2.6650231e-39
