# .PCD v0.7 - Point Cloud Data file format
VERSION 0.7
FIELDS x y z rgb
SIZE 4 4 4 4
TYPE F F F F
COUNT 1 1 1 1
WIDTH 1049
HEIGHT 1
VIEWPOINT 0 0 0 1 0 0 0
POINTS 1049
DATA ascii
-1.5992181 1.7108058 -2.0187242 7.8369817e-39
-1.6054665 1.6808286 -2.0220633 7.6543883e-39
-1.6049728 1.6897018 -2.0182247 7.8369817e-39
-1.6044792 1.6985749 -2.0143859 7.8369817e-39
-1.6039855 1.7074479 -2.0105472 7.8373348e-39
-1.6191159 1.6126961 -2.0308118 8.0210198e-39
-1.6186262 1.6214974 -2.0270042 7.8366285e-39
-1.6112211 1.6597246 -2.0215633 7.9288242e-39
-1.6092466 1.6952168 -2.0062089 7.8369817e-39
-1.6087531 1.7040899 -2.0023701 7.6543883e-39
-1.6238449 1.6093651 -2.0227008 8.0210198e-39
-1.6233554 1.6181666 -2.0188932 8.0210198e-39
-1.619769 1.6707549 -1.9975321 7.8369817e-39
-1.6192753 1.6796278 -1.9936935 7.9295304e-39
-1.62503 1.6585238 -1.9931937 7.9295304e-39
-1.6240425 1.6762699 -1.9855164 7.9291773e-39
-1.637542 1.6081741 -1.99456 7.7465839e-39
-1.6297973 1.6551659 -1.9850168 7.9291773e-39
-1.6293037 1.6640389 -1.9811782 7.9291773e-39
-1.6288099 1.672912 -1.9773394 7.9295304e-39
-1.6427606 1.5960419 -1.9902568 8.1132154e-39
-1.6340712 1.6606809 -1.9730009 8.0213729e-39
-1.6335777 1.669554 -1.9691622 8.0217261e-39
-1.647 1.6015124 -1.9783384 8.1139217e-39
-1.6465104 1.6103139 -1.9745307 8.2979542e-39
-1.6450415 1.6367179 -1.9631077 8.2050383e-39
-1.6388386 1.657323 -1.964824 8.2050383e-39
-1.6383451 1.666196 -1.9609853 8.0217261e-39
-1.6378515 1.6750692 -1.9571466 7.9295304e-39
-1.6502602 1.6245859 -1.9588044 8.0213729e-39
-1.6497704 1.6333871 -1.9549968 8.0213729e-39
-1.6492807 1.6421884 -1.951189 8.0210198e-39
-1.6421251 1.6805844 -1.9451308 8.0213729e-39
-1.429926 1.9677159 -2.2334321 7.0086657e-39
-1.4365395 1.9709882 -2.2177303 9.7752381e-39
-1.4360423 1.9799297 -2.2138619 5.1672292e-39
-1.4461477 1.9642204 -2.2012501 1.0327315e-38
-1.4456505 1.9731619 -2.197382 4.4289607e-39
-1.4509522 1.9608366 -2.1930101 9.6819831e-39
-1.4504547 1.9697781 -2.1891418 4.3396434e-39
-1.4557564 1.9574528 -2.1847699 9.4060968e-39
-1.4552588 1.9663943 -2.1809015 3.694274e-39
-1.4605607 1.954069 -2.1765299 1.0234062e-38
-1.4600631 1.9630103 -2.1726615 4.0601852e-39
-1.4653651 1.9506851 -2.1682897 9.7737905e-39
-1.4648675 1.9596266 -2.1644211 4.152734e-39
-1.4701691 1.9473013 -2.1600494 1.041881e-38
-1.4696717 1.9562428 -2.1561811 4.5218598e-39
-1.4749732 1.9439175 -2.1518092 9.9585349e-39
-1.4744761 1.952859 -2.1479414 4.4286076e-39
-1.4792799 1.949475 -2.1397011 4.6133534e-39
-1.42458 1.9801444 -2.2378404 1.0050736e-38
-1.4210693 2.0432591 -2.2105355 4.7055546e-39
-1.420066 2.0612922 -2.2027342 6.4565485e-39
-1.4259133 2.0398469 -2.2022266 3.875787e-39
-1.4249102 2.0578799 -2.1944251 6.6391419e-39
-1.4345992 2.0510554 -2.1778069 6.6391419e-39
-1.4340976 2.0600719 -2.1739061 7.6557924e-39
-1.4389421 2.0566599 -2.165597 7.5639849e-39
-1.469999 2.0333323 -2.1131268 7.65364e-39
-1.4748033 2.0299482 -2.1048865 7.7465839e-39
-1.4205673 2.0522757 -2.206635 4.2438758e-39
-1.4254118 2.0488634 -2.1983259 3.7825376e-39
-1.430758 2.0364349 -2.1939173 4.9792633e-39
-1.4302564 2.0454514 -2.1900165 4.3331946e-39
-1.4351007 2.0420392 -2.1817074 4.7019771e-39
-1.2571373 1.4474462 -2.882606 1.1809303e-38
-1.2593704 1.4642228 -2.8686917 1.3095702e-38
-1.2604867 1.4726111 -2.8617346 1.25436e-38
-1.2595959 1.4454449 -2.8785372 1.1164268e-38
-1.2716478 1.463534 -2.8432593 6.9250447e-39
-1.2749681 1.4884796 -2.8225696 4.7141866e-39
-1.2820562 1.5011426 -2.8007095 2.3508809e-38
-1.2968919 1.6847039 -2.6686409 2.341805e-38
-1.2916553 1.483809 -2.7900558 2.8663266e-39
-1.2968796 1.4339507 -2.8064737 4.8024194e-39
-1.294072 1.4818419 -2.7860563 5.8183636e-39
-1.2951692 1.4900869 -2.779218 5.8162126e-39
-1.2880373 1.5054904 -2.7857461 5.0800951e-39
-1.2973642 1.5065768 -2.7655416 4.8903116e-39
-1.2973431 1.6471484 -2.6883321 1.8812617e-38
-1.2984594 1.6555367 -2.6813748 1.9273591e-38
-1.3599783 2.0459807 -2.3374689 1.0141147e-38
-1.3542854 2.0749526 -2.3335152 7.0072154e-39
-1.3621011 2.1336708 -2.2848148 1.4934989e-38
-1.2899038 1.4304053 -2.8230867 7.9388799e-39
-1.2920988 1.4468952 -2.8094101 8.5835318e-39
-1.3014516 1.4483498 -2.7889485 9.1359741e-39
-1.2986832 1.496365 -2.7683806 9.8756804e-39
-1.2997806 1.5046099 -2.7615423 1.0696078e-38
-1.3019756 1.5210998 -2.7478657 6.8246444e-39
-1.3004357 1.5783437 -2.7196434 1.6785761e-38
-1.3015424 1.586659 -2.7127469 1.6510616e-38
-1.3026491 1.5949742 -2.7058504 1.6695363e-38
-1.2998016 1.6451473 -2.6842632 1.9367235e-38
-1.3433458 1.9722918 -2.4129326 1.4752039e-38
-1.3646293 2.0606272 -2.3196423 7.4671496e-39
-1.3657359 2.0689425 -2.3127458 9.9567805e-39
-1.3712698 2.1105187 -2.2782629 8.1154015e-39
-1.3723767 2.1188338 -2.2713664 1.3554221e-38
-1.2912232 1.4201934 -2.8259258 9.9646432e-39
-1.3005836 1.4218756 -2.8053231 9.2288788e-39
-1.2934178 1.4366832 -2.8122492 9.2296019e-39
-1.3027598 1.4382249 -2.7917631 9.5980187e-39
-1.3049356 1.4545743 -2.7782032 1.0057923e-38
-1.3082001 1.4790983 -2.757863 9.2285257e-39
-1.3010999 1.494398 -2.7643812 8.6768037e-39
-1.3021975 1.5026429 -2.7575431 6.9186155e-39
-1.3032948 1.510888 -2.7507048 5.6304004e-39
-1.2962321 1.5264688 -2.7569895 7.006142e-39
-1.2973388 1.534784 -2.750093 1.4757064e-38
-1.3028729 1.57636 -2.71561 1.6788297e-38
-1.3039798 1.5846753 -2.7087135 1.7158874e-38
-1.3050865 1.5929906 -2.701817 1.844709e-38
-1.306193 1.6013057 -2.6949205 1.8724034e-38
-1.3073001 1.6096209 -2.6880238 1.9092813e-38
-1.3084067 1.6179363 -2.6811273 2.0012962e-38
-1.3095134 1.6262515 -2.6742306 2.1027099e-38
-1.3022604 1.6431462 -2.6801941 2.1762859e-38
-1.3033769 1.6515344 -2.6732368 2.2591531e-38
-1.3150474 1.6678277 -2.6397476 2.2220601e-38
-1.3161542 1.6761429 -2.6328514 2.0098647e-38
-1.3413382 1.9367374 -2.4366925 1.5398844e-38
-1.3435713 1.953514 -2.4227781 1.5121182e-38
-1.3446878 1.9619021 -2.4158208 1.4752395e-38
-1.3458043 1.9702905 -2.4088635 1.4383614e-38
-1.3469211 1.9786791 -2.4019065 1.429142e-38
-1.3480374 1.9870672 -2.3949492 1.4014474e-38
-1.3491539 1.9954555 -2.3879921 1.3461656e-38
-1.3502704 2.0038438 -2.3810351 1.3461656e-38
-1.3513867 2.0122323 -2.3740778 1.3369461e-38
-1.3648528 2.0420132 -2.3294022 1.1984728e-38
-1.3737071 2.1085348 -2.2742295 8.1132182e-39
-1.3748139 2.1168501 -2.267333 1.3275467e-38
-1.3101428 1.405275 -2.7943492 9.1374063e-39
-1.3040676 1.4281001 -2.7945778 9.5051126e-39
-1.3051554 1.4362749 -2.7877979 9.9642929e-39
-1.3105958 1.4771482 -2.7538981 7.6673138e-39
-1.3035164 1.492431 -2.7603819 6.1014301e-39
-1.3046141 1.500676 -2.7535436 5.2644892e-39
-1.3042032 1.5660611 -2.7184734 1.844853e-38
-1.3053102 1.5743765 -2.7115767 1.9830009e-38
-1.3064166 1.5826917 -2.7046802 2.0844145e-38
-1.3075234 1.5910069 -2.6977837 2.0844145e-38
-1.3086302 1.5993221 -2.690887 2.0934187e-38
-1.3097371 1.6076372 -2.6839902 2.240786e-38
-1.3108439 1.6159526 -2.6770937 2.3509886e-38
-1.3119506 1.6242678 -2.6701972 2.3509886e-38
-1.3130577 1.6325831 -2.6633008 2.3509886e-38
-1.3141645 1.6408982 -2.656404 2.3509886e-38
-1.3152711 1.6492136 -2.6495078 2.3509886e-38
-1.3163776 1.6575289 -2.642611 2.0283755e-38
-1.3174846 1.665844 -2.6357145 1.9457941e-38
-1.3265628 1.6655751 -2.6167779 1.2551168e-38
-1.3276598 1.67382 -2.6099396 1.5123323e-38
-1.3529013 1.9319313 -2.415024 1.5305213e-38
-1.3540084 1.9402465 -2.4081278 1.4661997e-38
-1.3551153 1.9485618 -2.4012311 1.4476166e-38
-1.3573288 1.9651923 -2.3874378 1.3738964e-38
-1.3584356 1.9735075 -2.3805413 1.3738247e-38
-1.3595425 1.9818228 -2.3736446 1.3553496e-38
-1.3606493 1.9901379 -2.3667481 1.3369461e-38
-1.361756 1.9984531 -2.3598518 1.3000678e-38
-1.385824 2.1108024 -2.2475107 1.2816281e-38
-1.3108159 1.4588487 -2.7634928 9.0509938e-39
-1.3119038 1.4670234 -2.7567127 9.9758396e-39
-1.3151681 1.4915473 -2.7363727 8.0375677e-39
-1.3162563 1.499722 -2.7295926 5.7265183e-39
-1.3188149 1.655545 -2.6385775 2.0194806e-38
-1.3278819 1.6553633 -2.619617 1.7154498e-38
-1.3289791 1.6636081 -2.6127787 1.4941107e-38
-1.3575524 1.946578 -2.3971977 1.4383964e-38
-1.3586594 1.9548934 -2.390301 1.4107026e-38
-1.3597661 1.9632086 -2.3834045 1.3830443e-38
-1.360873 1.9715239 -2.3765078 1.3554205e-38
-1.3619796 1.979839 -2.3696113 1.3185071e-38
-1.3630862 1.9881543 -2.3627148 1.3459505e-38
-1.3641933 1.9964695 -2.3558183 1.3000325e-38
-1.3652999 2.0047848 -2.3489215 1.2908483e-38
-1.3882402 2.1088355 -2.2435114 1.2909555e-38
-1.3202875 1.4419303 -2.7528787 1.0980981e-38
-1.3213662 1.4500345 -2.7461567 1.4852844e-38
-1.3142997 1.4650731 -2.7527475 1.430651e-38
-1.317564 1.4895972 -2.7324076 1.2738839e-38
-1.3186523 1.4977719 -2.7256274 1.23632e-38
-1.3127396 1.521477 -2.7250299 1.1619543e-38
-1.3149343 1.5379668 -2.7113535 1.8717553e-38
-1.3160316 1.5462118 -2.7045152 2.3509886e-38
-1.3654159 1.9172347 -2.3967927 1.4659846e-38
-1.3599898 1.9445943 -2.3931642 1.4199584e-38
-1.3610966 1.9529096 -2.3862677 1.3738245e-38
-1.3622032 1.9612249 -2.3793709 1.3185793e-38
-1.3709033 1.9584596 -2.362601 1.3369105e-38
-1.3720009 1.9667045 -2.3557625 1.3459505e-38
-1.3655236 1.9861704 -2.3586812 1.299888e-38
-1.3666303 1.9944857 -2.3517849 1.2724086e-38
-1.3677372 2.0028009 -2.3448882 1.2539701e-38
-1.3294106 1.425454 -2.742754 1.6041301e-38
-1.3226628 1.4399967 -2.7489474 1.0983893e-38
-1.3338122 1.6596742 -2.60478 1.8993396e-38
-1.3349098 1.6679193 -2.5979416 1.8718607e-38
-1.336007 1.676164 -2.5911033 1.8810449e-38
-1.3371047 1.684409 -2.584265 1.8257631e-38
-1.338202 1.692654 -2.5774269 1.8257628e-38
-1.3392994 1.700899 -2.5705886 1.8073234e-38
-1.340397 1.709144 -2.56375 1.8072881e-38
-1.3491454 1.8428278 -2.4718895 1.5951308e-38
-1.3546792 1.8844041 -2.4374068 1.5121545e-38
-1.3557861 1.8927193 -2.43051 1.4846393e-38
-1.3645403 1.890533 -2.4133081 1.4936789e-38
-1.3667352 1.9070228 -2.3996315 1.447581e-38
-1.3613199 1.9342954 -2.3960273 1.4016628e-38
-1.3624268 1.9426106 -2.3891308 1.3923358e-38
-1.3635336 1.9509259 -2.3822341 1.3738247e-38
-1.3646405 1.9592412 -2.3753376 1.337054e-38
-1.3657471 1.9675564 -2.3684411 1.3092875e-38
-1.3668542 1.9758717 -2.3615444 1.3091076e-38
-1.3679607 1.9841868 -2.3546481 1.2540055e-38
-1.3690678 1.9925021 -2.3477511 1.2539701e-38
-1.3941711 2.1131465 -2.2286744 1.2357108e-38
-1.3239597 1.4299589 -2.7517378 1.6231453e-38
-1.3245322 1.5020462 -2.710917 1.6236138e-38
-1.3362287 1.6577073 -2.6007807 1.899447e-38
-1.3462938 1.6655396 -2.5753171 1.8257278e-38
-1.3484697 1.6818891 -2.5617571 1.8072887e-38
-1.351734 1.706413 -2.5414171 1.751971e-38
-1.3581774 1.8226064 -2.4640148 1.5951308e-38
-1.3515826 1.8408442 -2.4678562 1.5215543e-38
-1.3560097 1.8741051 -2.4402699 1.5305216e-38
-1.3691519 1.9050558 -2.395632 1.4201021e-38
-1.3626504 1.9239966 -2.3988905 1.4016628e-38
-1.363757 1.9323117 -2.391994 1.3831878e-38
-1.364864 1.940627 -2.3850975 1.383044e-38
-1.3659708 1.9489422 -2.3782008 1.364605e-38
-1.3670777 1.9572574 -2.371304 1.3185071e-38
-1.3681843 1.9655727 -2.3644075 1.2908836e-38
-1.3692912 1.9738879 -2.3575108 1.2724086e-38
-1.370398 1.9822031 -2.3506145 1.2447859e-38
-1.3715047 1.9905183 -2.3437181 1.2263466e-38
-1.3726113 1.9988335 -2.3368213 1.2170918e-38
-1.3681459 2.0357797 -2.3259046 1.1525896e-38
-1.3974333 2.0497496 -2.2566571 9.1273702e-39
-1.3263351 1.4280255 -2.7478068 1.5313845e-38
-1.3274136 1.4361299 -2.7410853 3.7886402e-39
-1.3284925 1.4442344 -2.7343633 4.7184648e-39
-1.3465136 1.64724 -2.5849121 1.9455444e-38
-1.3476018 1.6554148 -2.5781319 1.7612628e-38
-1.3486898 1.6635895 -2.5713518 1.7795943e-38
-1.3497776 1.6717643 -2.5645721 1.7703744e-38
-1.3508658 1.6799389 -2.5577919 1.7703741e-38
-1.351954 1.6881136 -2.5510118 1.7703025e-38
-1.353042 1.6962882 -2.5442319 1.7427517e-38
-1.357302 1.7959045 -2.4805305 1.5584324e-38
-1.3583992 1.8041495 -2.4736922 1.5492128e-38
-1.3594965 1.8123944 -2.4668539 1.5492128e-38
-1.3605943 1.8206395 -2.4600155 1.539849e-38
-1.3627889 1.8371295 -2.4463389 1.5214099e-38
-1.3769796 1.8761313 -2.395072 1.4108825e-38
-1.3715683 1.9030889 -2.3916328 1.4015556e-38
-1.3650877 1.9220127 -2.3948569 1.3831162e-38
-1.3661946 1.930328 -2.3879604 1.3646768e-38
-1.3673012 1.9386432 -2.3810639 1.3461656e-38
-1.3684081 1.9469584 -2.3741672 1.3369105e-38
-1.3695147 1.9552736 -2.3672707 1.3183272e-38
-1.3706214 1.9635891 -2.3603742 1.2816281e-38
-1.3792503 1.9608036 -2.3437648 1.2540055e-38
-1.3728353 1.9802192 -2.346581 1.2355662e-38
-1.373942 1.9885346 -2.3396845 1.2263113e-38
-1.3750489 1.9968499 -2.332788 1.2261315e-38
-1.3706046 2.0337787 -2.3218358 1.1985082e-38
-1.3990041 2.1092126 -2.2206757 1.1709939e-38
-1.4147902 2.0925863 -2.1966267 1.2630804e-38
-1.3489094 1.64529 -2.5809467 2.0101891e-38
-1.3599931 1.6611197 -2.5489461 1.7060174e-38
-1.3630108 1.8186725 -2.4560161 1.5121545e-38
-1.3739351 1.8333075 -2.4250069 1.4569446e-38
-1.3782876 1.8660064 -2.3978868 1.4292137e-38
-1.3793757 1.8741809 -2.3911068 1.3924076e-38
-1.3815517 1.8905303 -2.377547 1.3738964e-38
-1.3750823 1.909367 -2.3807952 1.3554571e-38
-1.3761799 1.9176118 -2.3739569 1.3461656e-38
-1.3697385 1.9366595 -2.3770304 1.3185071e-38
-1.3708453 1.9449748 -2.3701339 1.3092875e-38
-1.3719519 1.95329 -2.3632371 1.2908483e-38
-1.3805695 1.9505918 -2.3466036 1.2540055e-38
-1.3816669 1.9588368 -2.3397655 1.2355659e-38
-1.3827645 1.9670817 -2.3329272 1.2171268e-38
-1.3838619 1.9753265 -2.3260889 1.2353864e-38
-1.3849595 1.9835715 -2.3192506 1.1892886e-38
-1.3808061 2.0198119 -2.3080647 1.1985082e-38
-1.4228513 2.0789568 -2.18717 1.0052187e-38
-1.3591325 1.6348732 -2.5651801 2.1760692e-38
-1.3602111 1.6429775 -2.5584583 1.6505554e-38
-1.3612897 1.6510819 -2.5517368 1.687506e-38
-1.3623685 1.6591862 -2.5450149 1.6874707e-38
-1.3634472 1.6672907 -2.5382931 1.6873988e-38
-1.3645258 1.6753951 -2.5315716 1.6690315e-38
-1.3656045 1.6834996 -2.5248499 1.6689952e-38
-1.3666835 1.691604 -2.5181282 1.6597397e-38
-1.3688411 1.7078127 -2.5046847 1.5953829e-38
-1.3730671 1.8068333 -2.4413812 1.4661641e-38
-1.3665247 1.8249506 -2.4451787 1.4476531e-38
-1.3752433 1.8231827 -2.4278214 1.4568724e-38
-1.3763311 1.8313574 -2.4210415 1.4384333e-38
-1.3904153 1.8699007 -2.3702507 1.3646048e-38
-1.383948 1.88858 -2.3735814 1.3646771e-38
-1.377499 1.9074 -2.3767958 1.337054e-38
-1.3785963 1.9156449 -2.3699577 1.3185071e-38
-1.3721756 1.9346758 -2.372997 1.3092875e-38
-1.3732824 1.942991 -2.3661005 1.3000678e-38
-1.3818886 1.9403799 -2.3494427 1.2908483e-38
-1.3904762 1.9376283 -2.3329015 1.2448578e-38
-1.3915644 1.9458029 -2.3261216 1.2538253e-38
-1.385181 1.9651146 -2.328928 1.2353864e-38
-1.3862786 1.9733597 -2.3220894 1.1802487e-38
-1.3873757 1.9816046 -2.3152514 1.1618094e-38
-1.3884732 1.9898496 -2.308413 1.1525898e-38
-1.3832434 2.0178282 -2.3040311 1.1618097e-38
-1.3843502 2.0261433 -2.2971346 1.1341507e-38
-1.4276215 2.0848501 -2.173903 1.2076549e-38
-1.3615077 1.6329396 -2.561249 2.1762141e-38
-1.3711414 1.6409016 -2.5366209 1.6873262e-38
-1.3647438 1.6572528 -2.5410838 1.6413008e-38
-1.3658228 1.6653572 -2.5343621 1.6505204e-38
-1.3669015 1.6734617 -2.5276403 1.6137497e-38
-1.3863183 1.8193407 -2.4066496 1.4292137e-38
-1.3873973 1.8274451 -2.3999279 1.4016628e-38
-1.3917121 1.8598629 -2.3730409 1.34631e-38
-1.3927909 1.8679672 -2.3663192 1.318579e-38
-1.3938696 1.8760715 -2.3595974 1.3370534e-38
-1.3874319 1.8948045 -2.3628364 1.3277985e-38
-1.3810132 1.9136781 -2.365958 1.3185076e-38
-1.383208 1.9301679 -2.3522816 1.272517e-38
-1.3917843 1.9275035 -2.3357162 1.2632969e-38
-1.4003419 1.924698 -2.3192673 1.2540411e-38
-1.3939602 1.9438527 -2.3221562 1.2261666e-38
-1.3950484 1.9520273 -2.3153763 1.1710293e-38
-1.388695 1.9713926 -2.3180902 1.171029e-38
-1.3897924 1.9796376 -2.3112521 1.1525898e-38
-1.3908898 1.9878826 -2.3044136 1.1341507e-38
-1.3941822 2.0126176 -2.2838986 1.1524101e-38
-1.422995 2.0948904 -2.1781116 1.2079072e-38
-1.5201094 1.425864 -2.3416281 1.6690161e-38
-1.5144583 1.4913666 -2.3175097 2.0451545e-39
-1.5117527 1.5036688 -2.3164368 6.5901806e-40
-1.5100758 1.512233 -2.3152556 7.6591667e-39
-1.5185708 1.3928566 -2.3630028 1.0519643e-38
-1.5243638 1.4637028 -2.3118894 5.5432158e-39
-1.5191734 1.4971222 -2.3044345 4.7102308e-39
-1.5139319 1.5093834 -2.3087149 1.4708029e-41
-1.5168207 1.5136304 -2.3003078 5.6375723e-39
-1.5106323 1.530104 -2.3042638 1.3092507e-38
-1.5094047 1.5430624 -2.2997236 1.3924079e-38
-1.5290428 1.4694068 -2.2989175 5.5424942e-39
-1.5261645 1.481814 -2.2981505 5.7240072e-39
-1.5235071 1.4940349 -2.2970207 4.8027753e-39
-1.5177883 1.5065336 -2.3021739 2.8655657e-39
-1.5184687 1.5151931 -2.2959845 1.171029e-38
-1.5191493 1.5238526 -2.2897947 1.4383261e-38
-1.5132947 1.5401876 -2.2931252 1.3741483e-38
-1.5139813 1.5489233 -2.2868812 1.4108469e-38
-1.5146679 1.5576587 -2.2806373 1.4659844e-38
-1.5153545 1.5663942 -2.2743928 1.4568727e-38
-1.526822 1.3957667 -2.3440571 8.3105547e-39
-1.5314831 1.4033607 -2.3300846 7.1080598e-39
-1.5281601 1.4127928 -2.3318868 6.4605282e-39
-1.5288291 1.4213059 -2.3258018 5.3577708e-39
-1.5364702 1.4316342 -2.3040621 5.5407201e-39
-1.5301079 1.4505302 -2.3070526 6.0938771e-39
-1.5300426 1.4652141 -2.2991202 5.2669891e-39
-1.5274025 1.4773835 -2.2979827 4.8056578e-39
-1.5247674 1.4896234 -2.2967951 4.528722e-39
-1.5216445 1.503684 -2.2956331 1.4708029e-41
-1.5164983 1.5285774 -2.2927711 1.3831881e-38
-1.517185 1.537313 -2.2865267 1.3833677e-38
-1.5178715 1.5460485 -2.280283 1.4108825e-38
-1.5185579 1.5547841 -2.2740388 1.4384333e-38
-1.5192446 1.5635196 -2.2677946 1.4568727e-38
-1.5199312 1.5722551 -2.2615504 1.4752042e-38
-1.5206176 1.5809907 -2.2553065 1.4660925e-38
-1.5295043 1.4066784 -2.3324213 6.2811718e-39
-1.5256635 1.4164456 -2.3351278 5.1755333e-39
-1.5270132 1.4336179 -2.3228531 3.703978e-39
-1.528475 1.4583367 -2.3061953 6.1868028e-39
-1.5313609 1.4654331 -2.2962282 5.6361261e-39
-1.5303869 1.476549 -2.2921665 4.9921762e-39
-1.5257726 1.4902668 -2.2943285 4.162054e-39
-1.5255008 1.5008343 -2.2890923 1.3561643e-38
-1.519702 1.5169674 -2.2924166 2.1391212e-38
-1.5203884 1.5257028 -2.2861726 1.2359629e-38
-1.5289037 1.5441315 -2.2581441 1.4476529e-38
-1.5288125 1.4050337 -2.3347793 9.045156e-39
-1.5232322 1.4200499 -2.338258 9.1384656e-39
-1.5345293 1.4165004 -2.3164592 8.1257472e-39
-1.5349098 1.425305 -2.3108208 7.4796702e-39
-1.5320498 1.4375439 -2.310107 7.1112478e-39
-1.5315928 1.4482373 -2.3051906 7.2020057e-39
-1.5290011 1.4603688 -2.3039727 7.2952719e-39
-1.5293849 1.4692899 -2.2982631 7.6618894e-39
-1.5279961 1.4806659 -2.2949307 2.972154e-39
-1.5346094 1.5299692 -2.253932 1.3278343e-38
-1.5349931 1.5388907 -2.2482228 1.3462022e-38
-1.5334406 1.5499413 -2.2454133 1.4292866e-38
-1.534121 1.5586008 -2.2392237 1.4659844e-38
-1.5322877 1.4109524 -2.3242209 8.7685565e-39
-1.5277693 1.4258597 -2.3255274 7.6647747e-39
-1.5284497 1.4345191 -2.3193378 7.0201115e-39
-1.5270023 1.4444438 -2.3169262 6.5584257e-39
-1.5299364 1.451623 -2.3068125 2.7888432e-39
-1.5314748 1.4896839 -2.2826614 1.6783226e-38
-1.5345745 1.512454 -2.2636311 1.4295397e-38
-1.5386139 1.5179092 -2.2521412 1.2356019e-38
-1.5389963 1.5268316 -2.2464337 1.337018e-38
-1.5393788 1.5357541 -2.240726 1.3553853e-38
-1.5397614 1.5446765 -2.2350183 1.3738239e-38
-1.5379772 1.5557511 -2.2326827 1.4659844e-38
-1.5386579 1.5644104 -2.2264931 1.4475813e-38
-1.5366621 1.4078182 -2.3167474 3.7082449e-39
-1.5370437 1.4166992 -2.3110647 2.9732232e-39
-1.5426235 1.5058459 -2.2503414 1.9915702e-38
-1.5391113 1.5182637 -2.2509005 1.3280509e-38
-1.5433868 1.5236925 -2.2389293 1.3462378e-38
-1.5437682 1.5326154 -2.2332232 1.3370181e-38
-1.5441498 1.541539 -2.2275171 1.3278344e-38
-1.5473735 1.5559853 -2.2128 1.2079435e-38
-1.5382378 1.5956985 -2.2101808 1.4476529e-38
-1.5402975 1.6219051 -2.1914487 1.429214e-38
-1.5505006 1.6191218 -2.1715286 1.1803206e-38
-1.5416706 1.6393763 -2.1789606 1.4383983e-38
-1.5423572 1.6481117 -2.1727164 1.4108469e-38
-1.5430436 1.6568472 -2.1664724 1.4292137e-38
-1.5437303 1.6655828 -2.1602283 1.4383983e-38
-1.5444167 1.6743183 -2.1539843 1.4199584e-38
-1.5451033 1.6830539 -2.1477404 1.419994e-38
-1.5466243 1.3998873 -2.3001621 2.0008601e-38
-1.5477121 1.5099963 -2.2373631 1.1343682e-38
-1.5477803 1.5205514 -2.2314188 1.3187226e-38
-1.5543209 1.5219913 -2.2168772 1.3278703e-38
-1.5536926 1.5324215 -2.2124662 1.1987244e-38
-1.5489219 1.5473238 -2.2143054 1.318615e-38
-1.5493027 1.5562478 -2.2086005 1.3186506e-38
-1.5544395 1.5954984 -2.1762304 1.1619176e-38
-1.5546664 1.6041528 -2.1709974 1.171065e-38
-1.5455608 1.6365014 -2.1723621 1.3923711e-38
-1.5462475 1.645237 -2.1661179 1.4199584e-38
-1.5469339 1.6539725 -2.1598742 1.4199584e-38
-1.5476205 1.6627079 -2.1536298 1.4199587e-38
-1.5483069 1.6714435 -2.1473861 1.4199584e-38
-1.5489932 1.6801791 -2.1411419 1.4016628e-38
-1.54968 1.6889148 -2.1348977 1.4015909e-38
-1.5503664 1.6976502 -2.1286538 1.3831162e-38
-1.551053 1.7063857 -2.1224098 1.3831165e-38
-1.5579267 1.5011796 -2.2207346 1.0605404e-38
-1.5603182 1.5086061 -2.2116253 1.2080513e-38
-1.5542291 1.5225248 -2.2167771 1.3925525e-38
-1.5501375 1.6423624 -2.1595197 1.3924079e-38
-1.5508239 1.6510979 -2.153276 1.419994e-38
-1.5515107 1.6598334 -2.1470318 1.419994e-38
-1.5521972 1.6685688 -2.1407876 1.392336e-38
-1.5528835 1.6773044 -2.1345437 1.3923358e-38
-1.5597543 1.6770934 -2.1202154 1.3831162e-38
-1.5542564 1.6947756 -2.1220555 1.3831162e-38
-1.5549431 1.7035111 -2.1158113 1.3646418e-38
-1.5626659 1.5069098 -2.2076225 1.3554208e-38
-1.555444 1.5703306 -2.1879504 1.4015909e-38
-1.5561247 1.5789901 -2.1817605 1.4015909e-38
-1.5568054 1.5876495 -2.175571 1.419994e-38
-1.5574858 1.5963089 -2.1693814 1.3923358e-38
-1.551968 1.613281 -2.1716535 1.3923358e-38
-1.5526546 1.6220165 -2.1654093 1.3923358e-38
-1.5533412 1.6307521 -2.1591654 1.4015553e-38
-1.5540278 1.6394876 -2.1529212 1.3923358e-38
-1.5547141 1.6482232 -2.1466775 1.4015553e-38
-1.5554007 1.6569587 -2.1404331 1.3924074e-38
-1.5560871 1.6656942 -2.1341891 1.3924074e-38
-1.5567738 1.6744297 -2.1279452 1.4107026e-38
-1.5574603 1.6831653 -2.121701 1.3831162e-38
-1.5640898 1.4967302 -2.210223 9.9629098e-39
-1.5648396 1.5144296 -2.19892 1.3737524e-38
-1.5572588 1.5415028 -2.1999784 1.4016272e-38
-1.5579394 1.5501622 -2.1937885 1.4016628e-38
-1.5586199 1.5588216 -2.1875989 1.4016625e-38
-1.5593003 1.5674809 -2.1814094 1.3831515e-38
-1.559981 1.5761404 -2.1752198 1.4015909e-38
-1.5606614 1.5847998 -2.1690302 1.4015906e-38
-1.561342 1.5934592 -2.1628404 1.3831162e-38
-1.5620226 1.6021186 -2.1566508 1.3831159e-38
-1.562703 1.6107782 -2.1504612 1.3923355e-38
-1.5633837 1.6194376 -2.1442714 1.4015553e-38
-1.5640641 1.6280969 -2.1380818 1.4107026e-38
-1.5647446 1.6367564 -2.1318922 1.3831878e-38
-1.5654253 1.6454157 -2.1257026 1.3923708e-38
-1.5599777 1.6628195 -2.1275907 1.3832234e-38
-1.5606641 1.671555 -2.1213467 1.3923358e-38
-1.5613507 1.6802905 -2.1151025 1.3831162e-38
-1.5620371 1.689026 -2.1088586 1.364785e-38
-1.5683855 1.4887761 -2.2055643 1.7428588e-38
-1.5715979 1.4991047 -2.1931341 1.3462018e-38
-1.5717747 1.5095197 -2.1870391 1.3462024e-38
-1.5695736 1.5201652 -2.1858158 1.3277984e-38
-1.5752981 1.5248586 -2.1712019 1.18954e-38
-1.5658789 1.5992689 -2.15011 1.3923355e-38
-1.5665594 1.6079285 -2.1439202 1.3923358e-38
-1.5672399 1.616588 -2.1377306 1.40152e-38
-1.5679203 1.6252474 -2.131541 1.4107026e-38
-1.5686009 1.6339067 -2.1253512 1.3831162e-38
-1.5692816 1.642566 -2.1191616 1.3831165e-38
-1.569962 1.6512254 -2.112972 1.3831878e-38
-1.5652406 1.677416 -2.1085043 1.373861e-38
-1.5659271 1.6861514 -2.1022604 1.364785e-38
-1.5666138 1.6948869 -2.0960162 1.3831162e-38
-1.5693597 1.7298291 -2.0710402 1.3554215e-38
-1.5700463 1.7385646 -2.064796 1.3554571e-38
-1.570733 1.7473001 -2.0585518 1.3554924e-38
-1.5763496 1.7509767 -2.0447233 1.1065638e-38
-1.5740997 1.4869347 -2.1945632 1.2173811e-38
-1.5759369 1.4960108 -2.1857128 1.3460935e-38
-1.5754378 1.5039606 -2.1823931 1.4016275e-38
-1.5761068 1.5124737 -2.1763082 1.4015919e-38
-1.5735729 1.56274 -2.1540103 1.3647494e-38
-1.5742475 1.5713261 -2.1478732 1.3923355e-38
-1.5749224 1.5799124 -2.1417358 1.3923711e-38
-1.575597 1.5884987 -2.1355984 1.3738964e-38
-1.5704159 1.6050788 -2.1373792 1.3831881e-38
-1.5710963 1.6137383 -2.1311896 1.3830809e-38
-1.5717766 1.6223977 -2.125 1.3923358e-38
-1.5724573 1.6310571 -2.1188104 1.3831162e-38
-1.5789709 1.6314299 -2.104912 1.373861e-38
-1.5738186 1.6483759 -2.106431 1.3555654e-38
-1.574499 1.6570354 -2.1002417 1.34631e-38
-1.569131 1.6745412 -2.1019058 1.3831162e-38
-1.5705041 1.6920122 -2.0894177 1.373861e-38
-1.5725635 1.7182188 -2.0706856 1.3646771e-38
-1.5732502 1.7269542 -2.0644417 1.3554218e-38
-1.5739366 1.7356899 -2.0581975 1.3553499e-38
-1.574623 1.7444255 -2.0519533 1.3554215e-38
-1.5753096 1.753161 -2.0457094 1.364605e-38
-1.575996 1.7618965 -2.0394654 1.3553502e-38
-1.5766826 1.7706319 -2.0332212 1.3369108e-38
-1.5810879 1.7731011 -2.0226033 1.0788335e-38
-1.5832995 1.793084 -2.0069721 1.0511384e-38
-1.5800955 1.5942595 -2.1229756 1.3831878e-38
-1.5807704 1.6028457 -2.1168382 1.3647497e-38
-1.5756329 1.6195481 -2.1184592 1.3831165e-38
-1.5763134 1.6282074 -2.1122696 1.3831162e-38
-1.5827948 1.6286043 -2.0984263 1.3830809e-38
-1.5834695 1.6371905 -2.092289 1.373861e-38
-1.5783552 1.6541857 -2.0937006 1.3738613e-38
-1.5790356 1.6628451 -2.0875108 1.3738966e-38
-1.5797163 1.6715045 -2.0813215 1.3554218e-38
-1.580397 1.680164 -2.0751317 1.3554221e-38
-1.5810773 1.6888232 -2.0689421 1.3646415e-38
-1.5771401 1.7240796 -2.0578432 1.3554218e-38
-1.5778267 1.7328151 -2.0515993 1.3553865e-38
-1.5785133 1.7415508 -2.0453551 1.3370187e-38
-1.5791997 1.7502863 -2.0391111 1.3554215e-38
-1.5798861 1.7590219 -2.032867 1.3369108e-38
-1.5805728 1.7677574 -2.026623 1.3185793e-38
-1.5854087 1.7700379 -2.0152035 1.0696502e-38
-1.5855953 1.7788533 -2.0099661 1.0604302e-38
-1.5826322 1.7939639 -2.0078909 1.2908483e-38
-1.5888686 1.4911438 -2.1612017 1.3831884e-38
-1.5845941 1.6000201 -2.1103525 1.3830809e-38
-1.5852686 1.6086063 -2.1042154 1.3738966e-38
-1.5859437 1.6171925 -2.0980778 1.3830446e-38
-1.5866185 1.6257788 -2.0919406 1.3646415e-38
-1.5872935 1.6343648 -2.0858033 1.3646768e-38
-1.587968 1.6429511 -2.0796659 1.3646415e-38
-1.5828923 1.6599954 -2.08097 1.3646415e-38
-1.5835726 1.6686549 -2.0747805 1.3645695e-38
-1.5842531 1.6773143 -2.0685906 1.3646771e-38
-1.580344 1.7124693 -2.0574887 1.3277988e-38
-1.5810306 1.7212049 -2.0512445 1.3738247e-38
-1.5817169 1.7299404 -2.0450008 1.3554571e-38
-1.5824038 1.7386761 -2.0387566 1.3554215e-38
-1.5830901 1.7474116 -2.0325124 1.34613e-38
-1.5837767 1.7561471 -2.0262685 1.3461656e-38
-1.5895528 1.7581567 -2.0130208 1.0880172e-38
-1.5851494 1.7736181 -2.0137806 1.3093594e-38
-1.5858362 1.7823536 -2.0075362 1.3092878e-38
-1.5901016 1.7846047 -1.9973322 1.0603221e-38
-1.5900815 1.795831 -1.9912051 1.0510663e-38
-1.5902609 1.8046767 -1.9859657 1.0233358e-38
-1.5919639 1.4799266 -2.1608596 1.263514e-38
-1.5932903 1.4968064 -2.1487939 1.3924079e-38
-1.5914943 1.5551475 -2.120507 1.3924074e-38
-1.5921634 1.5636605 -2.1144221 1.3831881e-38
-1.5928324 1.5721737 -2.1083369 1.3924079e-38
-1.5935013 1.5806867 -2.1022518 1.3831165e-38
-1.5941706 1.5891998 -2.0961671 1.4014477e-38
-1.5948396 1.5977128 -2.0900819 1.4014474e-38
-1.5904422 1.6229532 -2.0854549 1.3830809e-38
-1.5911171 1.6315393 -2.0793176 1.3646415e-38
-1.5917917 1.6401256 -2.0731802 1.373861e-38
-1.5924666 1.6487118 -2.0670428 1.3646418e-38
-1.587429 1.6658052 -2.0682392 1.3737892e-38
-1.5881095 1.6744647 -2.0620496 1.364785e-38
-1.5862937 1.7358013 -2.0321581 1.3185793e-38
-1.5869803 1.7445368 -2.025914 1.3461656e-38
-1.5876667 1.7532724 -2.0196702 1.3185424e-38
-1.5883534 1.762008 -2.0134261 1.3185074e-38
-1.5890398 1.7707434 -2.0071821 1.3185071e-38
-1.5940685 1.7750797 -1.9942272 1.0603941e-38
-1.5942435 1.7839259 -1.9889972 1.0603221e-38
-1.5944191 1.7927728 -1.9837667 1.0510665e-38
-1.5945948 1.8016191 -1.9785353 1.0141162e-38
-1.5968771 1.8090606 -1.9696478 9.680181e-39
-1.5945338 1.5250726 -2.130646 1.3185788e-38
-1.5939475 1.5353199 -2.1262467 1.3924076e-38
-1.5946163 1.543833 -2.1201618 1.3831881e-38
-1.5952858 1.5523461 -2.1140769 1.3924074e-38
-1.5979615 1.5863982 -2.0897367 1.4105957e-38
-1.5986305 1.5949113 -2.0836518 1.3831165e-38
-1.5992996 1.6034243 -2.0775666 1.373861e-38
-1.5999689 1.6119373 -2.0714815 1.373861e-38
-1.6006378 1.6204503 -2.0653965 1.3645695e-38
-1.5962905 1.6458863 -2.0605571 1.3646415e-38
-1.5969653 1.6544726 -2.05442 1.3646415e-38
-1.5976397 1.6630589 -2.0482826 1.3646415e-38
-1.5983145 1.6716449 -2.0421453 1.3646415e-38
-1.5946879 1.7062526 -2.0307503 1.3370184e-38
-1.5953684 1.7149121 -2.0245607 1.34613e-38
-1.5960492 1.7235714 -2.0183709 1.3185793e-38
-1.5967296 1.7322309 -2.0121813 1.3277988e-38
-1.5922434 1.7591331 -2.0068276 1.3369461e-38
-1.5929301 1.7678686 -2.0005836 1.2908127e-38
-1.5984207 1.7720172 -1.9867606 1.0695775e-38
-1.5985919 1.7808647 -1.9815385 1.0695418e-38
-1.5987631 1.7897121 -1.9763159 1.0419182e-38
-1.6010622 1.7971424 -1.9673998 1.0049324e-38
-1.6012311 1.8059907 -1.9621817 9.5883427e-39
-1.6080334 1.9600503 -1.8632145 6.9165093e-39
-1.6087199 1.9687859 -1.8569704 1.3277985e-38
-1.6031288 1.4780098 -2.1384411 1.2817365e-38
-1.606703 1.5785449 -2.0756752 1.3001033e-38
-1.6044779 1.5910316 -2.0734916 1.3001034e-38
-1.6074305 1.596209 -2.0644386 1.3092868e-38
-1.6037599 1.6091359 -2.0650511 1.3646415e-38
-1.6044288 1.617649 -2.0589662 1.3646415e-38
-1.605098 1.6261619 -2.0528812 1.3646062e-38
-1.605767 1.634675 -2.0467963 1.3646415e-38
-1.6064359 1.6431882 -2.0407112 1.3463103e-38
-1.6071051 1.6517012 -2.034626 1.3554218e-38
-1.6021382 1.6688193 -2.0356598 1.3370187e-38
-1.6095165 1.6675133 -2.0208669 1.1248237e-38
-1.6048375 1.7031643 -2.0111103 1.3186514e-38
-1.6090598 1.7058789 -2.0007422 1.0972365e-38
-1.6005859 1.7293813 -2.0056405 1.3277985e-38
-1.6059316 1.7308921 -1.993572 1.0880172e-38
-1.6019468 1.7467 -1.993261 1.3369461e-38
-1.6026275 1.7553594 -1.9870716 1.2815937e-38
-1.603308 1.7640189 -1.9808819 1.2908846e-38
-1.6064476 1.7683606 -1.9718958 1.0787968e-38
-1.6066126 1.7771654 -1.9667099 1.0418829e-38
-1.5995665 1.7999362 -1.969009 1.2446057e-38
-1.6055917 1.8029182 -1.9547032 9.6808971e-39
-1.6009396 1.8174073 -1.956521 1.1801041e-38
-1.6016257 1.8261427 -1.9502769 1.1339712e-38
-1.603711 1.8336565 -1.9417635 9.2195588e-39
-1.6126102 1.9659113 -1.8503721 1.2908848e-38
-1.6189606 1.9631855 -1.8385201 1.3093597e-38
-1.6102926 1.4805535 -2.1219826 1.3095032e-38
-1.6113653 1.4983104 -2.1099691 1.4016275e-38
-1.6062324 1.5242909 -2.1064816 1.309431e-38
-1.6069583 1.5419571 -2.095247 1.3093231e-38
-1.6073211 1.5507903 -2.0896299 1.3369096e-38
-1.6076838 1.5596234 -2.0840125 1.3001393e-38
-1.6080465 1.5684566 -2.0783956 1.3001391e-38
-1.6111987 1.5728728 -2.0693417 1.3831162e-38
-1.6114191 1.5842794 -2.0626092 1.3093228e-38
-1.6117821 1.5931129 -2.0569923 1.3001391e-38
-1.607551 1.6063344 -2.0586209 1.373861e-38
-1.6107924 1.6121819 -2.048593 1.115712e-38
-1.6088889 1.6233604 -2.0464509 1.3554218e-38
-1.6095581 1.6318736 -2.0403659 1.3554221e-38
-1.6102271 1.6403867 -2.0342808 1.3370552e-38
-1.6108962 1.6488997 -2.0281956 1.337055e-38
-1.6115651 1.6574126 -2.0221107 1.3370187e-38
-1.613755 1.6645385 -2.0135911 1.0972367e-38
-1.6156116 1.710143 -1.9846253 1.0880169e-38
-1.6133965 1.7226968 -1.9823824 1.0880172e-38
-1.6135582 1.7314298 -1.9772439 1.0880529e-38
-1.6137195 1.7401626 -1.9721044 1.0787978e-38
-1.6137344 1.7512606 -1.9659745 1.0787973e-38
-1.6138926 1.7600243 -1.9608256 1.0695776e-38
-1.6140511 1.7687879 -1.9556762 1.0511025e-38
-1.6110948 1.7829227 -1.9541231 1.0233715e-38
-1.6112564 1.7917286 -1.948944 9.7723766e-39
-1.610567 1.8044665 -1.9433928 1.1800687e-38
-1.6137228 1.8079062 -1.9348675 9.2199203e-39
-1.6119282 1.8217851 -1.9310136 1.1247514e-38
-1.6138288 1.8282917 -1.9234416 9.1273603e-39
-1.6165005 1.9630365 -1.8437738 1.1434426e-38
-1.6171868 1.9717722 -1.8375298 1.3646771e-38
-1.6145817 1.4775007 -2.1146436 1.3370543e-38
-1.6149384 1.4862274 -2.109098 1.3278701e-38
-1.6152947 1.4949542 -2.1035528 1.3553859e-38
-1.6105863 1.521189 -2.0990331 1.3278341e-38
-1.6134045 1.5267491 -2.0900526 1.3185787e-38
-1.6113102 1.5388575 -2.0878012 1.3277984e-38
-1.6116724 1.5476917 -2.0821853 1.3461292e-38
-1.6120342 1.5565262 -2.0765691 1.3276904e-38
-1.6123961 1.5653604 -2.0709531 1.290956e-38
-1.612758 1.574195 -2.0653372 1.3092871e-38
-1.6183335 1.5787395 -2.0511184 1.1710291e-38
-1.6184759 1.5875425 -2.0459812 1.1526623e-38
-1.618618 1.5963458 -2.040844 1.1618096e-38
-1.61268 1.620559 -2.0400207 1.3554218e-38
-1.6133491 1.6290721 -2.0339355 1.3278354e-38
-1.6175998 1.6337122 -2.0224493 1.0973086e-38
-1.6146874 1.6460981 -2.0217652 1.327871e-38
-1.6178404 1.6529024 -2.0113971 1.0972726e-38
-1.6180003 1.6615613 -2.0063026 1.0880172e-38
-1.6207427 1.694802 -1.9822698 1.088017e-38
-1.6193706 1.7056895 -1.9791702 1.3185793e-38
-1.6200396 1.7142025 -1.9730853 1.3368752e-38
-1.6207086 1.7227155 -1.9670001 1.318579e-38
-1.6213776 1.7312286 -1.9609152 1.3001401e-38
-1.6220467 1.7397417 -1.9548302 1.3093947e-38
-1.6227157 1.7482547 -1.9487453 1.2908846e-38
-1.6183424 1.7657812 -1.9483072 1.0511025e-38
-1.6229229 1.7692232 -1.9367864 1.0141881e-38
-1.6177421 1.787233 -1.9377794 9.7723766e-39
-1.617897 1.7960409 -1.932613 9.5879798e-39
-1.6202319 1.8033915 -1.9236654 9.403234e-39
-1.6234318 1.8067427 -1.9150964 9.2192001e-39
-1.6181686 1.8252443 -1.915993 9.0351675e-39
-1.6179798 1.8857448 -1.8831413 9.3106712e-39
-1.615585 1.8990132 -1.8808836 1.1431185e-38
-1.6203907 1.9601618 -1.8371754 1.0788681e-38
-1.6210771 1.9688973 -1.8309312 1.3646751e-38
-1.621621 1.452607 -2.1135256 1.0794467e-38
-1.6222734 1.4609063 -2.1075933 1.4015919e-38
-1.6248822 1.4941038 -2.0838642 1.3831884e-38
-1.6180968 1.5324726 -2.0770431 1.3277984e-38
-1.6160272 1.5445913 -2.0747337 1.3185787e-38
-1.6167493 1.5622624 -2.0635042 1.300175e-38
-1.6194574 1.569005 -2.0541055 1.180249e-38
-1.6230277 1.5784394 -2.0414147 1.1802485e-38
-1.6244103 1.5864097 -2.0341282 1.1710291e-38
-1.6270976 1.6140141 -2.013308 1.0789059e-38
-1.6233588 1.626397 -2.0143626 1.3370903e-38
-1.6272267 1.6332057 -2.0024893 1.0972727e-38
-1.6246853 1.6432766 -2.0022974 1.3278354e-38
-1.625577 1.6498713 -1.996799 1.0880892e-38
-1.6297991 1.657577 -1.9836878 1.1064204e-38
-1.6249964 1.6918156 -1.9749678 1.0880528e-38
-1.6231614 1.7028881 -1.9727398 1.3093241e-38
-1.6293284 1.7023557 -1.9600682 1.3093597e-38
-1.6308745 1.7073864 -1.9540534 1.0788333e-38
-1.6298846 1.7236186 -1.9472135 1.0604302e-38
-1.6258379 1.7369401 -1.9483999 1.3001398e-38
-1.6265069 1.7454531 -1.942315 1.2908483e-38
-1.6271758 1.7539662 -1.9362298 1.2908833e-38
-1.6272347 1.7661866 -1.9293907 1.0050403e-38
-1.6230563 1.78055 -1.93028 1.1985437e-38
-1.6252643 1.7876323 -1.9217464 9.5879798e-39
-1.6278251 1.7909362 -1.914547 9.4957841e-39
-1.6305211 1.7965314 -1.9058048 1.1155674e-38
-1.6309013 1.8070319 -1.8992345 9.0351689e-39
-1.6187886 1.8874029 -1.8805293 1.1155674e-38
-1.6194752 1.8961383 -1.8742852 1.1063478e-38
-1.6201617 1.904874 -1.8680412 1.0878364e-38
-1.6285983 1.4387161 -2.106492 2.2219155e-38
-1.6253172 1.4498758 -2.1072564 1.217488e-38
-1.6317872 1.4599257 -2.0881319 1.3833683e-38
-1.6265327 1.4762712 -2.0901952 1.3370541e-38
-1.6292058 1.4819518 -2.0814538 1.3370178e-38
-1.6337281 1.4846218 -2.0704794 1.4108469e-38
-1.6298831 1.5079713 -2.0657306 1.3924079e-38
-1.6224331 1.5293915 -2.0696201 1.3277988e-38
-1.6227908 1.5381966 -2.0640292 1.3094316e-38
-1.6231487 1.5470018 -2.0584381 1.3277983e-38
-1.6235061 1.5558069 -2.0528474 1.3093949e-38
-1.6238636 1.5646124 -2.0472567 1.327726e-38
-1.6247953 1.5787684 -2.0375183 1.3276545e-38
-1.6251556 1.5876046 -2.0319047 1.3001396e-38
-1.625578 1.6014858 -2.0233877 1.2909199e-38
-1.6257908 1.6067398 -2.0200529 1.3554215e-38
-1.6264542 1.6151798 -2.0140202 1.3554215e-38
-1.6265963 1.6229506 -2.0094504 1.3000311e-38
-1.6316726 1.6263716 -1.9968987 1.0972726e-38
-1.6337292 1.6323307 -1.9893007 1.3554215e-38
-1.6349227 1.6389527 -1.983152 1.0972723e-38
-1.6297706 1.6573789 -1.9838568 1.3277991e-38
-1.6256149 1.6830604 -1.9784797 1.3277988e-38
-1.6262838 1.6915735 -1.9723946 1.3277988e-38
-1.6269528 1.7000866 -1.9663095 1.3277988e-38
-1.633087 1.6995784 -1.9536932 1.3185076e-38
-1.632075 1.7094539 -1.9503936 1.0879814e-38
-1.6289598 1.7256255 -1.9480544 1.3001401e-38
-1.6343107 1.7292755 -1.9347999 1.0696134e-38
-1.6302983 1.7426517 -1.9358846 1.2908483e-38
-1.630967 1.7511648 -1.9297994 1.2908833e-38
-1.631636 1.759678 -1.9237144 1.2447859e-38
-1.6323051 1.7681909 -1.9176294 1.2354214e-38
-1.6329741 1.7767038 -1.9115444 1.1801043e-38
-1.633643 1.785217 -1.9054593 1.1616293e-38
-1.6373062 1.7912658 -1.8944348 9.1270072e-39
-1.6351829 1.8040508 -1.8918716 9.0351689e-39
-1.6323525 1.818229 -1.8900306 9.1266443e-39
-1.6262193 1.8478739 -1.8866321 1.0970927e-38
-1.6314667 1.4438732 -2.0976276 1.6875417e-38
-1.6324159 1.4529458 -2.090646 1.2449669e-38
-1.6327666 1.461604 -2.0851502 1.3463819e-38
-1.6331179 1.4702622 -2.0796537 1.3554934e-38
-1.6334686 1.4789202 -2.0741577 1.3555291e-38
-1.6354618 1.4856828 -2.066251 1.2263828e-38
-1.638041 1.4901447 -2.0583773 1.4476531e-38
-1.638688 1.4983766 -2.0524931 1.4108472e-38
-1.6384552 1.5051132 -2.0492799 1.1526622e-38
-1.6274869 1.543921 -2.0510108 1.3461652e-38
-1.6278437 1.5527278 -2.0454211 1.3277981e-38
-1.6281999 1.5615342 -2.0398316 1.3460933e-38
-1.632194 1.5626197 -2.0308385 1.3555301e-38
-1.632852 1.5709893 -2.0248561 1.3463105e-38
-1.6335096 1.5793588 -2.0188735 1.3646418e-38
-1.6341676 1.5877284 -2.0128911 1.3646415e-38
-1.634825 1.5960981 -2.0069087 1.3554215e-38
-1.635483 1.6044676 -2.000926 1.3645695e-38
-1.6361408 1.6128372 -1.9949435 1.3369833e-38
-1.6367987 1.6212068 -1.9889611 1.3554215e-38
-1.6389741 1.6274539 -1.9809548 1.0972366e-38
-1.6391183 1.6360062 -1.975951 1.0972367e-38
-1.6294056 1.6802589 -1.9720492 1.3369461e-38
-1.6300747 1.6887721 -1.9659642 1.318579e-38
-1.6361824 1.6883609 -1.9533509 1.318579e-38
-1.6368455 1.6968009 -1.9473181 1.3092522e-38
-1.6347579 1.7483633 -1.9233688 1.3001031e-38
-1.6423435 1.4422011 -2.0756805 1.0789781e-38
-1.644564 1.4501917 -2.0666211 1.2357107e-38
-1.6473646 1.4551827 -2.0579903 1.1894689e-38
-1.647512 1.463499 -2.0531101 1.1711374e-38
-1.6461496 1.4724971 -2.0510292 1.4109191e-38
-1.6467912 1.4806617 -2.0451934 1.4201742e-38
-1.6423535 1.4956678 -2.0462754 1.4108472e-38
-1.643001 1.5038997 -2.040391 1.4108475e-38
-1.6452779 1.5120711 -2.0311131 1.1526623e-38
-1.6507642 1.6026839 -1.9697814 1.3370184e-38
-1.6411835 1.6268221 -1.9766567 1.3554221e-38
-1.6527153 1.4391155 -2.0555718 1.4293588e-38
-1.5037951 1.4650593 -2.3543849 1.3654684e-38
-1.5143518 1.400883 -2.3674612 9.2365117e-39
-1.5126332 1.3947887 -2.374423 1.1441619e-38
-1.5514475 1.3952107 -2.292593 2.3509886e-38
-1.5486089 1.4086907 -2.2911522 2.1392264e-38
-1.5640622 1.5144722 -2.200531 1.0972723e-38
-1.5639592 1.523371 -2.1958566 1.0788338e-38
-1.5577774 1.5486672 -2.1949511 1.0788696e-38
-1.5723258 1.5166318 -2.1819715 1.0972722e-38
-1.5615153 1.5381215 -2.192888 1.2724442e-38
-1.5769843 1.5222383 -2.1690972 1.0880884e-38
-1.5665932 1.5530607 -2.1740034 1.2539701e-38
-1.5797398 1.5302455 -2.1589036 1.0696498e-38
-1.5957061 1.5327687 -2.1239514 1.2540411e-38
-1.6408496 1.4639113 -2.0668898 1.3461651e-38
-1.6251572 1.5399585 -2.0580862 1.2908833e-38
-1.6302345 1.5548978 -2.0392017 1.2724086e-38
-1.6303473 1.5640583 -2.0339305 1.2907035e-38
-1.6305726 1.5823795 -2.0233881 1.2540408e-38
-1.4819639 1.5023774 -2.3797708 6.5396918e-40
-1.4752214 1.5177215 -2.3855124 9.685775e-42
-1.4747339 1.5263622 -2.3817887 5.0264576e-42
-1.4805129 1.5280963 -2.3686869 4.3089928e-42
-1.4718069 1.6824089 -2.3021834 8.2090068e-39
-1.4620596 1.7510189 -2.2849693 8.0242568e-39
-1.4789422 1.5318962 -2.3699005 1.0238364e-38
-1.484688 1.5335869 -2.3568919 1.1800633e-38
-1.4314915 1.9440179 -2.2431648 7.0090133e-39
-1.4831502 1.5374302 -2.3580122 1.5953046e-38
-1.4333198 1.9943371 -2.2116671 4.7956021e-39
-1.4323132 2.0121794 -2.2039778 4.5204543e-39
-1.4318097 2.0211005 -2.2001331 5.2558516e-39
-1.5022727 1.4783069 -2.3503044 1.1438719e-38
-1.4940063 1.5274221 -2.3406909 1.4205295e-38
-1.4401811 1.9554451 -2.2186165 6.9168176e-39
-1.4366579 2.0178931 -2.1917036 5.3484059e-39
-1.4361548 2.026814 -2.1878588 5.3484157e-39
-1.4869102 1.5293856 -2.3545294 1.4667367e-38
-1.4986649 1.5243397 -2.3325906 1.3837591e-38
-1.446036 1.9343952 -2.2178764 6.824622e-39
-1.4450294 1.9522375 -2.210187 6.824622e-39
-1.4567391 1.9101377 -2.2087071 6.9168176e-39
-1.4600773 1.9336938 -2.1887434 6.8242689e-39
-1.4608992 2.0018551 -2.1495564 3.7828879e-39
-1.4603957 2.0107763 -2.1457117 3.8754338e-39
-1.4657471 1.9986476 -2.1411271 4.7048456e-39
-1.4652439 2.0075686 -2.1372824 4.9792633e-39
-1.4741185 1.9329922 -2.1596105 6.6387888e-39
-1.4705955 1.99544 -2.1326978 4.5211564e-39
-1.4700923 2.0043612 -2.1288528 4.9792633e-39
-1.4769536 1.965469 -2.1358023 4.9792633e-39
-1.4690948 2.0028758 -2.1317658 4.1502327e-39
-1.5530311 1.3853453 -2.2946858 1.2056996e-39
-1.5520786 1.4022268 -2.2874105 5.0775363e-39
-1.5511261 1.4191083 -2.2801352 3.9719104e-39
-1.5501739 1.4359899 -2.2728598 3.0485514e-39
-1.5477928 1.4781936 -2.2546716 1.0044507e-40
-1.4848214 1.9087348 -2.1504412 6.3636495e-39
-1.4818016 1.9622614 -2.127373 4.3346239e-39
-1.480795 1.9801037 -2.1196837 4.9778255e-39
-1.5576183 1.3823105 -2.2867105 1.1838169e-41
-1.557142 1.3907512 -2.2830727 4.5258073e-39
-1.5561893 1.4076327 -2.2757974 4.15705e-39
-1.5557132 1.4160734 -2.2721596 3.6953586e-39
-1.5552368 1.4245143 -2.268522 3.2347504e-39
-1.5489918 1.4392068 -2.2735765 3.4191318e-39
-1.5485117 1.4477152 -2.2699096 3.6957117e-39
-1.5480319 1.4562236 -2.2662427 3.6953586e-39
-1.5475518 1.4647322 -2.2625759 2.7748134e-39
-1.5415629 1.4794526 -2.2670763 1.029604e-40
-1.5519036 1.4835995 -2.2430582 1.4752042e-38
-1.4849561 1.888505 -2.1612761 6.3639998e-39
-1.4844487 1.8974971 -2.1574008 6.5465932e-39
-1.476915 1.9258877 -2.1576364 5.9955844e-39
-1.4871531 1.9501328 -2.1227882 4.705549e-39
-1.48665 1.9590539 -2.1189435 4.7030463e-39
-1.5676428 1.3737317 -2.2703507 9.6895655e-39
-1.5555359 1.4021139 -2.2802045 2.9642227e-39
-1.5550559 1.4106224 -2.2765377 8.4517355e-40
-1.5545757 1.4191308 -2.2728708 3.852786e-40
-1.5540959 1.4276391 -2.2692039 1.6142958e-41
-1.5536157 1.4361476 -2.265537 2.0053142e-40
-1.5476729 1.4506515 -2.2700596 1.54325e-41
-1.5471892 1.4592245 -2.2663651 1.0238405e-39
-1.5467055 1.4677972 -2.2626703 2.0434e-39
-1.539987 1.491509 -2.2637634 1.1805372e-38
-1.5452545 1.4935161 -2.2515864 1.5860918e-38
-1.4990475 1.8220294 -2.1681848 7.285254e-39
-1.49035 1.87628 -2.1566551 6.7309872e-39
-1.4898429 1.8852719 -2.1527798 6.3639998e-39
-1.4893353 1.894264 -2.1489046 6.5462428e-39
-1.4920015 1.9469253 -2.1143587 4.7030365e-39
-1.4914979 1.9558464 -2.1105142 4.7952321e-39
-1.5667925 1.376241 -2.2707593 1.9735998e-38
-1.5606399 1.3905462 -2.2758317 1.8999502e-38
-1.5542665 1.4132774 -2.2767377 1.5035822e-38
-1.5591998 1.4160717 -2.2648313 1.3930155e-38
-1.5587198 1.42458 -2.2611644 1.2732708e-38
-1.5528157 1.4389961 -2.2656538 1.2455765e-38
-1.5523317 1.4475691 -2.2619593 1.2823108e-38
-1.5461453 1.4624804 -2.2667708 1.3651434e-38
-1.5456576 1.4711211 -2.2630467 1.4021294e-38
-1.5451702 1.4797618 -2.2593229 1.3377724e-38
-1.5446827 1.4884024 -2.255599 1.3376278e-38
-1.5499135 1.4904338 -2.2434859 1.6047094e-38
-1.5315986 1.6255692 -2.2077227 7.7462308e-39
-1.5049025 1.8009795 -2.1674447 7.4692852e-39
-1.502386 1.8455853 -2.148221 7.284161e-39
-1.4942222 1.891031 -2.140408 6.6384385e-39
-1.4968494 1.9437177 -2.1059296 4.5204543e-39
-1.5713793 1.373206 -2.2627838 2.341805e-38
-1.5598928 1.3930491 -2.2760267 2.2224189e-38
-1.5537658 1.4075298 -2.2809491 2.0751592e-38
-1.5523036 1.4334519 -2.2697775 1.9184992e-38
-1.5518161 1.4420924 -2.2660537 1.8632537e-38
-1.5513282 1.4507329 -2.2623301 1.7986455e-38
-1.5508412 1.4593737 -2.2586062 1.7432184e-38
-1.5503534 1.4680142 -2.2548823 1.7062694e-38
-1.544192 1.4831046 -2.2595422 1.6049246e-38
-1.5493785 1.4852957 -2.2474346 1.6231841e-38
-1.5545725 1.4873514 -2.2353857 1.7703747e-38
-1.5595033 1.4895884 -2.2237902 6.0009724e-39
-1.5445036 1.5717019 -2.2101967 7.8384264e-39
-1.5435289 1.5889832 -2.2027488 7.4714418e-39
-1.5430411 1.5976238 -2.1990252 7.8384264e-39
-1.5363312 1.6224381 -2.1994941 7.7462336e-39
-1.5358398 1.6311464 -2.1957409 7.7462308e-39
-1.507234 1.8423778 -2.1397917 7.0090133e-39
-1.5001234 1.8698138 -2.139662 6.7306341e-39
-1.4996161 1.8788059 -2.135787 6.6387916e-39
-1.4991087 1.8877978 -2.1319115 6.6387888e-39
-1.4986014 1.8967899 -2.1280365 6.271451e-39
-1.5016979 1.9405102 -2.0974998 4.5204543e-39
-1.5001876 1.9672736 -2.0859659 5.0707596e-39
-1.5569988 1.4303452 -2.2616134 2.3509886e-38
-1.5499071 1.4625567 -2.2588198 2.3509886e-38
-1.5641273 1.4865294 -2.2157507 4.8067508e-39
-1.5568132 1.5271336 -2.208812 7.8384292e-39
-1.5563293 1.5357066 -2.2051175 7.7462308e-39
-1.5120822 1.8391701 -2.1313622 7.0090133e-39
-1.5055176 1.8575886 -2.1350408 6.8242689e-39
-1.5050101 1.8665807 -2.1311657 6.7309872e-39
-1.5045027 1.8755727 -2.1272905 6.6387888e-39
-1.5039957 1.8845648 -2.1234152 6.5465932e-39
-1.5034884 1.8935568 -2.11954 6.2718041e-39
-1.5060427 1.9462236 -2.0852258 4.7952321e-39
-1.5619558 1.5154783 -2.2044063 7.8384264e-39
-1.5543824 1.5568479 -2.1975915 7.7462308e-39
-1.5519452 1.6000512 -2.1789725 7.7462308e-39
-1.5104042 1.8543557 -2.1265445 6.6405909e-39
-1.5098969 1.8633476 -2.1226692 6.7309872e-39
-1.5093895 1.8723396 -2.118794 6.6387888e-39
-1.5088823 1.8813318 -2.1149187 6.4543975e-39
-1.5083749 1.8903239 -2.1110435 5.9952187e-39
-1.5078678 1.8993158 -2.1071682 6.4543975e-39
-1.511394 1.934095 -2.0806413 4.6130003e-39
-1.5108907 1.9430162 -2.0767963 5.2544054e-39
-1.567582 1.4952501 -2.2036953 7.5632815e-39
-1.5656472 1.5295419 -2.1889167 7.7462308e-39
-1.5152907 1.8511226 -2.1180482 7.0072154e-39
-1.5147837 1.8601146 -2.1141727 6.9153715e-39
-1.5142761 1.8691067 -2.1102977 6.6387888e-39
-1.5137689 1.8780987 -2.1064222 6.5465932e-39
-1.5132619 1.8870908 -2.1025469 6.3622019e-39
-1.5127544 1.8960828 -2.0986717 6.3622019e-39
-1.5147325 1.9576509 -2.0606775 4.7934343e-39
-1.5775192 1.4858601 -2.1879654 7.7462308e-39
-1.5770389 1.4943686 -2.1842985 7.8384264e-39
-1.5693388 1.5436053 -2.1734269 7.7462308e-39
-1.5266268 1.8295475 -2.1060741 7.1919654e-39
-1.5261234 1.8384687 -2.1022294 6.7313376e-39
-1.5181484 1.8838577 -2.0940504 6.4543975e-39
-1.5176412 1.8928497 -2.0901752 6.3622019e-39
-1.5821431 1.482801 -2.1799259 7.9306262e-39
-1.5816628 1.4913094 -2.176259 7.9306262e-39
-1.5744816 1.53195 -2.1690211 7.8384264e-39
-1.5314749 1.82634 -2.0976446 7.1916123e-39
-1.5309715 1.8352612 -2.0938001 7.0072154e-39
-1.5304682 1.8441821 -2.0899551 6.9150184e-39
-1.5220203 1.8986089 -2.0778036 6.4540444e-39
-1.5244287 1.9512359 -2.043819 3.9654813e-39
-1.5702405 1.596265 -2.1425912 7.6540351e-39
-1.5479451 1.7160938 -2.1236081 7.4692852e-39
-1.5388398 1.7785265 -2.1084387 7.4692852e-39
-1.5363233 1.8231325 -2.089215 7.2841582e-39
-1.5358198 1.8320534 -2.0853705 7.0072154e-39
-1.5294437 1.8504155 -2.0886834 6.7306341e-39
-1.5289363 1.8594074 -2.0848083 6.54624e-39
-1.5284294 1.8683995 -2.0809329 6.5465932e-39
-1.5279218 1.8773916 -2.0770578 6.4540444e-39
-1.5274147 1.8863835 -2.0731823 6.5465932e-39
-1.5269073 1.8953758 -2.0693071 6.4543975e-39
-1.5909106 1.4851911 -2.1601801 7.9306234e-39
-1.5904306 1.4936996 -2.1565135 7.8384264e-39
-1.5507565 1.7483009 -2.099998 7.8366313e-39
-1.5441912 1.7663978 -2.1038537 7.5618339e-39
-1.5411714 1.8199247 -2.0807855 7.284161e-39
-1.5406681 1.828846 -2.0769408 7.0072154e-39
-1.5343305 1.8471823 -2.0801868 6.6384385e-39
-1.5338234 1.8561743 -2.0763116 6.54624e-39
-1.5333161 1.8651664 -2.0724363 6.6380854e-39
-1.5328087 1.8741585 -2.0685611 6.3622019e-39
-1.5323014 1.8831505 -2.0646858 6.54624e-39
-1.5317942 1.8921427 -2.0608106 6.5465932e-39
-1.5918438 1.4626925 -2.1705825 2.1024219e-38
-1.5950545 1.4906403 -2.1484737 7.7462308e-39
-1.5717351 1.6409314 -2.1149023 7.5618395e-39
-1.5490395 1.7631905 -2.0954244 7.2859575e-39
