# .PCD v0.7 - Point Cloud Data file format
VERSION 0.7
FIELDS x y z rgb
SIZE 4 4 4 4
TYPE F F F F
COUNT 1 1 1 1
WIDTH 1049
HEIGHT 1
VIEWPOINT 0 0 0 1 0 0 0
POINTS 1049
DATA ascii
-1.6420195 1.7491388 -1.9905922 7.6522205e-39
-1.6594273 1.7182388 -1.9730182 7.9295304e-39
-1.6574619 1.7268789 -1.9682722 7.8373348e-39
-1.6287905 1.8183731 -1.9441595 6.7295369e-39
-1.615121 1.8608094 -1.9342126 6.4536787e-39
-1.6090777 1.8873714 -1.9196215 5.9919719e-39
-1.6653583 1.7060394 -1.9692159 7.9291773e-39
-1.6614264 1.7233189 -1.9597236 7.8369817e-39
-1.6328206 1.814755 -1.9354709 6.7295369e-39
-1.6191843 1.8571616 -1.9254522 6.4536787e-39
-1.6232475 1.8535136 -1.916692 6.4536787e-39
-1.6673908 1.7248393 -1.9378806 7.9295304e-39
-1.617671 1.8749391 -1.9072585 6.6369909e-39
-1.6449108 1.8039007 -1.909405 6.7302586e-39
-1.631374 1.8462179 -1.8991714 6.5455212e-39
-1.6253307 1.8727797 -1.8845805 6.7295369e-39
-1.6354375 1.8425699 -1.8904113 6.4536787e-39
-1.6354717 1.8566298 -1.8719236 6.6362875e-39
-1.5383352 1.9531467 -2.0691798 5.7128654e-39
-1.6273452 1.8639258 -1.8894441 6.5458743e-39
-1.6314085 1.8602778 -1.8806838 6.4536787e-39
-1.6194769 1.8259666 -1.9652432 1.1339712e-38
-1.6265029 1.8381809 -1.925891 9.0348088e-39
-1.6232133 1.8394536 -1.9351796 6.4536787e-39
-1.6211988 1.8483076 -1.9303159 6.7295369e-39
-1.6195827 1.83427 -1.9540405 9.2195588e-39
-1.6275401 1.8228732 -1.9424418 1.1247514e-38
-1.6276929 1.8292875 -1.9335508 9.1273603e-39
-1.6228633 1.8420492 -1.9329526 9.1270044e-39
-1.6313007 1.8254608 -1.9265404 9.0351675e-39
-1.6436172 1.8106039 -1.9049518 9.0351689e-39
-1.6334044 1.8301549 -1.9134027 9.0348116e-39
-1.6471722 1.8068548 -1.8980161 9.0351689e-39
-1.6425803 1.8192232 -1.8971413 9.1266443e-39
-1.6417148 1.8268611 -1.8900405 9.0351633e-39
-1.5240777 1.940333 -2.1333902 5.9955844e-39
-1.5281076 1.936715 -2.1247017 5.9955844e-39
-1.5321378 1.933097 -2.1160133 6.4540444e-39
-1.5301397 1.9418786 -2.1111894 7.0072154e-39
-1.5381657 1.9206973 -2.1121485 6.54624e-39
-1.5361677 1.9294788 -2.1073246 6.3625522e-39
-1.5341698 1.9382603 -2.1025007 6.6380854e-39
-1.5421958 1.9170792 -2.1034598 5.9952187e-39
-1.5401978 1.9258608 -2.0986359 6.3622019e-39
-1.5381997 1.9346422 -2.0938122 6.6380854e-39
-1.5462258 1.9134611 -2.0947711 6.3622019e-39
-1.5442278 1.9222426 -2.0899472 6.3618488e-39
-1.5502559 1.9098431 -2.0860827 6.4540444e-39
-1.5482578 1.9186246 -2.0812588 6.4533255e-39
-1.5462598 1.9274062 -2.0764349 7.0986922e-39
-1.5542859 1.906225 -2.077394 6.4543975e-39
-1.5522877 1.9150064 -2.0725703 6.6373413e-39
-1.5583159 1.9026068 -2.0687053 6.5465932e-39
-1.5563179 1.9113884 -2.0638814 6.5458743e-39
-1.5543199 1.9201699 -2.0590577 6.7306341e-39
-1.5623459 1.8989887 -2.0600169 6.4543975e-39
-1.5603479 1.9077704 -2.0551929 6.3625522e-39
-1.5583498 1.9165518 -2.050369 6.730281e-39
-1.566376 1.8953707 -2.0513282 6.3622019e-39
-1.5643779 1.9041523 -2.0465043 6.3622019e-39
-1.5623798 1.9129337 -2.0416806 6.6380854e-39
-1.570406 1.8917527 -2.0426397 6.3622019e-39
-1.568408 1.9005342 -2.0378156 6.5451442e-39
-1.5664101 1.9093158 -2.0329919 6.9139464e-39
-1.576434 1.879353 -2.038775 6.3622019e-39
-1.5744361 1.8881347 -2.033951 6.3622019e-39
-1.5704399 1.9056977 -2.0243032 6.8213976e-39
-1.580464 1.8757348 -2.0300865 6.4536787e-39
-1.5784662 1.8845166 -2.0252624 6.54624e-39
-1.576468 1.893298 -2.0204387 6.361832e-39
-1.57447 1.9020797 -2.0156147 6.54624e-39
-1.5824962 1.8808985 -2.0165739 6.3622019e-39
-1.5804981 1.88968 -2.01175 6.2685643e-39
-1.5865263 1.8772805 -2.0078852 6.3625522e-39
-1.5845281 1.886062 -2.0030613 6.1770666e-39
-1.61915 1.8431015 -1.9439399 6.4540444e-39
-1.6171354 1.8519555 -1.9390761 6.7295369e-39
-1.625262 1.8446597 -1.9215556 6.4536787e-39
-1.6293254 1.8410119 -1.9127955 6.4536787e-39
-1.5503637 1.9562131 -2.0251279 4.978564e-39
-1.5664781 1.9372057 -1.9963191 3.6881755e-39
-1.5705082 1.9335877 -1.9876304 3.6892545e-39
-1.5745382 1.9299697 -1.9789419 4.1502327e-39
-1.6029999 1.8998733 -1.9235181 5.3462493e-39
-1.6111264 1.8925774 -1.9059975 6.1738506e-39
-1.6273794 1.8779857 -1.8709564 6.5458743e-39
-1.7552556 1.0080318 -2.5820787 1.9183567e-38
-1.7939357 1.0027226 -2.4602437 1.3005644e-38
-1.8051261 0.98287559 -2.4489248 2.2224189e-38
-1.7976899 0.99935246 -2.4521501 1.3743983e-38
-1.7939674 1.0157129 -2.4431629 1.2915317e-38
-1.7921063 1.0238929 -2.4386694 1.2362149e-38
-1.7958603 1.0205227 -2.4305758 1.2547976e-38
-1.793999 1.0287027 -2.4260821 1.2455062e-38
-1.7495832 1.1990678 -2.3513203 1.0610056e-38
-1.6334479 1.7738491 -1.9868382 1.0787968e-38
-1.6496763 1.7479361 -1.9666737 1.3093947e-38
-1.6485932 1.756045 -1.9596835 1.2908846e-38
-1.6528504 1.7440581 -1.9611738 1.3001398e-38
-1.6517674 1.7521669 -1.9541835 1.2908483e-38
-1.6506841 1.7602757 -1.9471929 1.2908833e-38
-1.6429106 1.7833663 -1.9428982 1.1985437e-38
-1.6571082 1.7320714 -1.9626642 1.3001401e-38
-1.6549416 1.7482889 -1.9486831 1.2908483e-38
-1.6538585 1.7563977 -1.9416928 1.2908833e-38
-1.6527753 1.7645066 -1.9347024 1.2447859e-38
-1.6516923 1.7726153 -1.9277121 1.2354214e-38
-1.6506091 1.780724 -1.9207217 1.1801043e-38
-1.6570326 1.7525196 -1.9361926 1.3001031e-38
-1.6388146 1.7884104 -1.9499426 7.0986922e-39
-1.6468748 1.7811743 -1.9325653 7.0064951e-39
-1.6509047 1.7775562 -1.9238768 7.0986922e-39
-1.6154226 1.8102134 -1.9993263 1.0233358e-38
-1.6190281 1.8063673 -1.9923493 1.0141162e-38
-1.6243945 1.8009486 -1.9815648 1.0049324e-38
-1.6319568 1.7823294 -1.9807197 1.0418829e-38
-1.6437309 1.7482314 -1.9860815 1.0787978e-38
-1.6417071 1.7577878 -1.9803303 1.0787973e-38
-1.6402187 1.76623 -1.9742527 1.0695776e-38
-1.6387308 1.7746719 -1.9681748 1.0511025e-38
-1.6340579 1.7869848 -1.9676414 1.0233715e-38
-1.6422973 1.7708883 -1.9612461 1.0511025e-38
-1.6449018 1.7749162 -1.9473118 1.0141881e-38
-1.6484882 1.7711172 -1.9403367 1.0050403e-38
-1.6602242 1.7371869 -1.9456058 1.0696134e-38
-1.5400956 1.8840257 -2.1536453 6.7306341e-39
-1.5461237 1.871626 -2.1497805 6.8242689e-39
-1.5441258 1.8804076 -2.1449566 6.7309872e-39
-1.5521518 1.8592263 -2.145916 6.9164645e-39
-1.5501536 1.868008 -2.1410921 6.6405909e-39
-1.5481557 1.8767896 -2.1362681 6.7309872e-39
-1.5561818 1.8556085 -2.1372271 7.1923311e-39
-1.5541837 1.86439 -2.1324034 7.0072154e-39
-1.5521859 1.8731714 -2.1275795 6.9153715e-39
-1.5701185 1.8414205 -2.10937 7.1916123e-39
-1.5741168 1.837831 -2.10075 7.2841582e-39
-1.5721344 1.8465431 -2.0959642 7.0072154e-39
-1.5642759 1.8623172 -2.1015136 6.7306341e-39
-1.5781152 1.8342414 -2.0921297 7.284161e-39
-1.5761329 1.8429537 -2.0873437 7.0072154e-39
-1.568306 1.8586992 -2.0928249 6.6384385e-39
-1.5821134 1.8306519 -2.0835097 7.284161e-39
-1.5743339 1.8462995 -2.0889604 7.099411e-39
-1.572336 1.8550811 -2.0841365 6.6384385e-39
-1.5861115 1.8270624 -2.0748897 7.284161e-39
-1.5841293 1.8357745 -2.0701036 7.099411e-39
-1.5763661 1.8514632 -2.0754478 6.6387916e-39
-1.5901098 1.8234729 -2.0662696 7.1919654e-39
-1.5881275 1.8321851 -2.0614839 7.0072154e-39
-1.5861454 1.8408973 -2.0566978 6.7309872e-39
-1.5841631 1.8496095 -2.0519121 6.5465932e-39
-1.5980725 1.8024586 -2.0672212 7.6522317e-39
-1.594108 1.8198833 -2.0576494 7.1919654e-39
-1.592126 1.8285956 -2.0528636 7.0997641e-39
-1.5901436 1.8373078 -2.0480778 6.7309872e-39
-1.5981063 1.8162937 -2.0490294 7.1919654e-39
-1.5961242 1.8250059 -2.0442436 7.0072154e-39
-1.5941418 1.8337183 -2.0394576 6.6387916e-39
-1.6280426 1.7686197 -2.0116665 7.5614836e-39
-1.6347165 1.7641385 -1.9953042 7.6525848e-39
-1.6267245 1.7992648 -1.9760084 7.0986922e-39
-1.6387466 1.7605203 -1.9866154 7.7447804e-39
-1.6327525 1.7868651 -1.9721437 7.284161e-39
-1.6500162 1.7419597 -1.973352 7.8373348e-39
-1.6540143 1.7383702 -1.9647319 7.8373348e-39
-1.6468067 1.7532842 -1.9692383 7.8366285e-39
-1.6448087 1.7620656 -1.9644142 7.744786e-39
-1.6560303 1.743493 -1.9513261 7.8369817e-39
-1.654048 1.7522051 -1.9465401 7.7447804e-39
-1.652066 1.7609175 -1.9417543 7.7440616e-39
-1.6634594 1.7421192 -1.9283887 7.8366159e-39
-1.6560643 1.757328 -1.9331342 7.7440616e-39
-1.6654588 1.7471994 -1.9150941 7.6525848e-39
-1.6634929 1.7558393 -1.9103481 7.2841582e-39
-1.6723366 1.7326553 -1.911203 7.561115e-39
-1.5000675 2.0317664 -2.0938401 4.7001793e-39
-1.5040976 2.0281484 -2.0851512 3.7800208e-39
-1.5242479 2.0100579 -2.0417082 4.7005296e-39
-1.5524473 1.9890059 -1.9753382 6.4525955e-39
-1.5967544 1.9309877 -1.9036498 3.7767516e-39
-1.6108426 1.9113519 -1.8824079 9.8630925e-39
-1.6148726 1.9077339 -1.8737192 9.6790768e-39
-1.6066828 1.9587891 -1.8342667 1.3093597e-38
-1.5035698 2.0384569 -2.0734377 6.4547479e-39
-1.507633 2.0348091 -2.0646775 6.3621991e-39
-1.5137109 2.0223072 -2.0607808 3.5044933e-39
-1.5504601 1.993513 -1.9760641 6.6380433e-39
-1.5544901 1.989895 -1.9673755 6.454029e-39
-1.5585202 1.986277 -1.9586871 6.2703552e-39
-1.5625503 1.9826589 -1.9499984 6.2703552e-39
-1.5605521 1.9914404 -1.9451746 7.469606e-39
-1.5947542 1.9591968 -1.8734455 9.5879966e-39
-1.5975333 1.9626387 -1.8596958 1.1433701e-38
-1.6038864 1.9347943 -1.8749319 7.6515044e-39
-1.5962905 1.9587357 -1.868934 1.0696836e-38
-1.6011685 1.9587557 -1.8526678 1.1525882e-38
-1.6017705 1.9381151 -1.8776364 1.0233698e-38
-1.6050279 1.9341358 -1.8719927 7.466362e-39
-1.6039164 1.9424564 -1.8648195 6.173845e-39
-1.6107785 1.9352058 -1.8514495 4.8842006e-39
-1.6104308 1.9344977 -1.8535321 7.8366159e-39
-1.6082079 1.9511391 -1.8391858 1.0788681e-38
-1.5055841 2.029603 -2.0783012 4.7927252e-39
-1.5116619 2.0171013 -2.0744047 3.7828879e-39
-1.5096474 2.0259552 -2.0695412 4.0566077e-39
-1.5218371 2.0150115 -2.0432603 4.4257406e-39
-1.5279151 2.0025094 -2.0393636 4.3338939e-39
-1.5259006 2.0113635 -2.0344999 4.2392011e-39
-1.5319784 1.9988616 -2.0306034 4.7934343e-39
-1.5605181 1.9774954 -1.963511 3.6867364e-39
-1.6091118 1.9014312 -1.9011337 5.8047093e-39
-1.5990396 1.9457011 -1.8768153 2.5782561e-39
-1.5950106 1.9634089 -1.867088 8.021698e-39
-1.6010883 1.9509072 -1.8631914 5.9912684e-39
-1.6051515 1.9472592 -1.8544312 6.1763687e-39
-1.6092148 1.9436114 -1.8456708 6.3614985e-39
-1.6129427 1.9444054 -1.8322225 8.3901554e-39
-1.6189706 1.9320056 -1.8283577 6.3614985e-39
-1.6213703 1.9186076 -1.8378776 3.5945408e-39
-1.6198404 1.9227128 -1.8376065 4.2406136e-39
-1.6178094 1.9316392 -1.8327031 3.0410167e-39
-1.6270308 1.9247696 -1.8109804 6.1770666e-39
-1.6074473 1.891221 -1.9200188 6.4529486e-39
-1.6115437 1.8875432 -1.9111868 6.5451442e-39
-1.6156402 1.8838655 -1.9023551 6.6373413e-39
-1.6070632 1.8962252 -1.9147577 5.8075792e-39
-1.6297437 1.8063768 -1.956663 1.1800687e-38
-1.6192765 1.8133228 -1.982433 9.680181e-39
-1.6265255 1.8056188 -1.9683671 9.6808971e-39
-1.6364489 1.7985212 -1.9446056 9.5879798e-39
-1.6431783 1.7908382 -1.9322425 9.5879798e-39
-1.6443778 1.7937477 -1.9244473 9.4957841e-39
-1.6452683 1.8008196 -1.9122409 1.1155674e-38
-1.6495258 1.7888329 -1.9137312 1.1616293e-38
-1.651009 1.7954885 -1.9000965 9.1270072e-39
-1.5421617 1.9031341 -2.1217964 5.9952187e-39
-1.5723701 1.8690261 -2.0658 6.4543975e-39
-1.5763999 1.8654079 -2.0571113 6.3622019e-39
-1.5804302 1.8617899 -2.0484228 6.3622019e-39
-1.5844601 1.8581719 -2.0397341 6.3622019e-39
-1.58849 1.8545538 -2.0310457 6.4536787e-39
-1.6227285 1.8168277 -1.9663606 6.5458743e-39
-1.6267586 1.8132097 -1.9576719 6.2710587e-39
-1.6307884 1.8095915 -1.9489834 6.3625522e-39
-1.6368165 1.797192 -1.9451187 6.6387916e-39
-1.6388485 1.8023555 -1.9316063 6.5458743e-39
-1.6325645 1.7954665 -1.9615295 9.7723766e-39
-1.6379474 1.7900364 -1.9507047 9.7723766e-39
-1.5380977 1.8928072 -2.1488216 6.6387916e-39
-1.5360998 1.9015888 -2.1439974 6.6387888e-39
-1.5341016 1.9103702 -2.1391737 6.271451e-39
-1.5421277 1.8891891 -2.1401329 6.6387888e-39
-1.5401297 1.8979706 -2.1353087 6.5465932e-39
-1.5461577 1.885571 -2.1314442 6.6387888e-39
-1.5441598 1.8943527 -2.1266203 6.4543975e-39
-1.5501877 1.881953 -2.1227555 6.6387888e-39
-1.5481898 1.8907346 -2.1179316 6.5465932e-39
-1.5622779 1.8710988 -2.0966897 6.54624e-39
-1.5602798 1.8798803 -2.0918658 6.5465932e-39
-1.566308 1.8674806 -2.088001 6.54624e-39
-1.5703379 1.8638625 -2.0793126 6.6387888e-39
-1.5683401 1.8726441 -2.0744886 6.4543975e-39
-1.5743681 1.8602446 -2.0706239 6.6387888e-39
-1.5824281 1.8530084 -2.0532467 6.5465932e-39
-1.5864581 1.8493904 -2.044558 6.5465932e-39
-1.5924863 1.8369907 -2.0406933 6.7309872e-39
-1.5904881 1.8457723 -2.0358696 6.5465932e-39
-1.6111606 1.9066374 -1.8875099 7.0043021e-39
-1.5342718 1.9800953 -2.0474913 4.3346239e-39
-1.5503919 1.965623 -2.012737 4.4257406e-39
-1.5624821 1.9547689 -1.9866712 4.3346239e-39
-1.5665121 1.9511508 -1.9779825 4.056958e-39
-1.55239 1.9568415 -2.017561 3.9654813e-39
-1.5644802 1.9459873 -1.9914951 4.4257406e-39
-1.5685102 1.9423692 -1.9828066 4.1502327e-39
-1.5623924 1.9592795 -1.9810758 5.530649e-39
-1.5625162 1.9687139 -1.9683348 4.608334e-39
-1.6048145 1.9237516 -1.8862727 6.8191892e-39
-1.6192454 1.8889149 -1.8837539 1.1063478e-38
-1.6181341 1.8972355 -1.8765807 1.0878364e-38
-1.5383018 1.9764773 -2.0388029 4.3338939e-39
-1.5363039 1.9852588 -2.0339789 4.4257406e-39
-1.5423319 1.9728591 -2.0301142 4.9792633e-39
-1.5403341 1.9816407 -2.0252903 4.7030365e-39
-1.5463622 1.9692411 -2.0214255 4.9792633e-39
-1.5443641 1.9780227 -2.0166016 4.8877977e-39
-1.548394 1.9744046 -2.0079131 4.3338939e-39
-1.546396 1.9831861 -2.0030892 4.4260909e-39
-1.5544223 1.962005 -2.0040483 4.8856299e-39
-1.5524241 1.9707865 -1.9992244 4.3324561e-39
-1.550426 1.979568 -1.9944006 4.1498627e-39
-1.5604841 1.9635504 -1.9818473 4.3346239e-39
-1.5645143 1.9599323 -1.9731587 4.0576615e-39
-1.6156747 1.8980407 -1.8837162 6.5451442e-39
-1.6159881 1.8928943 -1.8893976 1.1431185e-38
-1.5584522 1.9583869 -1.9953599 5.1615063e-39
-1.5544561 1.9759499 -1.9857119 5.1618567e-39
-1.5584861 1.9723319 -1.9770234 4.7927252e-39
-1.5705421 1.9475328 -1.9692941 5.1618567e-39
-1.5665463 1.9650959 -1.9596462 4.3321058e-39
-1.5969564 1.9264351 -1.908927 3.5938317e-39
-1.5949419 1.935289 -1.9040633 3.5945408e-39
-1.5967885 1.9449326 -1.8853133 1.8367099e-40
-1.6030341 1.9139332 -1.9050304 4.2402605e-39
-1.6028166 1.932533 -1.8814486 5.435875e-39
-1.6070974 1.9102852 -1.89627 5.0671429e-39
-1.6068467 1.928915 -1.8727601 5.3437312e-39
-1.6074817 1.905396 -1.9013801 5.804359e-39
-1.6128746 1.9165155 -1.8688954 8.2050005e-39
-1.6088787 1.9340785 -1.8592476 1.751717e-39
-1.6115782 1.9017183 -1.8925481 6.0809459e-39
-1.6152239 1.9029895 -1.8787496 7.0979495e-39
-1.6189027 1.9041158 -1.8650305 7.8365837e-39
-1.6149067 1.9216788 -1.8553828 4.608334e-39
-1.6192873 1.8993416 -1.8699894 7.1912143e-39
-1.6253649 1.8868397 -1.8660927 6.5451442e-39
-1.6233507 1.8956937 -1.8612292 6.8199333e-39
-1.6269628 1.8968798 -1.8476535 6.3593152e-39
-1.6249648 1.9056612 -1.8428296 4.7008799e-39
-1.6229668 1.9144428 -1.8380055 3.4097908e-39
-1.6294283 1.8831917 -1.8573325 6.361832e-39
-1.6274139 1.8920457 -1.8524687 6.7284411e-39
-1.6253994 1.9008996 -1.8476051 6.3600187e-39
-1.6233848 1.9097537 -1.8427415 4.6086829e-39
-1.6218714 1.9137864 -1.84251 4.7934287e-39
-1.6203569 1.8805943 -1.890927 1.1155674e-38
-1.6095127 1.8964696 -1.9062834 6.2689175e-39
-1.6136092 1.8927919 -1.8974515 6.2689175e-39
-1.6177058 1.8891141 -1.8886197 6.454029e-39
-1.620104 1.8809758 -1.8912705 9.3106712e-39
-1.5725403 1.9387512 -1.974118 4.9778255e-39
-1.6050485 1.9050792 -1.909894 4.9778255e-39
-1.6220084 1.7253941 -2.0882418 1.3553865e-38
-1.6274114 1.725756 -2.0697811 1.3370184e-38
-1.7444326 1.1187937 -2.4733675 1.76155e-38
-1.7416167 1.1351392 -2.4613824 1.8811869e-38
-1.7483355 1.0916468 -2.4958494 2.0103696e-38
-1.7431799 1.1226499 -2.4724987 2.2313872e-38
-1.7415994 1.1814355 -2.4009409 1.3471024e-38
-1.746935 1.1490287 -2.4255264 2.0104429e-38
-1.7522488 1.1530948 -2.4025218 1.6326196e-38
-1.7508339 1.1612337 -2.3965974 1.6233645e-38
-1.7448759 1.1709801 -2.4036963 1.6142164e-38
-1.7450829 1.1777303 -2.3941853 1.7432538e-38
-1.7436545 1.1859368 -2.3882167 1.7431815e-38
-1.7387352 1.1953514 -2.3922899 2.1763935e-38
-1.7376616 1.2033906 -2.3853598 2.20398e-38
-1.7609932 1.1257277 -2.4091737 1.7063767e-38
-1.7519108 1.1365498 -2.4252682 2.0196623e-38
-1.7579764 1.1410618 -2.3991787 1.7799891e-38
-1.7565577 1.1491908 -2.3932791 1.7892444e-38
-1.7507946 1.1578327 -2.4011722 2.1487352e-38
-1.7497296 1.1658049 -2.3942995 2.1396234e-38
-1.7486649 1.1737771 -2.3874269 2.1396234e-38
-1.7476001 1.1817492 -2.3805542 2.1856488e-38
-1.7465351 1.1897213 -2.3736818 2.2224189e-38
-1.7408086 1.1995459 -2.3799069 2.2499695e-38
-1.7397349 1.207585 -2.3729768 2.2683366e-38
-1.6931882 1.4527808 -2.2075198 2.3509886e-38
-1.7592399 1.1141593 -2.4301279 2.1028175e-38
-1.7644145 1.1220953 -2.40253 1.798535e-38
-1.7620369 1.0442232 -2.5122082 1.4021311e-38
-1.7556822 1.0537152 -2.5209599 1.3560336e-38
-1.7540897 1.0625786 -2.514679 1.3007884e-38
-1.7524972 1.071442 -2.5083983 1.273237e-38
-1.7509048 1.0803055 -2.5021172 1.2363592e-38
-1.7493124 1.0891689 -2.4958363 1.2732007e-38
-1.753342 1.084981 -2.4878931 1.7892102e-38
-1.7550317 1.1120589 -2.446883 1.9182121e-38
-1.7582347 1.1196309 -2.4263246 1.9458702e-38
-1.7486616 1.1475124 -2.4217596 1.9827844e-38
-1.7515801 1.0736818 -2.5085239 9.7853541e-39
-1.7823071 0.97051978 -2.5410402 1.0614039e-38
-1.7804314 0.97876298 -2.5365124 1.0796632e-38
-1.7535031 1.0785676 -2.495738 1.1809695e-38
-1.7516123 1.0868769 -2.4911737 1.1440913e-38
-1.7860899 0.96712345 -2.5328844 1.300968e-38
-1.7842144 0.97536671 -2.5283563 1.2917487e-38
-1.7478633 1.1166903 -2.4646947 1.1901891e-38
-1.7898729 0.96372724 -2.5247285 1.0427852e-38
-1.7879974 0.97197044 -2.5202003 1.0888124e-38
-1.7379591 1.169531 -2.4286163 1.2177739e-38
-1.7475486 1.1542599 -2.4166479 1.3836184e-38
-1.7392724 1.1726151 -2.4202142 1.263836e-38
-1.7354652 1.2028917 -2.3933239 1.4019141e-38
-1.7335453 1.2113301 -2.3886883 1.328301e-38
-1.7431777 1.1825384 -2.3942456 1.1350178e-38
-1.7412575 1.1909766 -2.3896101 1.4113141e-38
-1.7393378 1.199415 -2.3849747 1.5402428e-38
-1.7374177 1.2078533 -2.3803394 1.5864138e-38
-1.7681694 1.0862399 -2.4368856 1.2731279e-38
-1.7374506 1.2212534 -2.3627195 1.0704812e-38
-1.7701217 1.0912015 -2.4239011 1.2730572e-38
-1.7394031 1.2262151 -2.3497353 1.0150895e-38
-1.7605549 1.1467934 -2.3831046 1.3192627e-38
-1.7471155 1.2058616 -2.350657 1.3283023e-38
-1.7388408 1.2247419 -2.3535328 1.1902594e-38
-1.7369057 1.2332463 -2.348861 1.1718201e-38
-1.7408087 1.2297424 -2.3404467 1.4389718e-38
-1.7388736 1.2382468 -2.3357749 1.4389371e-38
-1.7408414 1.2432473 -2.3226888 1.4482647e-38
-1.5845964 1.913952 -1.9663885 3.2264547e-39
-1.6154941 1.7333528 -2.0995293 1.3554924e-38
-1.6143824 1.7416735 -2.0923564 1.3554215e-38
-1.613271 1.7499942 -2.0851831 1.3554571e-38
-1.6121594 1.7583147 -2.0780101 1.3554924e-38
-1.623197 1.6960906 -2.1225781 1.3463103e-38
-1.6220856 1.7044113 -2.1154048 1.373861e-38
-1.6209739 1.7127318 -2.108232 1.373861e-38
-1.6198628 1.7210528 -2.1010587 1.3555651e-38
-1.6187513 1.7293735 -2.0938857 1.3646771e-38
-1.6176395 1.7376939 -2.0867126 1.3554218e-38
-1.6165282 1.7460147 -2.0795393 1.3553499e-38
-1.6154168 1.7543355 -2.0723662 1.3554215e-38
-1.6143054 1.7626563 -2.0651932 1.364605e-38
-1.6131938 1.7709769 -2.0580201 1.3553502e-38
-1.6652917 1.5117232 -2.2233677 1.4196702e-38
-1.6208969 1.7337148 -2.0810688 1.3554218e-38
-1.6197853 1.7420354 -2.0738957 1.3553865e-38
-1.6186743 1.7503564 -2.0667224 1.3370187e-38
-1.6175624 1.7586769 -2.0595496 1.3554215e-38
-1.616451 1.7669977 -2.0523763 1.3369108e-38
-1.6322533 1.7066805 -2.0785899 1.3554215e-38
-1.6252657 1.7214147 -2.0825982 1.3277988e-38
-1.6241541 1.7297355 -2.0754249 1.3738247e-38
-1.6230427 1.7380561 -2.0682518 1.3554571e-38
-1.6219313 1.7463769 -2.0610785 1.3554215e-38
-1.6208198 1.7546977 -2.0539055 1.34613e-38
-1.6197083 1.7630184 -2.0467324 1.3461656e-38
-1.6376858 1.6862396 -2.0872164 1.364785e-38
-1.6365839 1.6944877 -2.080106 1.3738613e-38
-1.635482 1.7027359 -2.0729954 1.3738966e-38
-1.6343802 1.710984 -2.0658848 1.3370552e-38
-1.6263001 1.7340769 -2.062608 1.3461303e-38
-1.6251886 1.7423975 -2.0554349 1.3185793e-38
-1.6240772 1.7507184 -2.0482616 1.3461656e-38
-1.6376091 1.7070394 -2.0602903 1.327871e-38
-1.6365073 1.7152876 -2.0531795 1.3370184e-38
-1.6354058 1.7235359 -2.0460689 1.34613e-38
-1.6343038 1.7317841 -2.0389583 1.3185793e-38
-1.633202 1.7400323 -2.0318477 1.3277988e-38
-1.6464154 1.6969583 -2.0441463 1.3370903e-38
-1.6364307 1.7360876 -2.026253 1.3277985e-38
-1.6205883 1.8176459 -1.9724163 1.1801041e-38
-1.6150525 1.8326894 -1.9711877 6.3614788e-39
-1.5971884 1.8933277 -1.951418 6.0841675e-39
-1.6012851 1.88965 -1.9425862 6.1763687e-39
-1.6053816 1.8859724 -1.9337543 6.4529486e-39
-1.6154583 1.7634624 -2.0603018 1.1065638e-38
-1.6080176 1.7727324 -2.0729587 7.744786e-39
-1.6060352 1.7814445 -2.0681729 7.744786e-39
-1.604053 1.7901568 -2.0633872 7.6522317e-39
-1.6080514 1.7865673 -2.0547669 7.6522317e-39
-1.5902112 1.8649777 -2.0116942 6.3622019e-39
-1.6140318 1.7742655 -2.0509329 7.4699914e-39
-1.6120493 1.7829777 -2.0461471 7.7447804e-39
-1.6180301 1.770676 -2.0423126 7.5618339e-39
-1.5865602 1.8912253 -1.9895487 6.6384385e-39
-1.6220282 1.7670864 -2.0336928 7.4699914e-39
-1.5985823 1.8524811 -2.0001559 6.4536787e-39
-1.6260267 1.763497 -2.0250726 7.744786e-39
-1.6026123 1.8488631 -1.9914672 6.3621991e-39
-1.5907414 1.8826969 -1.9867741 6.3614788e-39
-1.5886263 1.9103339 -1.9576999 3.6867364e-39
-1.6066424 1.845245 -1.9827787 6.4533255e-39
-1.5926564 1.9067158 -1.9490113 4.1455467e-39
-1.6069257 1.8399851 -1.9887081 6.3611285e-39
-1.5928245 1.9019629 -1.9546624 6.9149875e-39
-1.6109891 1.8363373 -1.979948 6.6369909e-39
-1.5930921 1.8970057 -1.96025 5.8072261e-39
-1.5968877 1.8983151 -1.9459022 5.8068757e-39
-1.6069944 1.8681054 -1.951733 6.5451442e-39
-1.6110576 1.8644574 -1.9429727 6.6373413e-39
-1.5946544 1.8979342 -1.9538352 7.4674733e-39
-1.5992194 1.8844014 -1.9563215 6.4525955e-39
-1.6130378 1.8415434 -1.9663241 6.2703552e-39
-1.6110234 1.8503973 -1.9614605 6.2700021e-39
-1.6150867 1.8467494 -1.9527001 6.2700021e-39
-1.5925543 1.8648808 -2.0040205 6.3614788e-39
-1.5905563 1.8736624 -1.9991966 6.5465932e-39
-1.5885581 1.8824438 -1.9943725 6.5447911e-39
-1.5965842 1.8612626 -1.9953318 6.4533255e-39
-1.5945863 1.8700444 -1.9905081 6.4547479e-39
-1.5925882 1.8788258 -1.985684 6.5447911e-39
-1.6006142 1.8576447 -1.9866433 6.3622019e-39
-1.5986161 1.8664262 -1.9818193 6.4547479e-39
-1.6046443 1.8540266 -1.9779547 6.4533255e-39
-1.6026462 1.8628081 -1.9731308 6.3622019e-39
-1.5948046 1.8790491 -1.9780138 6.5447911e-39
-1.6049113 1.8488392 -1.9838446 6.3611285e-39
-1.5971193 1.8649777 -1.9886957 6.4533255e-39
-1.6008824 1.8665471 -1.9741172 6.5455212e-39
-1.5988679 1.8754011 -1.9692534 6.5447911e-39
-1.6089746 1.8451912 -1.9750844 6.0863395e-39
-1.6069603 1.8540453 -1.9702207 6.3618488e-39
-1.6049458 1.8628994 -1.9653571 6.6369909e-39
-1.6029313 1.8717533 -1.9604932 6.5447911e-39
-1.609009 1.8592514 -1.9565967 6.6369909e-39
-1.6171013 1.8378954 -1.9575638 6.6369909e-39
-1.6130722 1.8556035 -1.9478364 6.5458477e-39
-1.5785682 1.9263515 -1.9702531 4.4260909e-39
-1.5825982 1.9227335 -1.9615647 3.9651127e-39
-1.5906584 1.9154973 -1.9441874 3.3175951e-39
-1.5948733 1.907169 -1.9410386 5.8994217e-39
-1.5989366 1.9035212 -1.9322784 4.7956021e-39
-1.7856171 0.98720211 -2.5082192 1.8076476e-38
-1.7817796 0.9951998 -2.5105436 1.7800252e-38
-1.7713163 0.98397452 -2.5600471 9.2368648e-39
-1.7826102 0.98685354 -2.5186858 1.1901888e-38
-1.7522991 1.1024098 -2.4685898 1.043e-38
-1.7402691 1.1367322 -2.4637868 1.0156663e-38
-1.7383785 1.1450416 -2.4592223 1.4853579e-38
-1.7345976 1.1616601 -2.4500933 1.8452818e-38
-1.6262231 1.7550597 -2.035445 1.3277641e-38
-1.6120824 1.7792976 -2.0508471 1.3369108e-38
-1.6153395 1.7753184 -2.0452034 1.3185793e-38
-1.6120052 1.8002805 -2.0236838 1.2908483e-38
-1.6174855 1.7796596 -2.0323863 1.3093594e-38
-1.616374 1.7879804 -2.025213 1.3092878e-38
-1.6229656 1.7590389 -2.0410888 1.3185424e-38
-1.6218541 1.7673596 -2.0339155 1.3185074e-38
-1.6207427 1.7756803 -2.0267425 1.3185071e-38
-1.6235017 1.7808119 -2.0108514 1.0603941e-38
-1.6220104 1.7893302 -2.0046847 1.0603221e-38
-1.6251115 1.7633803 -2.0282717 1.3369461e-38
-1.624 1.771701 -2.0210989 1.2908127e-38
-1.6271211 1.7769638 -2.0038304 1.0695775e-38
-1.6256267 1.785484 -1.9976716 1.0695418e-38
-1.6342275 1.7525841 -2.0120318 1.3369461e-38
-1.6331257 1.7608322 -2.0049214 1.2815937e-38
-1.6320238 1.7690804 -1.9978107 1.2908846e-38
-1.6147435 1.7827048 -2.0375352 1.0788335e-38
-1.612653 1.8017898 -2.0195549 1.0511384e-38
-1.6183407 1.7788503 -2.0305965 1.0696502e-38
-1.6168631 1.7873366 -2.0244257 1.0604302e-38
-1.6234233 1.766511 -2.0298007 1.0880172e-38
-1.6189822 1.7919732 -2.0113122 1.0603221e-38
-1.6169107 1.8016964 -2.0055025 1.0510663e-38
-1.6205192 1.7978489 -1.9985173 1.0510665e-38
-1.6241325 1.7940038 -1.9915124 1.0419182e-38
-1.6020709 1.7988691 -2.0586011 7.6522317e-39
-1.6000885 1.8075813 -2.0538154 7.3760035e-39
-1.6060692 1.7952797 -2.0499811 7.4681991e-39
-1.6040869 1.8039919 -2.0451951 7.3760035e-39
-1.6021047 1.8127042 -2.0404093 7.1919654e-39
-1.6001223 1.8214165 -2.0356236 7.0072154e-39
-1.6100674 1.79169 -2.0413611 7.3760035e-39
-1.608085 1.8004023 -2.0365753 7.3763566e-39
-1.6061028 1.8091146 -2.0317893 7.284161e-39
-1.6041206 1.817827 -2.0270035 6.9153715e-39
-1.6160479 1.7793882 -2.0375268 7.7447804e-39
-1.6140655 1.7881006 -2.0327411 7.6525848e-39
-1.6120834 1.7968128 -2.0279551 7.4685523e-39
-1.610101 1.8055251 -2.0231693 7.284161e-39
-1.6081189 1.8142374 -2.0183835 6.9146652e-39
-1.6061367 1.8229498 -2.0135975 6.7309872e-39
-1.6180639 1.784511 -2.024121 7.4681991e-39
-1.6160816 1.7932233 -2.019335 7.4685523e-39
-1.6140994 1.8019357 -2.0145493 7.1919654e-39
-1.6121171 1.8106478 -2.0097632 7.0072154e-39
-1.6200799 1.7896336 -2.010715 7.4685495e-39
-1.6161155 1.8070583 -2.0011432 7.0064951e-39
-1.6141332 1.8157706 -1.9963573 6.6387888e-39
-1.6260602 1.7773319 -2.0068808 7.2856072e-39
-1.6220959 1.7947565 -1.997309 7.3752776e-39
-1.6146343 1.8101189 -2.0020742 7.0986922e-39
-1.6266564 1.7713746 -2.0126812 7.7447804e-39
-1.6246585 1.7801561 -2.0078576 7.6525848e-39
-1.6306866 1.7677566 -2.0039928 7.6525848e-39
-1.5906925 1.9294424 -1.925851 5.1603797e-39
-1.5746402 1.9718045 -1.9239326 5.350215e-39
-1.5786703 1.9681866 -1.915244 5.3476969e-39
-1.5726084 1.9666412 -1.937445 4.2399102e-39
-1.5746598 1.9675885 -1.9293768 1.2893291e-39
-1.5787233 1.9639407 -1.9206166 6.4536941e-40
-1.5951576 1.9022542 -1.9465146 5.6231949e-39
-1.5992541 1.8985764 -1.9376826 5.8075792e-39
-1.5908099 1.9108169 -1.9497988 6.0841675e-39
-1.6228113 1.8010045 -1.9867624 1.2446057e-38
-1.6089402 1.8311312 -1.9935719 6.5458743e-39
-1.6228985 1.8094698 -1.97541 9.5883427e-39
-1.5925201 1.8509358 -2.022357 6.7299054e-39
-1.6001899 1.8490864 -1.9992399 6.6369909e-39
-1.6101687 1.8331951 -1.9867857 6.4536787e-39
-1.6106384 1.827682 -1.9924265 6.5465932e-39
-1.6086403 1.8364635 -1.9876026 6.5455212e-39
-1.6186985 1.8204458 -1.9750493 6.5458743e-39
-1.5965163 1.8333728 -2.0320048 6.7309872e-39
-1.5945182 1.8421541 -2.0271809 6.7299054e-39
-1.6041545 1.8316618 -2.0088115 6.7299054e-39
-1.6021723 1.8403742 -2.0040257 6.7299054e-39
-1.6045762 1.8261366 -2.0146275 6.7309872e-39
-1.6081526 1.8280723 -2.0001915 6.5465932e-39
-1.6061703 1.8367846 -1.9954057 6.5465932e-39
-1.6121509 1.8244828 -1.9915715 6.5465932e-39
-1.6126363 1.8189005 -1.9972503 6.8221011e-39
-1.6166664 1.8152823 -1.9885617 6.8221011e-39
-1.6206965 1.8116643 -1.9798732 6.8221011e-39
-1.5786023 1.9402965 -1.9519167 4.056958e-39
-1.5887955 1.9196708 -1.9449351 4.608334e-39
-1.5928588 1.916023 -1.9361749 5.345899e-39
-1.5685443 1.9563143 -1.9644701 4.7927252e-39
-1.5745723 1.9439147 -1.9606054 5.2540523e-39
-1.5725743 1.9526961 -1.9557815 5.1615063e-39
-1.5705763 1.9614776 -1.9509575 5.1629553e-39
-1.5766042 1.9490781 -1.9470929 4.3338939e-39
-1.5746063 1.9578595 -1.942269 4.1502327e-39
-1.5826323 1.9366784 -1.9432282 3.4115886e-39
-1.5806345 1.9454602 -1.9384043 3.5044933e-39
-1.5786363 1.9542415 -1.9335804 3.5044933e-39
-1.5866624 1.9330605 -1.9345397 2.7633522e-39
-1.5826664 1.9506235 -1.9248917 1.5669768e-39
-1.5908443 1.9248768 -1.9313111 7.0986922e-39
-1.5947225 1.9258243 -1.9171623 4.0551602e-39
-1.5907264 1.9433873 -1.9075145 9.219563e-40
-1.5887284 1.9521688 -1.9026905 4.6097815e-40
-1.5949075 1.921229 -1.9225508 5.4412994e-39
-1.592893 1.9300829 -1.9176872 3.226847e-39
-1.5947564 1.9397691 -1.8988259 1.1063476e-39
-1.5951922 1.9164292 -1.9278758 4.7030365e-39
-1.5931612 1.9253556 -1.9229723 4.7008799e-39
-1.6010197 1.9227872 -1.9001666 6.0834094e-39
-1.5765703 1.935133 -1.9654292 4.9792633e-39
-1.5806004 1.931515 -1.9567407 4.1498627e-39
-1.5969222 1.9123751 -1.9274148 5.2537034e-39
-1.6328194 1.844032 -1.8972154 1.0970927e-38
-1.572472 1.9108611 -2.0107908 8.4827014e-39
-1.5765021 1.907243 -2.0021021 9.4035815e-39
-1.5845623 1.9000069 -1.9847249 9.0351717e-39
-1.6212331 1.8623676 -1.9118284 6.4536787e-39
-1.6273108 1.8498659 -1.9079317 6.6369909e-39
-1.6252965 1.8587197 -1.9030681 6.4536787e-39
-1.6293597 1.8550719 -1.8943077 6.4533255e-39
-1.6334231 1.851424 -1.8855475 6.4536787e-39
-1.6374862 1.8477759 -1.8767872 6.4536787e-39
-1.6236914 1.8556322 -1.9124463 1.0970927e-38
-1.5543283 1.9387885 -2.0346994 4.8852796e-39
-1.5583265 1.935199 -2.0260794 4.7927252e-39
-1.5663229 1.92802 -2.0088394 4.7927252e-39
-1.611509 1.8733683 -1.9298257 6.4536787e-39
-1.5885923 1.8963889 -1.9760363 7.1919598e-39
-1.5887269 1.8915509 -1.9819102 5.1636559e-39
-1.5926223 1.8927709 -1.9673476 7.1930164e-39
-1.5927902 1.887903 -1.9731501 5.9912684e-39
-1.5968534 1.8842551 -1.9643898 6.1763687e-39
-1.5951229 1.8880793 -1.9651535 6.1763687e-39
-1.6033159 1.8807238 -1.9474896 6.5451442e-39
-1.5865942 1.9051703 -1.9712124 5.6231949e-39
-1.5907756 1.8967569 -1.9682864 6.9146344e-39
-1.594839 1.893109 -1.9595261 5.8068757e-39
-1.6074123 1.877046 -1.9386576 6.6373413e-39
-1.7421062 1.130689 -2.4655683 2.1392999e-38
-1.7410322 1.138728 -2.458638 2.047284e-38
-1.7967891 0.98415923 -2.4750037 2.3418049e-38
-1.6441619 1.4971107 -2.3128066 1.2729105e-38
-1.7949518 0.98782271 -2.4763329 1.4848579e-38
-1.7887735 0.99915624 -2.4820902 1.5218433e-38
-1.7865222 1.005827 -2.4808674 1.4945071e-38
-1.7983975 0.97856832 -2.4769552 2.3509886e-38
-1.7974973 0.98759103 -2.4681606 1.7151633e-38
-1.7885036 1.0101962 -2.4685619 1.6050341e-38
-1.7402089 1.143312 -2.4553895 1.8811514e-38
-1.7391181 1.1650437 -2.4306216 1.9455437e-38
-1.7399584 1.1467673 -2.4517076 1.8998799e-38
-1.7388846 1.1548063 -2.4447775 1.798537e-38
-1.7407792 1.1619673 -2.4291117 1.6694268e-38
-1.7393589 1.1701701 -2.4231215 1.6602796e-38
-1.7597291 1.0949174 -2.4536438 1.4576287e-38
-1.7501233 1.0996705 -2.479413 1.3469934e-38
-1.7478777 1.1130272 -2.4694338 1.3378809e-38
-1.7465216 1.1214919 -2.4628875 1.3286979e-38
-1.7430961 1.1305143 -2.4625008 1.3563563e-38
-1.7488127 1.1335695 -2.4394772 1.3841965e-38
-1.7507972 1.1384827 -2.4264498 1.2734182e-38
-1.7466828 1.1495137 -2.4257321 1.421112e-38
-1.740958 1.1590008 -2.4323943 1.4487347e-38
-1.742828 1.166471 -2.4164059 1.2459399e-38
-1.7414044 1.174675 -2.4104245 1.3196611e-38
-1.7514894 1.1090174 -2.4626508 1.752332e-38
-1.750132 1.1174836 -2.4561057 1.761588e-38
-1.7487748 1.1259496 -2.4495609 1.8076491e-38
-1.7496496 1.1320957 -2.4386158 1.9551977e-38
-1.7482927 1.1405624 -2.4320712 1.9920038e-38
-1.7517494 1.0938442 -2.4816122 1.7431483e-38
-1.750157 1.1027075 -2.4753313 1.7430401e-38
-1.7525945 1.1073834 -2.4611073 1.8445625e-38
-1.751002 1.1162468 -2.4548264 1.8722572e-38
-1.7566241 1.1031954 -2.4531641 1.8905887e-38
-1.7518466 1.1297855 -2.4343214 1.9366861e-38
-1.7554578 1.0966485 -2.4656022 1.1901888e-38
-1.7535672 1.1049577 -2.4610376 1.2270298e-38
-1.7516769 1.1132669 -2.4564731 1.20852e-38
-1.7497863 1.1215762 -2.4519086 1.2177752e-38
-1.7417364 1.1394916 -2.455296 1.20852e-38
-1.7398316 1.1478639 -2.4506969 1.2269947e-38
-1.7379266 1.1562361 -2.4460979 1.22703e-38
-1.7360218 1.1646082 -2.441499 1.1531676e-38
-1.734117 1.1729804 -2.4368999 1.098066e-38
-1.7573804 1.1015341 -2.4528162 1.1810761e-38
-1.7554901 1.1098434 -2.448252 1.1809692e-38
-1.7517091 1.126462 -2.4391229 1.2271019e-38
-1.7417688 1.1527865 -2.4378145 1.2269947e-38
-1.7398639 1.1611587 -2.4332154 1.2269228e-38
-1.7593032 1.1064198 -2.4400306 1.4390071e-38
-1.7532306 1.1158482 -2.447927 1.3468125e-38
-1.7555223 1.1230383 -2.4309015 1.2914601e-38
-1.7494209 1.1325927 -2.4387288 1.22703e-38
-1.7456111 1.1493371 -2.4295306 1.1902238e-38
-1.7392395 1.1592149 -2.4378343 1.226995e-38
-1.7373198 1.1676534 -2.4331987 1.2362496e-38
-1.7570728 1.1123989 -2.4396434 1.4850332e-38
-1.7551678 1.1207711 -2.4350443 1.5219116e-38
-1.7574451 1.1279242 -2.4181156 1.540423e-38
-1.751358 1.1375154 -2.4258463 1.5312753e-38
-1.7373525 1.1810534 -2.4155791 1.2271017e-38
-1.7354325 1.1894916 -2.4109435 1.2271017e-38
-1.7469846 1.1522616 -2.4211361 1.4572317e-38
-1.7412249 1.1775767 -2.4072299 1.513016e-38
-1.7393049 1.1860149 -2.4025946 1.4852494e-38
-1.737385 1.1944534 -2.397959 1.4574821e-38
-1.7838355 1.0028211 -2.4937406 1.4485179e-38
-1.7881626 0.9956677 -2.4886825 2.0100812e-38
-1.7364881 1.1533508 -2.4546578 8.138834e-39
-1.7421918 1.141618 -2.4510012 1.0979574e-38
-1.7403013 1.1499273 -2.4464366 1.1257593e-38
-1.7901185 0.98011303 -2.5024986 1.2179922e-38
-1.5240434 1.9263879 -2.151727 6.4540444e-39
-1.5280735 1.9227699 -2.1430383 6.4540444e-39
-1.5114903 1.9468012 -2.1668429 6.3636495e-39
-1.5094758 1.9556551 -2.1619792 6.2718041e-39
-1.5155536 1.9431533 -2.1580827 6.4558451e-39
-1.5135391 1.9520072 -2.153219 6.6387888e-39
-1.5320356 1.8912618 -2.1710224 6.7309872e-39
-1.5260075 1.9036614 -2.1748872 6.3639998e-39
-1.5240096 1.9124429 -2.1700633 6.5465932e-39
-1.5300376 1.9000434 -2.1661987 6.3639998e-39
-1.5280397 1.9088249 -2.1613746 6.5462428e-39
-1.5260416 1.9176065 -2.1565509 6.4540444e-39
-1.5320697 1.9052069 -2.1526861 6.6384385e-39
-1.5103811 1.9921083 -2.1113286 5.3462493e-39
-1.7268062 1.1108676 -2.542407 2.3509886e-38
-1.7272806 1.120533 -2.5281963 2.3509886e-38
-1.725929 1.1290089 -2.5216205 2.3234379e-38
-1.7235568 1.1351941 -2.5214357 2.3509886e-38
-1.7208567 1.169332 -2.4858129 1.9733119e-38
-1.7210751 1.1782861 -2.4733851 2.0378131e-38
-1.7181468 1.1863039 -2.4726558 1.9551258e-38
-1.7159743 1.1919553 -2.4725029 1.9827846e-38
-1.7194226 1.1973667 -2.4539526 1.8724009e-38
-1.718017 1.2055792 -2.4479001 2.1575956e-38
-1.7127249 1.2162817 -2.4515319 2.0287022e-38
-1.7092805 1.2268103 -2.44924 1.6420937e-38
-1.7387111 1.0913243 -2.5283117 1.7983924e-38
-1.7358456 1.0990793 -2.5277171 1.6785751e-38
-1.7344974 1.1075249 -2.5211694 1.6694991e-38
-1.7331491 1.11597 -2.5146224 1.6879024e-38
-1.727814 1.1232071 -2.5229263 1.826268e-38
-1.7267307 1.1313159 -2.5159357 1.8262316e-38
-1.7240957 1.1427613 -2.5097518 1.7063415e-38
-1.7245647 1.1475335 -2.501955 1.8354516e-38
-1.7234814 1.1556423 -2.4949646 1.8722219e-38
-1.7222062 1.1660434 -2.4856174 1.8536387e-38
-1.7208462 1.1745627 -2.479013 1.8720417e-38
-1.719486 1.183082 -2.4724088 1.8629658e-38
-1.7225091 1.1860894 -2.4584136 1.6141818e-38
-1.7180654 1.1961861 -2.4600124 2.0012955e-38
-1.7169825 1.204295 -2.453022 1.9644171e-38
-1.7158992 1.2124037 -2.4460318 2.0288466e-38
-1.7113568 1.2313724 -2.4363666 1.660207e-38
-1.7099283 1.2396803 -2.4302654 1.64184e-38
-1.7401819 1.0859494 -2.5304389 1.9182841e-38
-1.7391082 1.0939885 -2.5235085 1.9182841e-38
-1.7380342 1.1020277 -2.5165782 1.9367589e-38
-1.7369606 1.1100669 -2.5096478 1.9458702e-38
-1.7313212 1.1168569 -2.5195484 1.8353074e-38
-1.7290925 1.130205 -2.5095251 1.8261597e-38
-1.728822 1.1355468 -2.5034454 1.9735648e-38
-1.7277387 1.1436554 -2.496455 1.9735648e-38
-1.7266556 1.1517644 -2.4894645 2.0103354e-38
-1.7255725 1.1598731 -2.4824741 1.982749e-38
-1.7244893 1.167982 -2.4754839 2.0104075e-38
-1.7234061 1.1760907 -2.4684935 2.0104077e-38
-1.7245743 1.190594 -2.4456515 1.6878301e-38
-1.7231574 1.1988344 -2.4396009 1.7154885e-38
-1.7401074 1.106222 -2.5041952 1.9275396e-38
-1.7390336 1.114261 -2.4972646 1.946014e-38
-1.7379597 1.1223001 -2.4903345 1.9459784e-38
-1.7319963 1.1316688 -2.4979453 1.946014e-38
-1.7309133 1.1397775 -2.4909549 1.9367589e-38
-1.72983 1.1478864 -2.4839644 1.9459787e-38
-1.7287469 1.1559952 -2.476974 1.9735651e-38
-1.7276636 1.1641039 -2.4699838 2.0104075e-38
-1.7265804 1.1722127 -2.4629934 2.0104072e-38
-1.716182 1.2147832 -2.4419813 2.1301888e-38
-1.7453564 1.0791156 -2.5221426 2.0472493e-38
-1.7439981 1.0876074 -2.5155687 2.0472496e-38
-1.7426393 1.0960991 -2.5089948 2.0379581e-38
-1.7399222 1.1130822 -2.4958472 2.0103358e-38
-1.731921 1.1521171 -2.4714739 2.3509886e-38
-1.7308378 1.1602259 -2.4644837 2.3509886e-38
-1.7380688 1.0691315 -2.5594523 1.7529081e-38
-1.7317541 1.1042761 -2.5345473 2.3509886e-38
-1.7301756 1.1130623 -2.5283213 2.158134e-38
-1.7342225 1.1254581 -2.4986491 1.6328342e-38
-1.7325351 1.1340784 -2.4930024 1.8720766e-38
-1.7378293 1.116351 -2.498543 1.836062e-38
-1.7114875 1.2357643 -2.430192 1.5319997e-38
-1.7095525 1.2442687 -2.4255202 2.1948647e-38
-1.7076176 1.2527732 -2.4208486 2.0938492e-38
-1.7317708 1.1930139 -2.4185317 1.7342169e-38
-1.7306874 1.2011225 -2.4115412 1.8262333e-38
-1.7274383 1.2254491 -2.3905699 2.0105874e-38
-1.7312932 1.2313523 -2.3700216 2.0750875e-38
-1.7322148 1.2403823 -2.3551528 1.7523652e-38
-1.7365878 1.2114296 -2.3784294 2.2131994e-38
-1.7355139 1.2194687 -2.3714991 2.2591531e-38
-1.7344401 1.2275078 -2.3645689 2.2867037e-38
-1.7321795 1.1680576 -2.4497826 8.3163771e-39
-1.7231963 1.2252524 -2.4049485 1.273056e-38
-1.7173911 1.2507658 -2.3909335 1.3191178e-38
-1.7316253 1.2197684 -2.384053 1.2547964e-38
-1.7154893 1.2727753 -2.368504 1.3744352e-38
-1.7135544 1.2812798 -2.3638322 1.4389358e-38
-1.7116193 1.2897842 -2.3591607 1.4481551e-38
-1.731002 1.2182447 -2.3881197 1.5957773e-38
-1.7290672 1.2267493 -2.3834479 1.5313479e-38
-1.7271321 1.2352537 -2.3787763 1.503652e-38
-1.7251971 1.2437581 -2.3741045 1.4481551e-38
-1.7232622 1.2522626 -2.3694329 1.4204607e-38
-1.7174574 1.277776 -2.3554177 1.4021294e-38
-1.7155225 1.2862805 -2.3507459 1.4481919e-38
-1.7135873 1.2947848 -2.3460743 1.475743e-38
-1.7310351 1.2317498 -2.3703616 1.2731654e-38
-1.732707 1.1699693 -2.445529 2.3509886e-38
-1.7283701 1.1848022 -2.4405844 1.2836875e-38
-1.7176495 1.2210095 -2.4289594 1.6694271e-38
-1.7217404 1.2070748 -2.4335501 1.7062689e-38
-1.7203233 1.215315 -2.4274991 1.7062689e-38
-1.7148635 1.2276298 -2.4295826 1.7431468e-38
-1.7134321 1.235939 -2.4234898 1.7523302e-38
-1.7150896 1.2229617 -2.434931 2.2130201e-38
-1.7286716 1.1764435 -2.4505029 2.3509886e-38
-1.7275883 1.1845521 -2.4435124 2.3509886e-38
-1.7265053 1.192661 -2.436522 2.3509886e-38
-1.7200062 1.2413137 -2.3945794 2.2131994e-38
-1.7076507 1.2662781 -2.4030905 1.3294253e-38
-1.7057157 1.2747827 -2.3984189 2.3234367e-38
-1.6969315 1.3080516 -2.3841875 1.3569025e-38
-1.7294791 1.1786208 -2.4449694 1.7154885e-38
-1.7280588 1.1868622 -2.4389279 1.7155241e-38
-1.7266387 1.1951038 -2.4328856 1.7431106e-38
-1.7268004 1.201933 -2.4234238 1.7339272e-38
-1.7254219 1.2007698 -2.4295316 2.3509886e-38
-1.7243389 1.2088786 -2.4225411 2.3509886e-38
-1.7189231 1.2494226 -2.3875892 2.1487711e-38
-1.7307626 1.1806742 -2.4380124 1.7246733e-38
-1.7296796 1.188783 -2.4310219 1.7247089e-38
-1.7285964 1.1968918 -2.4240317 1.6510966e-38
-1.7275133 1.2050008 -2.4170411 1.6510969e-38
-1.7264303 1.2131095 -2.4100506 1.6511322e-38
-1.7296045 1.2092314 -2.4045508 1.8906979e-38
-1.7226553 1.2099189 -2.4267871 2.3509886e-38
-1.7303072 1.1897249 -2.4277017 1.0060499e-38
-1.7199751 1.2167984 -2.4267197 9.0575505e-39
-1.7315272 1.1795684 -2.4369125 1.20852e-38
-1.7142482 1.2555135 -2.3951938 6.7573513e-39
-1.7212282 1.2202519 -2.4180348 1.2269231e-38
-1.7154235 1.2457653 -2.4040196 1.2269947e-38
-1.7134883 1.2542697 -2.3993478 1.2362143e-38
-1.7115533 1.2627742 -2.3946762 1.1440913e-38
-1.7096184 1.2712787 -2.3900044 1.1072476e-38
-1.7076836 1.2797831 -2.3853328 1.0430356e-38
-1.7038137 1.296792 -2.3759894 1.0716333e-38
-1.7315925 1.2063683 -2.4016728 1.2731276e-38
-1.7296729 1.2148068 -2.3970375 1.2454341e-38
-1.7212615 1.233757 -2.4002769 1.2731276e-38
-1.7193265 1.2422614 -2.3956051 1.2730207e-38
-1.7154565 1.2592704 -2.3862617 1.2914598e-38
-1.7135214 1.2677748 -2.3815899 1.3375929e-38
-1.7115866 1.2762792 -2.3769181 1.3283029e-38
-1.7096517 1.2847837 -2.3722465 1.3560689e-38
-1.7077168 1.2932882 -2.3675747 1.3560689e-38
-1.7251642 1.230253 -2.3918624 1.254868e-38
-1.7232293 1.2387575 -2.3871906 1.2823474e-38
-1.7212943 1.247262 -2.382519 1.3376648e-38
-1.7145547 1.258118 -2.3907702 1.3376648e-38
-1.7126036 1.2666916 -2.3860607 1.3468841e-38
-1.630406 1.4992869 -2.3557584 3.3720846e-41
-1.62596 1.5325698 -2.3270659 2.3509886e-38
-1.6248484 1.5408903 -2.3198929 2.3509886e-38
-1.6314402 1.5119488 -2.3357685 2.3509886e-38
-1.6303287 1.5202696 -2.3285954 2.3509886e-38
-1.6471118 1.4538542 -2.3595126 2.3509886e-38
-1.6460098 1.4621023 -2.3524022 2.3509886e-38
-1.6391435 1.4746869 -2.3588171 2.3509886e-38
-1.6503406 1.4499096 -2.3539183 2.3509886e-38
-1.6492387 1.4581578 -2.3468077 2.3509886e-38
-1.6312084 1.5748974 -2.2542789 1.4016275e-38
-1.6862404 1.3025186 -2.4270098 2.3509886e-38
-1.6851387 1.3107669 -2.4198992 2.3509886e-38
-1.678616 1.322021 -2.4269071 2.3509886e-38
-1.6885424 1.2681175 -2.4643021 2.3509886e-38
-1.6874307 1.2764382 -2.457129 2.3509886e-38
-1.6863191 1.2847588 -2.4499559 2.3509886e-38
-1.6852077 1.2930796 -2.4427829 2.3509886e-38
-1.6840963 1.3014003 -2.4356096 2.3509886e-38
-1.6829849 1.309721 -2.4284365 2.3509886e-38
-1.6818733 1.3180416 -2.4212635 2.3509886e-38
-1.6949021 1.278133 -2.4300416 2.0933469e-38
-1.6884651 1.2891004 -2.437139 2.1577753e-38
-1.6873536 1.297421 -2.4299657 2.213056e-38
-1.686242 1.3057417 -2.4227929 2.3326215e-38
-1.6851306 1.3140624 -2.4156196 2.3509886e-38
-1.684019 1.322383 -2.4084468 2.3509886e-38
-1.6992327 1.2659401 -2.4315577 2.1761424e-38
-1.6981307 1.2741883 -2.4244471 2.2222395e-38
-1.6882334 1.3520485 -2.3556495 2.3509886e-38
-1.6871223 1.3603692 -2.3484766 2.3509886e-38
-1.6380656 1.4816202 -2.353344 2.3509886e-38
-1.6360676 1.4904016 -2.3485203 2.3509886e-38
-1.6454101 1.4965191 -2.3094244 1.0984333e-38
-1.6883446 1.355401 -2.350899 1.8445963e-38
-1.6824473 1.3813205 -2.3366609 2.194652e-38
-1.648192 1.4934926 -2.3041179 1.5399547e-38
-1.6811916 1.3812033 -2.3409944 2.3509886e-38
-1.6792092 1.3899155 -2.3362086 2.3509886e-38
-1.6772273 1.3986278 -2.3314226 2.3509886e-38
-1.6752449 1.4073402 -2.3266368 2.3509886e-38
-1.6732627 1.4160522 -2.321851 2.3509886e-38
-1.6712805 1.4247646 -2.317065 2.3509886e-38
-1.6622118 1.4459667 -2.3195486 2.3509886e-38
-1.6602138 1.4547483 -2.3147249 2.3509886e-38
-1.658216 1.4635298 -2.309901 2.3509886e-38
-1.6562181 1.4723114 -2.3050773 2.3509886e-38
-1.6542199 1.4810929 -2.3002532 1.9732368e-38
-1.652222 1.4898745 -2.2954292 1.8347646e-38
-1.6891541 1.3601891 -2.3419464 2.2038353e-38
-1.6871721 1.3689014 -2.3371603 2.3509886e-38
-1.6812252 1.3950381 -2.3228028 2.3509886e-38
-1.6792432 1.4037507 -2.3180168 2.3509886e-38
-1.677261 1.4124629 -2.313231 2.3509886e-38
-1.670238 1.4247856 -2.320508 2.3509886e-38
-1.6682398 1.433567 -2.3156841 2.3509886e-38
-1.6662419 1.4423487 -2.3108602 2.3509886e-38
-1.6642441 1.4511303 -2.3060362 2.3509886e-38
-1.6622461 1.4599119 -2.3012123 2.3509886e-38
-1.660248 1.4686933 -2.2963886 2.3509886e-38
-1.6528813 1.481684 -2.3039374 2.1667042e-38
-1.6562521 1.4862565 -2.2867405 2.0745096e-38
-1.6911703 1.3653119 -2.3285401 2.3509886e-38
-1.6891881 1.3740242 -2.3237543 2.3509886e-38
-1.6852237 1.3914489 -2.3141828 2.3509886e-38
-1.6812592 1.4088732 -2.304611 2.3509886e-38
-1.6742681 1.4211676 -2.3118196 2.3509886e-38
-1.6722699 1.429949 -2.3069954 2.3509886e-38
-1.670272 1.4387307 -2.3021715 2.3509886e-38
-1.668274 1.4475121 -2.2973478 2.3509886e-38
-1.6662762 1.4562938 -2.2925236 2.3509886e-38
-1.6642781 1.4650753 -2.2876999 2.3509886e-38
-1.66228 1.4738568 -2.282876 2.3509886e-38
-1.660282 1.4826384 -2.2780521 2.3142532e-38
-1.6802959 1.4087679 -2.3079548 2.3509886e-38
-1.678298 1.4175494 -2.3031309 2.3509886e-38
-1.6763 1.4263309 -2.2983069 2.3509886e-38
-1.6743019 1.4351126 -2.293483 2.3509886e-38
-1.672304 1.4438941 -2.2886591 2.3509886e-38
-1.670306 1.4526757 -2.2838352 2.3509886e-38
-1.6683083 1.4614573 -2.2790112 2.3509886e-38
-1.6610079 1.4743882 -2.286417 2.3509886e-38
-1.6589935 1.4832423 -2.2815533 2.3509886e-38
-1.686324 1.3963683 -2.30409 1.9551991e-38
-1.6843263 1.4051498 -2.2992663 2.3509886e-38
-1.6823283 1.4139315 -2.2944422 2.3509886e-38
-1.6803302 1.4227129 -2.2896183 2.3509886e-38
-1.6783324 1.4314946 -2.2847946 2.3509886e-38
-1.676334 1.440276 -2.2799706 2.3509886e-38
-1.6743362 1.4490577 -2.2751465 2.3509886e-38
-1.6161112 1.5654905 -2.3168342 1.4016628e-38
-1.6149995 1.5738112 -2.3096611 1.4108825e-38
-1.6127768 1.5904527 -2.2953148 1.456908e-38
-1.6116652 1.5987734 -2.288142 1.4476166e-38
-1.6105537 1.607094 -2.2809687 1.4568727e-38
-1.6094424 1.6154147 -2.2737956 1.4844235e-38
-1.6204799 1.5531905 -2.3183634 1.1717846e-38
-1.6193683 1.561511 -2.3111904 1.3924079e-38
-1.6138109 1.6031145 -2.2753251 1.4568727e-38
-1.6126995 1.6114354 -2.2681518 1.4843516e-38
-1.6104766 1.6280768 -2.2538056 1.4568724e-38
-1.6093651 1.6363974 -2.2466326 1.4568724e-38
-1.628183 1.5159283 -2.3414123 1.0337585e-38
-1.6148454 1.6157767 -2.2553351 1.4475813e-38
-1.6137338 1.6240973 -2.2481618 1.456908e-38
-1.6126224 1.632418 -2.2409887 1.4476529e-38
-1.6115112 1.6407388 -2.2338157 1.4476529e-38
-1.6103996 1.6490595 -2.2266424 1.4383617e-38
-1.609288 1.6573802 -2.2194693 1.4383617e-38
-1.6081766 1.6657009 -2.2122962 1.4476529e-38
-1.6169913 1.6201181 -2.2425179 1.4476529e-38
-1.621847 1.6227628 -2.2228954 1.4384333e-38
-1.6207454 1.631011 -2.2157848 1.4292137e-38
-1.6136569 1.6450802 -2.2209988 1.429214e-38
-1.6092111 1.6783631 -2.1923063 1.4292137e-38
-1.6069878 1.6950043 -2.1779602 1.4199584e-38
-1.6058764 1.7033252 -2.1707869 1.419994e-38
-1.6374518 1.5503417 -2.2655849 1.3187226e-38
-1.6261778 1.61057 -2.2244112 1.4199584e-38
-1.6250759 1.6188182 -2.2173007 1.429214e-38
-1.6217707 1.6435629 -2.1959689 1.4015909e-38
-1.6146909 1.6577423 -2.2010088 1.3923711e-38
-1.6135795 1.666063 -2.1938355 1.4199584e-38
-1.6124681 1.6743836 -2.1866624 1.4199584e-38
-1.6113567 1.6827043 -2.1794894 1.4199587e-38
-1.610245 1.6910249 -2.1723163 1.4199584e-38
-1.609134 1.6993458 -2.165143 1.4016628e-38
-1.6080221 1.7076665 -2.15797 1.4015909e-38
-1.6069109 1.7159873 -2.1507969 1.3831162e-38
-1.6057993 1.7243079 -2.1436238 1.3831165e-38
-1.6046878 1.7326286 -2.1364508 1.3923358e-38
-1.6349156 1.5653845 -2.2543697 1.4016628e-38
-1.6370305 1.5719827 -2.2387064 1.3277984e-38
-1.632712 1.5818808 -2.2401485 1.4108825e-38
-1.634307 1.5891308 -2.2253644 1.3369818e-38
-1.6305084 1.5983773 -2.2259276 1.4199584e-38
-1.6294066 1.6066253 -2.2188168 1.4199584e-38
-1.628305 1.6148736 -2.2117062 1.4199584e-38
-1.6272033 1.623122 -2.2045956 1.4015553e-38
-1.6261013 1.6313701 -2.197485 1.4016259e-38
-1.6249996 1.6396184 -2.1903744 1.419994e-38
-1.6168369 1.6620839 -2.1881917 1.3924079e-38
-1.6157254 1.6704044 -2.1810188 1.419994e-38
-1.6146139 1.6787251 -2.1738455 1.419994e-38
-1.6123909 1.6953665 -2.1594994 1.3923358e-38
-1.6172868 1.6973556 -2.1406002 1.3831162e-38
-1.6101679 1.7120079 -2.1451533 1.3831162e-38
-1.6392462 1.5531914 -2.2558858 1.4108472e-38
-1.6381444 1.5614396 -2.2487752 1.4108469e-38
-1.6393327 1.5764787 -2.225167 1.3461655e-38
-1.6379699 1.5850538 -2.2184973 1.3370175e-38
-1.6337373 1.5944325 -2.2203329 1.4015909e-38
-1.6326356 1.6026807 -2.213222 1.4015909e-38
-1.631534 1.610929 -2.2061114 1.419994e-38
-1.630432 1.6191772 -2.1990008 1.3923358e-38
-1.6234285 1.6331421 -2.2040675 1.3923358e-38
-1.6223168 1.6414629 -2.1968942 1.3923358e-38
-1.6212056 1.6497836 -2.1897211 1.4015553e-38
-1.6200942 1.6581043 -2.182548 1.3923358e-38
-1.6189827 1.6664251 -2.175375 1.4015553e-38
-1.617871 1.6747458 -2.1682017 1.3924074e-38
-1.6167597 1.6830665 -2.1610289 1.3924074e-38
