# .PCD v0.7 - Point Cloud Data file format
VERSION 0.7
FIELDS x y z rgb
SIZE 4 4 4 4
TYPE F F F F
COUNT 1 1 1 1
WIDTH 731
HEIGHT 1
VIEWPOINT 0 0 0 1 0 0 0
POINTS 731
DATA ascii
-1.2434225 0.7753188 2.690042 7.1905431e-39
-1.0283564 0.68995643 2.7700543 1.8372004e-40
-1.0930899 0.70573384 2.740952 7.3650846e-40
-1.5038966 0.74775773 2.5268559 1.8202867e-42
-1.4887247 0.74589062 2.5346031 1.460153e-42
-1.3944712 0.71922624 2.5751085 1.9618179e-44
-1.3241504 0.69692421 2.6041095 2.1244427e-39
-1.2812114 0.69146913 2.6259501 1.7520729e-39
-1.4032649 0.71233749 2.5665836 3.7835059e-43
-1.3958598 0.7114262 2.570365 3.7835059e-43
-1.1838822 0.67171258 2.6717138 2.6743795e-39
-1.1799473 0.6708042 2.6735084 2.6743795e-39
-1.3439884 0.70412195 2.5963871 1.6595269e-39
-1.3326597 0.7027185 2.6021671 2.5814776e-39
-1.4706706 0.73008549 2.5369475 1.460153e-42
-1.3288454 0.70183802 2.6039069 2.0322471e-39
-1.3250309 0.70095742 2.6056464 2.1244427e-39
-1.3370892 0.70784491 2.6022241 1.6595269e-39
-1.5053191 0.73976707 2.5219963 1.460153e-42
-1.4204471 0.72757447 2.5644512 3.7835059e-43
-1.412982 0.72665572 2.5682635 3.7835059e-43
-1.4018761 0.72013766 2.5713272 3.7835059e-43
-1.2991679 0.76609039 2.6534319 3.2301219e-39
-1.2918204 0.76518613 2.6571841 2.8616995e-39
-1.2844731 0.76428193 2.6609359 2.8616995e-39
-1.0057029 0.68788785 2.7819865 3.0431522e-39
-1.0066484 0.69221741 2.7836368 6.9142589e-39
-1.010743 0.69316298 2.7817688 5.1622098e-39
-1.0025536 0.69127226 2.7855041 8.5741389e-39
-1.1107575 0.59908825 2.6768501 2.0283039e-39
-1.1116588 0.60321611 2.6784232 2.1204995e-39
-1.1603084 0.62228674 2.6602025 2.2126951e-39
-1.1428901 0.61042613 2.6641786 2.2134014e-39
-1.1430445 0.61596197 2.6668925 1.2907388e-39
-1.2247965 0.62720853 2.625746 1.566604e-39
-1.3680087 0.66054165 2.5605659 1.5666054e-39
-1.4069356 0.66491759 2.5404785 2.7658689e-40
-0.99188161 0.67429954 2.7830279 2.4892848e-39
-1.1039473 0.69230777 2.7279358 2.0279535e-39
-1.0101687 0.6831457 2.7770278 1.7517212e-39
-1.0054177 0.6705814 2.7733903 3.0428061e-39
-1.0013552 0.66964346 2.7752433 2.8587736e-39
-1.133135 0.70190603 2.7160716 7.1934101e-39
-1.1291372 0.70098305 2.717895 7.0090189e-39
-1.1242161 0.69583291 2.7181072 7.1912591e-39
-1.0016212 0.68146122 2.7810724 2.0283025e-39
-0.9924733 0.68072236 2.7859395 2.4896295e-39
-0.9965682 0.68166751 2.7840722 2.6743795e-39
-0.91577792 0.65187061 2.8152778 3.6874721e-39
-0.91164941 0.65091747 2.8171608 3.4108852e-39
-0.90752083 0.64996439 2.8190439 3.0428033e-39
-0.9033922 0.64901137 2.8209267 2.7665752e-39
-1.3005817 0.77557993 2.6574254 7.1912619e-39
-1.290754 0.78281629 2.6667185 7.3745742e-39
-1.2528887 0.77681834 2.6853774 7.1905431e-39
-1.25325 0.7680828 2.6807485 7.1912619e-39
-1.3195143 0.77857894 2.6480961 7.4664167e-39
-1.232965 0.75942028 2.6879864 7.1905431e-39
-1.2235786 0.75793356 2.6926117 7.0057987e-39
-1.2877932 0.76723886 2.6605306 4.9775074e-39
-1.310048 0.77707946 2.6527607 7.4664167e-39
-1.2816489 0.77258128 2.6667545 7.1905431e-39
-1.2721827 0.77108169 2.6714191 7.0061588e-39
-1.2627164 0.76958209 2.676084 6.9139632e-39
-1.2977901 0.7738297 2.658139 4.1506236e-39
-1.2904426 0.77292544 2.661891 3.5070661e-39
-1.2911155 0.77408057 2.6620898 7.0057931e-39
-0.86891025 0.63831115 2.8352671 1.9357467e-39
-1.520288 0.66543573 2.4757965 1.1981929e-39
-1.6341213 0.7788437 2.4679792 1.460153e-42
-1.6511235 0.7725696 2.4550626 0
-1.343994 0.70734984 2.5980177 1.5673397e-39
-1.6525811 0.7643826 2.4500835 0
-1.5109018 0.66394889 2.4804215 1.3825841e-39
-1.5015155 0.66246212 2.4850469 1.4747798e-39
-1.4141234 0.6442104 2.5258791 1.3825841e-39
-1.626349 0.77788723 2.4719481 2.1804204e-42
-1.6185769 0.77693045 2.4759173 5.5282345e-40
-1.5823042 0.76738566 2.4918678 9.4734783e-41
-1.8069524 0.79653233 2.3779111 1.2003859e-39
-1.5900135 0.76833427 2.4879313 2.1804204e-42
-1.8545709 0.81339461 2.3591633 1.3851177e-39
-1.7974035 0.80401272 2.3871682 1.108535e-39
-1.7893624 0.80302316 2.3912745 1.0163394e-39
-1.7813215 0.80203354 2.3953805 1.0163394e-39
-1.6648706 0.77971464 2.450803 2.1664074e-42
-1.6355789 0.77065659 2.4630003 1.8202867e-42
-1.6278067 0.76970011 2.4669693 2.1804204e-42
-1.6200343 0.76874352 2.4709382 9.4734783e-41
-1.5114824 0.74869132 2.5229821 1.460153e-42
-1.5542059 0.7587108 2.5035758 1.8202867e-42
-1.828969 0.8132683 2.3737679 1.2010865e-39
-1.8208597 0.81227034 2.3779089 1.2010865e-39
-1.7103891 0.79062802 2.4302473 1.3818779e-39
-1.7024854 0.78965521 2.4342835 7.3974546e-40
-1.6945814 0.78868264 2.4383194 1.2893291e-39
-1.4932389 0.73286307 2.5254228 1.460153e-42
-1.4781934 0.73101133 2.5331061 1.460153e-42
-1.3159261 0.70385981 2.6123321 1.2928996e-39
-1.8888283 0.80880439 2.3372126 1.5695089e-39
-1.8806477 0.80779749 2.3413904 1.5695089e-39
-1.8724668 0.80679089 2.3455675 1.5695117e-39
-1.8084605 0.78806239 2.3727601 1.0163394e-39
-1.7692652 0.77786797 2.3900561 7.3939513e-40
-1.7612927 0.7768867 2.3941276 7.3974546e-40
-1.7533202 0.77590561 2.3981986 5.5571433e-40
-1.7212578 0.77494931 2.4160843 5.5571433e-40
-1.6834865 0.76513135 2.4327552 5.5536401e-40
-1.6756486 0.76416677 2.4367578 4.635187e-40
-1.6462665 0.75523913 2.4490733 1.4012985e-45
-1.6448088 0.76342624 2.4540524 5.6051939e-45
-1.6384941 0.75428259 2.4530423 1.460153e-42
-1.6370363 0.76246983 2.4580212 1.8202867e-42
-1.6307217 0.75332624 2.457011 1.8202867e-42
-1.6006143 0.75304192 2.4741173 2.1804204e-42
-1.5929049 0.75209314 2.478054 2.1804204e-42
-1.5647199 0.74354357 2.4898748 1.8202867e-42
-1.6292642 0.76151311 2.4619901 1.8202867e-42
-1.8642859 0.80578405 2.349745 1.8428532e-39
-1.8791134 0.81641489 2.3466308 1.5695089e-39
-1.8709328 0.81540805 2.3508084 1.5695117e-39
-1.8627517 0.81440139 2.3549857 1.3851205e-39
-1.8304899 0.80472612 2.368573 1.3854708e-39
-1.7118716 0.78230226 2.425184 8.3159076e-40
-1.7597975 0.78528464 2.3992348 7.3975106e-40
-1.7518252 0.78430343 2.4033058 7.3975106e-40
-1.7438527 0.78332222 2.407377 7.3939513e-40
-1.7989113 0.79554284 2.3820169 9.2414232e-40
-1.6741787 0.77242303 2.4417789 5.5571433e-40
-1.6663405 0.77145839 2.4457815 7.3721471e-40
-1.7583025 0.7936824 2.4043419 9.2449545e-40
-1.75033 0.79270124 2.4084129 7.3975106e-40
-1.7423574 0.79172015 2.4124839 9.2414232e-40
-1.5914593 0.76021379 2.4829926 2.1804204e-42
-1.58375 0.75926507 2.4869292 2.1804204e-42
-1.3764565 0.65999711 2.5554507 1.7509967e-39
-1.5296745 0.66692251 2.4711714 1.1985432e-39
-1.4885693 0.68774271 2.5052605 3.0828566e-44
-1.5328332 0.68926877 2.4806721 5.5317378e-40
-1.5233667 0.68776929 2.4853368 8.2941034e-40
-1.5139005 0.68626976 2.4900014 4.6097815e-40
-1.5044341 0.68477029 2.4946661 6.4501908e-40
-1.4257083 0.66789132 2.5312276 6.4501908e-40
-1.4163219 0.66640449 2.5358531 5.5282345e-40
-1.6471517 0.68979132 2.4154389 0
-1.8963815 0.76045901 2.3084152 1.1974866e-39
-1.5994588 0.69102919 2.4433911 1.8439126e-40
-1.8274482 0.82181054 2.3789628 1.3836982e-39
-1.8193388 0.82081258 2.3831038 1.2010893e-39
-1.7878546 0.81149316 2.3964255 1.109244e-39
-1.7798135 0.8105036 2.4005315 1.108535e-39
-1.748835 0.80109912 2.4135203 9.2414232e-40
-1.7408625 0.80011797 2.4175916 7.3975106e-40
-1.8693986 0.82402539 2.3560491 1.660641e-39
-1.8612175 0.82301867 2.3602266 1.5698621e-39
-1.8515025 0.83062899 2.3696449 1.3851205e-39
-1.8433217 0.82962227 2.3738222 1.3854708e-39
-1.3007151 0.5665226 2.551533 1.7506576e-39
-1.3098644 0.56797212 2.5470243 1.5669768e-39
-1.3008507 0.61314064 2.5750511 1.5666265e-39
-1.3004985 0.62165463 2.5795624 1.5669768e-39
-1.3102138 0.55952877 2.5425506 1.7506576e-39
-1.3010645 0.55807936 2.5470593 1.7506576e-39
-1.2817174 0.58051062 2.5694976 1.4747798e-39
-1.1557318 0.64546007 2.6745543 2.5811245e-39
-1.1517969 0.64455193 2.6763487 2.6733201e-39
-1.1416159 0.64272684 2.6812582 2.1219246e-39
-1.1751041 0.66573542 2.6737175 2.6733201e-39
-1.1711694 0.66482717 2.6755121 2.7655158e-39
-1.1413124 0.65858364 2.6894584 2.6736733e-39
-1.1702033 0.66894001 2.6781478 1.659171e-39
-1.3407289 0.67345089 2.5827298 1.6598787e-39
-1.3343419 0.67903107 2.5892138 1.567683e-39
-1.3389311 0.68076968 2.5874646 1.567683e-39
-1.3396106 0.68115854 2.5872719 2.6743795e-39
-1.3308897 0.67668182 2.5900025 1.7517226e-39
-1.312119 0.67499709 2.5999048 2.6743795e-39
-1.3129995 0.6790303 2.6014414 2.6743795e-39
-1.3091849 0.67814982 2.6031809 2.6743795e-39
-1.2979366 0.68033171 2.6107302 1.8442699e-39
-1.2765329 0.67190778 2.6187289 2.0275808e-39
-1.2629851 0.671996 2.6265361 2.6743795e-39
-1.2582541 0.66704446 2.6267405 2.6743795e-39
-1.2526356 0.65802872 2.625396 2.6743795e-39
-1.2259363 0.66066217 2.6420257 2.8587736e-39
-1.2220618 0.65976769 2.6437929 2.7662192e-39
-1.2181872 0.6588732 2.6455603 2.8587736e-39
-1.2190816 0.66297001 2.6471212 2.7665752e-39
-1.2143126 0.65797883 2.6473272 2.8587708e-39
-1.2095436 0.65298736 2.6475332 2.6743795e-39
-1.2026538 0.66342092 2.6567616 2.6736733e-39
-1.1978484 0.65839201 2.6569691 2.6736733e-39
-1.1987498 0.66251969 2.6585422 2.6736733e-39
-1.1948459 0.66161841 2.6603229 2.5814776e-39
-1.1900406 0.65658945 2.6605303 2.8569729e-39
-1.1909419 0.66071713 2.6621034 2.5814776e-39
-1.1843343 0.64743239 2.6591649 2.5821839e-39
-1.1852354 0.65156025 2.6607378 2.9491685e-39
-1.1795291 0.64240319 2.6593723 2.6743795e-39
-1.1804304 0.64653105 2.6609457 2.9491685e-39
-1.1756251 0.6415019 2.6611531 2.6743795e-39
-1.413447 0.6976487 2.5533147 3.7835059e-43
-1.4046535 0.70453739 2.5618398 1.821688e-44
-1.3877982 0.68999928 2.5641379 3.7835059e-43
-1.3864202 0.69773865 2.5688448 7.258726e-43
-1.380451 0.68909496 2.5678899 1.821688e-44
-1.3552268 0.68137378 2.5784338 1.821688e-44
-1.0220382 0.62436342 2.7404737 2.7589044e-40
-1.1709845 0.64791322 2.667057 1.7506352e-39
-1.1732874 0.6574145 2.6705468 2.9484623e-39
-1.167536 0.64818519 2.6691704 2.5814776e-39
-1.1684443 0.65234566 2.6707559 2.9491685e-39
-1.1693528 0.65650612 2.6723413 2.9484623e-39
-1.162693 0.64311624 2.6693797 2.5821839e-39
-1.1636012 0.64727694 2.670965 2.5821839e-39
-1.1645097 0.65143722 2.6725504 2.9491685e-39
-1.158758 0.64220798 2.6711743 2.5821839e-39
-1.1596665 0.64636844 2.6727598 2.5821839e-39
-1.1605749 0.65052879 2.6743453 2.9491685e-39
-1.1614834 0.65468925 2.6759307 2.5821839e-39
-1.1532375 0.64110398 2.6737785 1.4751385e-39
-1.1566402 0.64962047 2.6761398 2.6736733e-39
-1.1508887 0.64039117 2.6747634 2.5814776e-39
-1.1527053 0.64871222 2.6779342 2.6736733e-39
-1.1474127 0.65202838 2.6826453 2.5821839e-39
-1.1425315 0.64691985 2.6828563 2.5821839e-39
-1.142787 0.64614028 2.6823149 1.4754902e-39
-1.1385659 0.6460045 2.6846647 2.5821839e-39
-1.1394814 0.65019739 2.6862628 2.5821839e-39
-1.1332562 0.63964659 2.6844888 1.4747798e-39
-1.1346002 0.64508903 2.6864734 2.4896295e-39
-1.1355157 0.64928204 2.6880713 2.4896295e-39
-1.1297191 0.63998044 2.6866841 2.4896295e-39
-1.1306345 0.64417362 2.688282 2.4896295e-39
-1.1318691 0.64755648 2.6892869 1.4758517e-39
-1.1257536 0.63906485 2.688493 2.5821839e-39
-1.126669 0.64325809 2.6900907 2.4896295e-39
-1.1275846 0.64745098 2.6916888 2.4896295e-39
-1.1217879 0.6381495 2.6903014 2.0322471e-39
-1.1227036 0.64234257 2.6918995 2.3974339e-39
-1.123619 0.64653558 2.6934974 2.3970864e-39
-1.1178224 0.63723403 2.6921101 2.0322471e-39
-1.1187379 0.64142704 2.6937082 2.5821839e-39
-1.1196535 0.64562005 2.6953061 2.5814776e-39
-1.1144052 0.63634515 2.6936183 1.4762175e-39
-1.1156877 0.64470476 2.6971145 2.6736733e-39
-1.1108067 0.6395961 2.6973255 2.6736733e-39
-1.1117222 0.64378905 2.6989236 2.6736733e-39
-1.1053164 0.63024735 2.6957393 1.5680544e-39
-1.1077566 0.6428737 2.700732 2.8580645e-39
-1.088892 0.63268989 2.7063856 2.0286556e-39
-1.0775429 0.63529104 2.7142045 1.9371914e-39
-1.0685518 0.63100684 2.7171874 2.028294e-39
-1.0513546 0.61983997 2.7213883 1.9368369e-39
-1.1415379 0.64789492 2.683919 1.8104776e-42
-1.0586365 0.63016039 2.72244 1.8202867e-42
-1.165418 0.65559775 2.6741359 2.6743795e-39
-1.1575485 0.653781 2.6777253 2.6743795e-39
-1.4120582 0.70544887 2.5580583 1.821688e-44
-1.34579 0.69678849 2.5916426 1.6595241e-39
-1.3377267 0.69267458 2.5941803 1.7520743e-39
-1.3308985 0.6946522 2.5990932 2.5821839e-39
-1.3060502 0.68460208 2.608243 1.752433e-39
-1.29311 0.68458086 2.6156461 1.752433e-39
-1.275681 0.68776828 2.6272454 1.8442685e-39
-1.2771784 0.68685073 2.6259234 2.6743795e-39
-1.2074587 0.66845024 2.656554 3.3168917e-39
-1.2083602 0.67257786 2.6581273 3.4094404e-39
-1.1957473 0.66574627 2.661896 2.6736733e-39
-1.4720813 0.72216135 2.5321281 1.098618e-42
-1.0399882 0.63570493 2.7359307 1.8202867e-42
-1.0216891 0.63280648 2.7449477 2.7589044e-40
-1.0125396 0.63135725 2.7494562 1.460153e-42
-1.2045642 0.66722423 2.6575925 1.6595199e-39
-1.1829739 0.66755223 2.6701283 2.9491685e-39
-1.1781305 0.66248339 2.6703374 2.9491685e-39
-1.1790389 0.66664386 2.6719229 2.9491685e-39
-1.1741958 0.66157502 2.672132 2.6736733e-39
-1.1663264 0.65975821 2.6757214 2.6743795e-39
-1.1672348 0.66391867 2.6773069 2.6743795e-39
-1.1623915 0.6588499 2.677516 2.6743795e-39
-1.1632997 0.66301048 2.679101 2.6743795e-39
-1.1584569 0.6579414 2.6793108 2.6736733e-39
-1.1525215 0.65722561 2.6823487 1.6598773e-39
-1.1452779 0.65949923 2.6876495 2.9484623e-39
-1.140397 0.65439063 2.6878605 2.9484623e-39
-1.1364312 0.65347517 2.6896694 2.8562667e-39
-1.1373467 0.65766817 2.691267 2.6736733e-39
-1.1324656 0.6525597 2.6914778 2.5821839e-39
-1.132785 0.65599608 2.6930339 1.5687648e-39
-1.1342965 0.66094577 2.6946735 2.6743795e-39
-1.1285001 0.65164423 2.6932867 2.6743795e-39
-1.1294154 0.65583736 2.6948843 2.5821839e-39
-1.130331 0.66003031 2.6964822 2.5821839e-39
-1.1245344 0.65072888 2.6950951 2.5814776e-39
-1.12545 0.65492165 2.6966932 2.6736733e-39
-1.1263653 0.65911496 2.6982906 2.5821839e-39
-1.1205688 0.64981335 2.6969037 2.6736733e-39
-1.122003 0.65379035 2.6980951 1.8435623e-39
-1.1223998 0.65819937 2.7000997 2.6743795e-39
-1.1166033 0.64889783 2.6987126 2.5821839e-39
-1.1175188 0.65309083 2.7003105 2.5821839e-39
-1.118434 0.65728408 2.7019079 2.6743795e-39
-1.1129955 0.64964736 2.7011588 1.9361096e-39
-1.113553 0.65217537 2.7021191 2.6743795e-39
-1.1086721 0.64706689 2.7023299 2.8580645e-39
-1.110503 0.65545309 2.7055254 2.8587736e-39
-1.1039469 0.65106809 2.7070622 1.7528044e-39
-1.1047064 0.64615142 2.7041385 2.8580645e-39
-1.0954571 0.64931607 2.7110395 2.1201492e-39
-1.084569 0.64490294 2.715044 2.2127035e-39
-1.0761184 0.6431641 2.7190058 1.9375446e-39
-1.0610925 0.63769507 2.7248466 1.9375502e-39
-1.1411856 0.65640903 2.6884303 2.5265411e-42
-0.94093668 0.60256302 2.7759061 2.2123322e-39
-0.92259878 0.60443026 2.7873576 2.3956542e-39
-0.91687185 0.60159743 2.7892046 3.5016361e-39
-0.91350353 0.5998596 2.7902551 2.3038188e-39
-0.90775055 0.59875691 2.7929931 2.3038089e-39
-0.90364218 0.5944317 2.7931576 3.5026955e-39
-0.89806938 0.59831494 2.7983162 2.3963675e-39
-0.90962762 0.60403633 2.7945898 3.410497e-39
-1.2087911 0.64050037 2.641644 1.3840106e-39
-1.1982546 0.64303303 2.6489625 1.5673285e-39
-1.178628 0.63827533 2.6577995 2.8569729e-39
-1.1738226 0.63324612 2.6580071 2.7647773e-39
-1.1747239 0.63737416 2.65958 2.7647773e-39
-1.16941 0.63127112 2.6595356 1.474407e-39
-1.1699188 0.63234484 2.6597877 2.1219246e-39
-1.17082 0.63647288 2.6613605 2.5814776e-39
-1.1651136 0.62731582 2.6599951 2.7640584e-39
-1.1635652 0.63613397 2.6653457 1.2914549e-39
-1.1578498 0.63804752 2.6695888 2.4896295e-39
-1.1523492 0.63270032 2.6700339 9.2267096e-40
-1.1539149 0.63713926 2.6713834 2.2134014e-39
-1.1490718 0.6320703 2.6715925 2.1219246e-39
-1.1499803 0.63623089 2.673178 2.4896295e-39
-1.1451373 0.63116181 2.6733873 2.2141216e-39
-1.1460457 0.63532239 2.6749728 2.5821839e-39
-1.1402941 0.62609315 2.6735964 2.2126951e-39
-1.1363592 0.62518477 2.675391 2.2126951e-39
-1.1324246 0.62427634 2.6771858 2.2126951e-39
-1.0963607 0.62603211 2.6987367 1.8446399e-39
-0.88114303 0.58075577 2.7991261 2.3041705e-39
-0.97862357 0.60138541 2.7537179 1.9368355e-39
-0.94387436 0.58903742 2.7673769 2.3960046e-39
-1.0626076 0.60856056 2.7092314 2.8587736e-39
-1.0500289 0.60380697 2.7140322 1.9357509e-39
-1.0309992 0.61060041 2.728374 2.0279521e-39
-1.0130199 0.60483611 2.7357571 2.1194191e-39
-0.93405437 0.59296423 2.7749908 2.1201436e-39
-0.89450723 0.58821154 2.7952428 3.1346514e-39
-1.1609876 0.62959439 2.6635125 1.475486e-39
-1.1555032 0.61725771 2.6604102 2.1219246e-39
-1.1515993 0.61635643 2.6621907 1.9371746e-39
-1.1476954 0.61545521 2.6639712 2.1219246e-39
-1.1284897 0.62336808 2.6789801 2.4896295e-39
-1.1236466 0.61829925 2.6791892 2.6718614e-39
-1.124555 0.62245971 2.6807747 2.4896295e-39
-1.1188035 0.61323041 2.6793985 2.2134014e-39
-1.1197118 0.61739087 2.6809838 2.1219246e-39
-1.1206201 0.62155145 2.6825693 2.4896295e-39
-1.1157771 0.6164825 2.6827786 2.1219246e-39
-1.1166855 0.62064296 2.6843641 2.4896295e-39
-1.1088159 0.61882633 2.6879532 2.5821839e-39
-1.3782641 0.66261578 2.5557401 1.2914563e-39
-1.3476917 0.66258454 2.573241 1.1985432e-39
-1.3369883 0.66914743 2.5826952 2.6743795e-39
-1.332692 0.66937006 2.585269 1.6598787e-39
-1.3332018 0.66827333 2.5844219 2.6743795e-39
-1.328541 0.66339564 2.5846231 2.6743795e-39
-1.3224996 0.65939337 2.5860589 1.1067091e-39
-1.3209683 0.66164732 2.5880771 2.6743795e-39
-1.3160875 0.65690136 2.5884714 1.6595171e-39
-1.3011545 0.65536141 2.5962474 1.1992607e-39
-1.4338952 0.69647008 2.5410025 1.200704e-39
-1.3765203 0.68239987 2.5667531 1.6595283e-39
-1.3542829 0.68363404 2.5801184 1.4751371e-39
-1.4090482 0.68724692 2.5505702 5.5282345e-40
-1.3606179 0.69717586 2.5833433 1.2928982e-39
-1.433609 0.71724385 2.5516813 1.6595297e-39
-1.4525882 0.70212024 2.5331526 1.4751385e-39
-1.348084 0.67234486 2.5779562 1.6595283e-39
-1.3454354 0.6748994 2.5807667 2.5821839e-39
-1.3416487 0.67402536 2.5824935 2.5821839e-39
-1.342523 0.67802906 2.5840194 2.5814776e-39
-1.343397 0.6820327 2.5855448 2.6736733e-39
-1.3378624 0.6731512 2.5842206 2.5821839e-39
-1.334076 0.67227697 2.5859478 2.5821839e-39
-1.3290861 0.68399239 2.5947363 1.7520701e-39
-1.3210291 0.67985004 2.5972557 1.7520701e-39
-1.3112382 0.67096406 2.5983672 2.5821839e-39
-1.5125171 0.71094197 2.5032823 1.460153e-42
-1.5064051 0.70209193 2.5023046 3.7835059e-43
-1.5049942 0.71001619 2.5071237 1.460153e-42
-1.5035834 0.71794039 2.5119429 7.5389857e-43
-1.4988821 0.70116615 2.506146 3.7835059e-43
-1.4974715 0.70909029 2.5109653 1.460153e-42
-1.4960605 0.71701461 2.5157845 1.460153e-42
-1.4885379 0.71608871 2.5196261 1.460153e-42
-1.4708387 0.70163238 2.5224495 1.9618179e-44
-1.4633734 0.70071375 2.5262613 1.821688e-44
-1.4619734 0.70857733 2.5310438 1.098618e-42
-1.3951454 0.6909036 2.5603859 3.7835059e-43
-1.4279808 0.69024599 2.5412407 5.5282345e-40
-1.4578066 0.7181403 2.5382714 1.5676985e-39
-1.331779 0.69868547 2.60063 2.5821839e-39
-1.4946496 0.72493887 2.5206037 1.460153e-42
-1.4871271 0.72401309 2.5244451 1.8202867e-42
-1.479604 0.72308725 2.5282867 1.460153e-42
-1.3284181 0.69917816 2.6028056 1.2932556e-39
-1.4576726 0.72379142 2.5412085 1.5680544e-39
-1.3204271 0.70034927 2.6079762 1.3850938e-39
-1.479704 0.69468772 2.5138547 3.7835059e-43
-1.4662075 0.68750805 2.5179534 6.4501908e-40
-1.4567413 0.68600851 2.5226181 5.5282345e-40
-1.2238506 0.6679613 2.6469152 2.6747298e-39
-1.2199762 0.66706675 2.6486826 2.5825342e-39
-1.2431734 0.64812553 2.6258047 2.5821839e-39
-1.2151033 0.64170504 2.6386373 1.3840163e-39
-1.1973221 0.63071436 2.6432617 2.5821839e-39
-1.1934476 0.62981999 2.6450286 2.4896295e-39
-1.189573 0.62892538 2.646796 2.5821839e-39
-1.6942645 0.74958307 2.4187105 3.7132307e-40
-1.6864263 0.74861854 2.4227128 7.3650846e-40
-1.6569538 0.73982143 2.4351463 4.2038954e-45
-1.6491815 0.73886496 2.439115 1.4012985e-45
-1.6477239 0.74705207 2.4440942 1.4012985e-45
-1.6399517 0.74609554 2.4480631 1.098618e-42
-1.62037 0.73057765 2.4514279 1.460153e-42
-1.611215 0.73774958 2.4603033 1.460153e-42
-1.5843141 0.72126311 2.467371 1.460153e-42
-1.7306439 0.76759636 2.406985 5.5571433e-40
-1.7227401 0.76662374 2.411021 5.5571433e-40
-1.7148361 0.76565093 2.4150572 5.5571433e-40
-1.6849564 0.75687492 2.4277341 4.635187e-40
-1.6771185 0.75591022 2.4317367 2.7912604e-40
-1.6692802 0.75494576 2.435739 2.7947356e-40
-1.6540388 0.75619549 2.4451046 0
-1.6097692 0.74587017 2.4652419 2.1804204e-42
-1.60206 0.74492145 2.4691784 2.1804204e-42
-1.5943507 0.74397272 2.4731152 1.8202867e-42
-1.6678106 0.76320195 2.4407606 8.2941034e-40
-1.5556635 0.69749939 2.4717579 5.5318219e-40
-1.6463894 0.7171827 2.4297404 0
-1.9195076 0.77735549 2.3037174 1.2014397e-39
-1.8918967 0.79156977 2.3267314 1.2014397e-39
-1.8674903 0.78309184 2.3364232 1.2014397e-39
-1.8593808 0.78209358 2.3405645 1.0166897e-39
-1.8512713 0.78109568 2.3447056 1.0166897e-39
-1.8431617 0.78009766 2.3488467 9.2449545e-40
-1.8275583 0.77310157 2.3542454 1.0166897e-39
-1.8497505 0.7896378 2.3499007 1.109244e-39
-1.8416408 0.78863984 2.3540416 1.0166897e-39
-1.8180094 0.78058201 2.3635025 1.2014397e-39
-1.8821818 0.79918027 2.3361495 1.3851205e-39
-1.84012 0.79718214 2.3592367 1.2010865e-39
-1.9374032 0.77075189 2.2901216 9.2449265e-40
-1.8466561 0.75814068 2.3357308 1.2896822e-39
-1.3403922 0.71942329 2.6061921 2.1197792e-39
-1.2900728 0.7125904 2.6315634 5.6051939e-45
-1.1887252 0.67678154 2.6715045 2.6736733e-39
-1.1431433 0.66696972 2.6926541 2.6736733e-39
-1.0019141 0.6398176 2.7598259 2.2123434e-39
-1.2429268 0.68792635 2.6460915 2.4889317e-39
-1.2110639 0.68496156 2.6628463 2.5811245e-39
-1.048218 0.65882283 2.7429166 5.521172e-40
-1.0400152 0.65269649 2.7445157 2.3045432e-39
-1.1035497 0.67526233 2.7195361 2.1205023e-39
-0.99760389 0.65246123 2.7686958 3.3190427e-39
-1.2830005 0.70123941 2.6298702 1.7517198e-39
-1.2802529 0.70694548 2.6343324 1.2611686e-44
-1.1776145 0.6868729 2.6829784 2.5821839e-39
-1.1211475 0.67544019 2.7095435 1.7520785e-39
-0.98572725 0.63340354 2.7658534 3.226847e-39
-1.0213398 0.64124972 2.7494216 1.8202867e-42
-1.0121903 0.63980049 2.7539299 1.8202867e-42
-1.1878169 0.67262107 2.669919 2.5814776e-39
-1.1760125 0.66989595 2.675303 2.6736733e-39
-1.1471089 0.66788518 2.6908455 2.6736733e-39
-1.1391776 0.66605437 2.6944625 2.6736733e-39
-1.1352119 0.6651389 2.6962712 2.6736733e-39
-1.1272807 0.66330796 2.6998885 2.6736733e-39
-1.1139271 0.65808678 2.7048969 1.843914e-39
-1.1048849 0.65954143 2.710814 2.1201492e-39
-1.1408334 0.66492325 2.6929414 1.8202867e-42
-1.2812848 0.7070533 2.633796 1.7506422e-39
-1.1126412 0.67377722 2.7135756 1.7517268e-39
-1.0023705 0.64562052 2.7625017 1.9368355e-39
-0.99072772 0.63863695 2.7656376 3.0438851e-39
-0.98666525 0.63769901 2.7674906 3.1360807e-39
-0.98760319 0.64199448 2.7691276 3.1360807e-39
-0.98260272 0.63676119 2.7693434 3.1350017e-39
-0.98354053 0.64105678 2.7709801 3.319393e-39
-0.9785403 0.63582331 2.7711964 3.1350017e-39
-0.979478 0.64011896 2.7728331 3.4115886e-39
-1.0209904 0.64969301 2.7538953 9.4734783e-41
-1.1598029 0.6727609 2.6860404 1.659171e-39
-1.1531872 0.67053795 2.6887054 1.5676942e-39
-1.1480243 0.67207837 2.6924434 2.9484623e-39
-1.1440588 0.6711629 2.694252 2.6736733e-39
-1.1400932 0.67024744 2.6960607 2.6736733e-39
-1.1361275 0.66933203 2.6978693 2.6736733e-39
-1.0964011 0.65778899 2.7147872 2.3953011e-39
-1.0968028 0.66375494 2.717577 2.5796924e-39
-1.3420495 0.71254617 2.6017613 2.6736733e-39
-1.3335403 0.70675164 2.6037042 2.5814776e-39
-1.2506759 0.68971533 2.6425571 2.3970864e-39
-1.2119652 0.68908942 2.6644194 2.4903358e-39
-0.98854077 0.64629018 2.7707641 3.3190427e-39
-0.98447847 0.64535218 2.7726173 3.1360807e-39
-0.98041594 0.64441437 2.7744701 3.1360807e-39
-0.97635347 0.64347661 2.7763228 3.1360807e-39
-1.0118411 0.64824373 2.7584038 5.521172e-40
-1.2053726 0.68457556 2.6659114 3.3172448e-39
-1.1519899 0.67299384 2.6906347 2.9484623e-39
-1.1529055 0.67718691 2.6922326 2.9484623e-39
-1.1489396 0.67627162 2.6940408 2.8562667e-39
-1.1449741 0.67535603 2.6958497 2.9484679e-39
-1.1410085 0.67444056 2.6976583 2.9484679e-39
-1.132162 0.6684165 2.6996779 2.6736733e-39
-1.1648022 0.67993331 2.6868064 2.9484623e-39
-1.1608363 0.67901796 2.6886148 2.8562667e-39
-1.1568708 0.67810249 2.6904237 2.8562667e-39
-1.1116058 0.67285091 2.7136998 2.6736733e-39
-1.1076078 0.67192793 2.7155232 3.0424558e-39
-1.0996121 0.67008203 2.7191701 3.3190427e-39
-1.060508 0.66195565 2.7374609 2.212349e-39
-1.3115877 0.73444086 2.6302965 5.1640343e-39
-1.0660908 0.6795035 2.7431445 1.845e-39
-1.2834561 0.72890311 2.6436114 2.7589044e-40
-1.2020198 0.71241564 2.6819243 2.4921491e-39
-1.1831071 0.71203142 2.6925652 8.482686e-39
-1.1791416 0.71111596 2.6943738 8.1135433e-39
-1.1491827 0.70031857 2.7060733 3.7807453e-39
-1.0395572 0.66907161 2.7530661 1.9368355e-39
-1.1383621 0.69107008 2.7075922 1.8435623e-39
-1.2029531 0.70772177 2.6790133 7.6522317e-39
-1.1614482 0.69906789 2.6984129 7.4681991e-39
-1.1574827 0.69815242 2.7002215 8.0206471e-39
-1.153517 0.69723696 2.7020302 8.1128427e-39
-1.2873387 0.72794789 2.6409035 1.6815582e-44
-1.2108228 0.70953828 2.6754243 5.9952187e-39
-1.206888 0.70863014 2.6772187 7.1916123e-39
-1.2077962 0.71279055 2.6788039 7.1934101e-39
-1.2038615 0.71188217 2.6805985 7.1012145e-39
-1.195004 0.71477783 2.6871393 7.3760035e-39
-1.1910384 0.71386236 2.6889479 8.0206443e-39
-1.1861572 0.70875388 2.6891587 6.4504319e-39
-1.1870728 0.71294689 2.6907566 8.2975899e-39
-1.1812762 0.70364529 2.6893697 5.8072261e-39
-1.1821917 0.70783842 2.6909673 6.7288208e-39
-1.1782262 0.70692295 2.6927762 7.1897976e-39
-1.1742605 0.70600748 2.6945848 7.5596689e-39
-1.1751761 0.71020037 2.6961827 7.8366131e-39
-1.1702948 0.70509213 2.6963933 7.8366159e-39
-1.1654136 0.69998348 2.696604 7.1916123e-39
-1.1623636 0.70326108 2.7000108 7.6518645e-39
-1.1583982 0.70234555 2.7018194 8.0217261e-39
-1.1544325 0.70143008 2.7036281 7.9295304e-39
-1.1362098 0.69860166 2.7126372 7.0994166e-39
-1.132212 0.69767874 2.7144606 7.0090133e-39
-1.1282141 0.69675589 2.7162838 7.0090133e-39
-1.1202183 0.69490999 2.7199306 6.0849116e-39
-1.3120269 0.73603696 2.6308529 2.8025969e-44
-1.0959339 0.67416883 2.7233455 2.3963647e-39
-1.1423597 0.69199324 2.7057683 2.1197988e-39
-1.1303661 0.68922436 2.7112386 2.2123448e-39
-1.1214473 0.68315119 2.7132747 2.7658689e-39
-1.1174495 0.68222821 2.7150981 2.8580645e-39
-1.1134517 0.68130529 2.7169216 3.0424558e-39
-1.1094538 0.68038231 2.718745 3.0424558e-39
-1.1054559 0.67945939 2.7205684 3.3172448e-39
-1.1112281 0.68171787 2.7184043 2.4885758e-39
-1.122622 0.68638515 2.7142384 2.7666018e-39
-1.1626673 0.68740416 2.6918106 2.8562667e-39
-1.1587019 0.68648857 2.6936195 2.8562667e-39
-1.1085308 0.67615527 2.717134 2.9484623e-39
-1.104533 0.67523229 2.7189574 3.0410167e-39
-1.100535 0.67430943 2.7207808 3.0410167e-39
-1.1495515 0.69632149 2.7038388 8.2057446e-39
-1.1455859 0.69540602 2.7056475 8.0209946e-39
-1.2932841 0.72166687 2.6343181 2.1804204e-42
-1.1192954 0.69068289 2.7183197 4.4250371e-39
-1.1030073 0.68383425 2.724185 2.4903694e-39
-1.1223704 0.68737847 2.7148857 3.5034395e-39
-1.1183724 0.68645549 2.7167091 3.7796677e-39
-1.1143745 0.68553269 2.7185323 3.8718633e-39
-1.0963366 0.68013191 2.7261333 2.3970892e-39
-1.2788962 0.71456647 2.6389673 2.3822074e-44
-1.1021292 0.68321657 2.7243757 2.3031027e-39
-1.2059797 0.70446938 2.6756334 6.0863185e-39
-1.202045 0.70356101 2.6774282 7.192666e-39
-1.2011042 0.70822275 2.680326 1.6634646e-39
-1.1773106 0.70272994 2.6911781 6.1763687e-39
-1.131289 0.69345164 2.7128496 3.1375185e-39
-1.1272912 0.69252867 2.714673 3.7828879e-39
-1.2050713 0.70030904 2.6740479 1.9389767e-39
-1.1565672 0.69395941 2.6986237 4.8856299e-39
-1.1843264 0.70036757 2.6859634 2.6718614e-39
-1.1693794 0.70089883 2.6947956 7.006142e-39
-1.1526016 0.69304395 2.7004323 5.8072261e-39
-1.1446704 0.69121301 2.7040496 6.9142995e-39
-1.1407049 0.69029742 2.7058585 7.1919654e-39
-1.2090062 0.70121729 2.6722534 2.2141076e-39
-1.1556518 0.68976623 2.6970258 3.5952442e-39
-1.1516861 0.68885076 2.6988344 4.701233e-39
-1.1477206 0.68793529 2.7006431 5.5309993e-39
-1.143755 0.68701982 2.7024519 6.1763687e-39
-1.1406872 0.68734056 2.7043717 1.460153e-42
-1.1063788 0.68368679 2.7221792 3.4112383e-39
-1.1547364 0.6855731 2.6954281 2.9484371e-39
-1.1468052 0.68374217 2.6990457 1.8439126e-39
-1.1165266 0.67800117 2.7134871 2.2141216e-39
-0.99447191 0.66089201 2.7747571 2.3048992e-39
-0.99341321 0.65235478 2.7710423 2.2126993e-39
-1.002604 0.65769482 2.7684793 3.4112383e-39
-0.99854159 0.65675682 2.7703326 3.4112383e-39
-0.98479044 0.65369344 2.7766607 2.3048921e-39
-1.3446912 0.72464579 2.6063721 6.3632543e-39
-1.3382353 0.71166557 2.6035011 2.5821839e-39
-1.3306066 0.70990425 2.6069808 2.5825314e-39
-1.31861 0.70769286 2.6127346 1.5669782e-39
-1.2875148 0.70310414 2.6282275 1.3832904e-39
-1.2351778 0.68613744 2.6496258 1.7553141e-39
-1.1382623 0.66186124 2.6928649 2.6736733e-39
-1.0384444 0.64159787 2.7397978 2.3952969e-39
-0.9807272 0.62816989 2.7660699 3.4097908e-39
-0.9816649 0.63246572 2.7677064 3.5019864e-39
-1.1095873 0.65126008 2.7039273 2.8580645e-39
-1.1065373 0.6545375 2.7073343 3.0428061e-39
-1.0615131 0.64357334 2.727581 2.120145e-39
-1.1422279 0.66277671 2.6910563 2.6736733e-39
-1.0770806 0.65160489 2.7227266 1.6620479e-39
-1.0680908 0.64731407 2.7257056 2.120145e-39
-1.0330191 0.6430437 2.7436378 2.3960102e-39
-1.1193497 0.66147691 2.703506 2.4896295e-39
-1.1153837 0.66056162 2.7053144 2.5821839e-39
-1.1313972 0.66390479 2.6978323 1.5684145e-39
-1.122927 0.6622296 2.7018373 1.935402e-39
-1.4721303 0.75201404 2.5472102 1.460153e-42
-1.4616097 0.74590665 2.5501463 6.1763687e-39
-1.4190471 0.73543805 2.5692334 3.7835059e-43
-1.4004875 0.72793758 2.576071 3.7835059e-43
-1.4162474 0.75116503 2.5787981 1.460153e-42
-1.4087819 0.75024635 2.5826101 4.9045446e-44
-1.4949468 0.78434056 2.5505004 1.2893319e-39
-1.4963807 0.77628648 2.5456021 9.1867726e-41
-1.5116732 0.77816838 2.5377932 6.4396531e-40
-1.4768709 0.76892906 2.5530555 1.8370602e-40
-1.4797163 0.75294757 2.5433369 1.460153e-42
-1.5360457 0.77293724 2.5211811 7.3470919e-40
-1.4782937 0.76093829 2.5481961 3.9376487e-43
-1.4707075 0.7600047 2.5520699 1.460153e-42
-1.4873021 0.75388116 2.539463 1.460153e-42
-1.3955379 0.73969227 2.5848565 6.5472938e-39
-1.4251125 0.74422032 2.570204 3.9376487e-43
-1.7109647 0.8307659 2.4502337 1.1107182e-39
-1.6634005 0.78797108 2.4558239 7.0064923e-45
-1.5100597 0.75668186 2.5278418 1.4727647e-42
-1.6108043 0.77597415 2.4798858 2.1804204e-42
-1.574595 0.76643687 2.4958045 1.8328984e-42
-1.4600785 0.74106389 2.5485728 1.6584564e-39
-1.441443 0.73819411 2.5577972 7.5389857e-43
-1.7124597 0.82236814 2.4451265 5.5571433e-40
-1.5451258 0.76582408 2.5123785 4.5921532e-40
-1.5346118 0.78099149 2.5260794 2.6754879e-39
-1.6930993 0.79700816 2.4433827 7.3974546e-40
-1.5625483 0.78985 2.5145571 2.6751348e-39
-1.7010031 0.79798102 2.4393466 7.3974546e-40
-1.6682988 0.80544841 2.4618638 1.2868138e-39
-1.6234339 0.79426104 2.4819064 2.4882282e-39
-1.6604608 0.80448359 2.4658663 0
-1.5702579 0.7907986 2.5106206 2.8624029e-39
-1.6078894 0.79234809 2.4898441 1.1049407e-39
-1.600117 0.79139161 2.4938128 6.4396531e-40
-1.5639942 0.78172934 2.5096185 7.5389857e-43
-1.5269655 0.78005046 2.529984 2.0304871e-39
-1.4485708 0.76785499 2.5687263 2.4021465e-39
-1.6901346 0.81365949 2.4535093 1.1049407e-39
-1.554839 0.78890139 2.5184937 1.9350545e-39
-1.4830341 0.77785325 2.5540416 2.4028639e-39
-1.4754483 0.77691966 2.5579152 2.4021465e-39
-1.5808585 0.77550632 2.4968061 1.8328984e-42
-1.5731492 0.77455759 2.5007429 1.098618e-42
-1.4948879 0.7548148 2.5355892 2.7589044e-40
-1.6015745 0.78320456 2.4888339 1.8202867e-42
-1.6916168 0.80533397 2.448446 7.3939513e-40
-1.6837131 0.80436116 2.4524822 7.3975106e-40
-1.6619307 0.79622734 2.4608452 0
-1.5717036 0.78267801 2.505682 7.3721471e-40
-1.5283995 0.77199626 2.5250857 9.1856516e-41
-1.6248915 0.78607404 2.4769273 4.5921532e-40
-1.6093467 0.78416115 2.484865 1.8328984e-42
-1.6171192 0.78511745 2.4808962 4.5992157e-40
-1.7393672 0.80851591 2.4226987 1.3818779e-39
-0.90783703 0.63345587 2.8105068 3.6863861e-39
-0.89862663 0.62718433 2.812609 3.6867364e-39
-0.89436013 0.62850082 2.8157198 2.1212254e-39
-0.89545125 0.63059664 2.8161557 3.4112383e-39
-0.89036953 0.62527817 2.816375 3.4112383e-39
-0.88583523 0.62673098 2.8197081 2.3963745e-39
-0.88719404 0.62869054 2.8199215 3.4115886e-39
-0.90879017 0.63782114 2.8121703 3.8707675e-39
-0.91165912 0.64147311 2.8123746 2.3967347e-39
-0.89615184 0.6400277 2.8205278 2.3052621e-39
-0.89640427 0.63496196 2.8178191 3.5034339e-39
-0.91800028 0.64409286 2.8100677 3.8704172e-39
-0.92117578 0.64068043 2.8065212 3.6863861e-39
-0.91704714 0.63972741 2.8084042 3.8704172e-39
-0.90466154 0.63686806 2.8140533 3.8704172e-39
-0.88699847 0.63534403 2.8234017 2.3056166e-39
-0.85032785 0.6252079 2.8392813 3.8704144e-39
-0.90243906 0.64464593 2.819263 3.5034339e-39
-0.87848377 0.63357264 2.8273833 2.4892876e-39
-0.91387182 0.64313972 2.8119509 3.8707675e-39
-0.90974319 0.6421867 2.8138337 3.8707675e-39
-0.91482496 0.64750504 2.8136144 3.5034339e-39
-0.88853228 0.61011791 2.8097541 2.2130581e-39
-0.9279412 0.62198466 2.7931817 2.3956514e-39
-0.92600679 0.60781753 2.7871194 3.5016361e-39
-0.88738114 0.60155207 2.8060787 2.3041719e-39
-0.85284084 0.5947333 2.8224163 2.3956514e-39
-0.92695206 0.61214727 2.7887692 3.4094404e-39
-0.89648712 0.60623991 2.8032339 2.30346e-39
-0.92789739 0.61647689 2.7904193 3.4094404e-39
-1.8162971 0.83789706 2.3934941 4.6138312e-40
-1.8402535 0.84685683 2.3843036 1.3818835e-39
-1.8259274 0.83035278 2.3841581 9.2414232e-40
-1.8178179 0.82935476 2.388299 1.2010893e-39
-1.7863466 0.8199634 2.4015768 1.2915025e-39
