# .PCD v0.7 - Point Cloud Data file format
VERSION 0.7
FIELDS x y z rgb
SIZE 4 4 4 4
TYPE F F F F
COUNT 1 1 1 1
WIDTH 1049
HEIGHT 1
VIEWPOINT 0 0 0 1 0 0 0
POINTS 1049
DATA ascii
3.148129 0.84272653 -0.97917217 1.705729e-38
3.1466434 0.85052395 -0.97246075 1.705729e-38
3.1451581 0.85832131 -0.9657492 1.7607943e-38
3.1436722 0.86611897 -0.95903772 1.7333867e-38
3.1866038 0.64928651 -1.1492423 1.7054024e-38
3.1821468 0.67267907 -1.1291081 1.7054024e-38
3.1806614 0.68047643 -1.1223963 1.7422803e-38
3.1791761 0.68827379 -1.1156849 1.7423882e-38
3.1776903 0.69607133 -1.1089735 1.7517523e-38
3.1762047 0.70386887 -1.102262 1.7607566e-38
3.1747189 0.71166623 -1.0955505 1.7792678e-38
3.1732335 0.71946365 -1.0888389 1.7792678e-38
3.1717477 0.72726119 -1.0821275 1.7608646e-38
3.1687765 0.74285614 -1.0687047 1.7423529e-38
3.1562898 0.86078817 -0.98920476 1.1977166e-38
3.1547921 0.86864936 -0.98243845 1.2349568e-38
3.1532941 0.87651068 -0.97567213 1.3919407e-38
3.1517963 0.88437188 -0.96890563 1.5855516e-38
3.1502986 0.89223313 -0.96213937 1.6962939e-38
3.1488011 0.90009433 -0.95537293 1.7608309e-38
3.1473033 0.90795553 -0.94860649 1.7701226e-38
3.1458056 0.91581678 -0.94184017 1.8160764e-38
3.1338234 0.97870666 -0.88770908 1.7701211e-38
3.1323259 0.9865678 -0.88094258 1.7515745e-38
3.1278327 1.0101516 -0.86064333 1.816147e-38
3.1302228 1.052276 -0.84735048 1.908596e-38
3.1287124 1.0602037 -0.84052676 1.9177076e-38
3.127202 1.0681317 -0.83370304 1.9178155e-38
3.1256914 1.0760593 -0.82687938 1.9361826e-38
3.124181 1.0839872 -0.82005578 1.9361824e-38
3.201309 0.5806061 -1.211929 1.7237323e-38
3.1830974 0.72865587 -1.106535 1.7607563e-38
3.1815994 0.73651713 -1.0997689 1.7607566e-38
3.1801016 0.74437845 -1.0930024 1.7608644e-38
3.1786041 0.7522397 -1.086236 1.7608649e-38
3.1771061 0.76010096 -1.0794697 1.8068548e-38
3.1756082 0.7679621 -1.0727032 1.8345132e-38
3.1711149 0.79154587 -1.052404 1.8071067e-38
3.1696177 0.79940701 -1.0456377 1.8254738e-38
3.1681197 0.80726826 -1.0388712 1.8345135e-38
3.1666217 0.81512958 -1.032105 1.7791962e-38
3.1651242 0.82299078 -1.0253384 1.6869279e-38
3.1636262 0.83085203 -1.0185721 1.5945152e-38
3.1414957 1.0564954 -0.87034428 1.908596e-38
3.1399724 1.0644898 -0.86346352 1.9454019e-38
3.1384494 1.072484 -0.85658258 1.9546571e-38
3.1369264 1.0804784 -0.84970146 1.9454022e-38
3.1354032 1.0884727 -0.84282053 1.9453303e-38
3.1338799 1.0964671 -0.83593965 1.9454022e-38
3.1323569 1.1044614 -0.82905883 1.9638412e-38
3.1308339 1.1124557 -0.82217783 1.9269272e-38
3.1293106 1.12045 -0.81529683 1.9086679e-38
3.1277874 1.1284444 -0.80841595 1.9270707e-38
3.1262643 1.1364388 -0.80153489 1.9087035e-38
3.2009182 0.64369118 -1.183267 1.7514283e-38
3.1994202 0.65155238 -1.1765007 1.7237339e-38
3.1979225 0.65941364 -1.1697344 1.7330255e-38
3.1964247 0.66727489 -1.1629679 1.7790513e-38
3.1949267 0.67513615 -1.1562015 1.7423529e-38
3.1934292 0.68299735 -1.1494353 1.7606844e-38
3.1919315 0.6908586 -1.1426687 1.7699396e-38
3.1904337 0.6987198 -1.1359025 1.769904e-38
3.188936 0.70658106 -1.129136 1.7974555e-38
3.1844428 0.73016465 -1.1088368 1.7608646e-38
3.1829448 0.7380259 -1.1020703 1.760721e-38
3.1799495 0.75374842 -1.0885377 1.7424265e-38
3.17976 0.80955786 -1.0635266 1.7885955e-38
3.1782496 0.81748563 -1.056703 1.806927e-38
3.1767392 0.82541347 -1.0498792 1.8345864e-38
3.1752286 0.83334124 -1.0430557 1.8621372e-38
3.1737182 0.84126902 -1.0362319 1.8438776e-38
3.1722081 0.84919673 -1.0294081 1.8531694e-38
3.1706977 0.85712445 -1.0225844 1.8807202e-38
3.1691871 0.8650524 -1.0157608 1.8716086e-38
3.1676767 0.87298012 -1.0089372 1.8992312e-38
3.1661663 0.88090789 -1.0021133 1.8714286e-38
3.1631453 0.8967635 -0.98846608 1.622391e-38
3.1571035 0.92847466 -0.96117151 6.8152487e-39
3.1555934 0.93640238 -0.95434773 5.3436779e-39
3.1550488 0.99407512 -0.92773277 9.6733539e-39
3.1535258 1.0020694 -0.92085171 1.391222e-38
3.1520028 1.0100636 -0.91397077 1.327006e-38
3.1504796 1.0180581 -0.90708971 4.3198556e-39
3.1489563 1.0260526 -0.90020895 1.3906074e-38
3.1474333 1.0340469 -0.89332795 1.9086679e-38
3.14591 1.0420411 -0.88644707 1.9177432e-38
3.1443868 1.0500355 -0.87956613 1.9361826e-38
3.142864 1.0580298 -0.87268502 1.9270707e-38
3.1413407 1.0660242 -0.86580431 1.9454016e-38
3.139818 1.0740185 -0.8589232 1.9636969e-38
3.1382947 1.0820128 -0.8520422 1.8810805e-38
3.1367714 1.0900072 -0.84516126 1.9454019e-38
3.1977317 0.72387373 -1.1409081 1.7791962e-38
3.1962214 0.73180157 -1.1340842 1.7975271e-38
3.194711 0.73972934 -1.1272606 1.7884154e-38
3.1932008 0.747657 -1.120437 1.7516095e-38
3.19169 0.75558484 -1.1136134 1.7884876e-38
3.1901796 0.76351273 -1.1067897 1.7701208e-38
3.1886694 0.77144045 -1.0999659 1.8159312e-38
3.1871588 0.77936828 -1.0931424 1.7883807e-38
3.1606932 1.0303409 -0.92419565 1.8618212e-40
3.1560845 1.0545318 -0.90337372 1.8993045e-38
3.1514752 1.0787227 -0.88255203 1.9454019e-38
3.1468666 1.1029137 -0.86173004 1.9546218e-38
3.14533 1.1109775 -0.85478956 1.972953e-38
3.1391847 1.143232 -0.82702702 1.936147e-38
3.1376486 1.1512958 -0.82008636 1.880902e-38
3.2172139 0.63026196 -1.2251133 1.7237339e-38
3.1973865 0.78929102 -1.1113187 1.7793406e-38
3.1958635 0.79728532 -1.1044378 1.7885602e-38
3.192817 0.81327409 -1.0906761 1.8161467e-38
3.191294 0.82126838 -1.083795 1.8529892e-38
3.1897707 0.82926273 -1.0769141 1.8345858e-38
3.1882479 0.83725703 -1.070033 1.8714639e-38
3.1867247 0.84525132 -1.0631522 1.8438776e-38
3.1852019 0.85324568 -1.0562711 1.8255826e-38
3.1836786 0.86124003 -1.0493902 1.8438776e-38
3.1821554 0.86923438 -1.0425092 1.8714286e-38
3.1806321 0.87722868 -1.0356282 1.9175262e-38
3.1791091 0.88522303 -1.0287473 1.8991593e-38
3.1775861 0.89321738 -1.0218663 1.8715009e-38
3.1760631 0.90121186 -1.0149853 1.8899398e-38
3.1712914 0.98350656 -0.96820021 1.9914276e-38
3.1697555 0.99157017 -0.96125954 2.0006471e-38
3.1682189 0.99963379 -0.95431906 2.0099742e-38
3.160537 1.0399522 -0.91961604 1.9176708e-38
3.1590009 1.0480158 -0.91267544 1.9639131e-38
3.2306547 0.56836116 -1.2820237 1.7327368e-38
3.189616 0.83879137 -1.0723736 1.834658e-38
3.1880929 0.84678572 -1.0654927 1.8438778e-38
3.1865697 0.85478014 -1.0586118 1.8715007e-38
3.1692238 1.060477 -0.92972267 1.927071e-38
3.1630256 1.093009 -0.9017216 1.9638412e-38
3.1614759 1.1011419 -0.89472139 1.927071e-38
3.2351546 0.60849011 -1.274262 1.6961828e-38
3.2321086 0.6244787 -1.2605001 1.7696876e-38
3.2305856 0.63247293 -1.253619 1.7422806e-38
3.2047782 0.82532865 -1.1117349 1.834658e-38
3.2032421 0.83339232 -1.1047941 1.8436981e-38
3.2017057 0.841456 -1.0978534 1.8714286e-38
3.2001693 0.84951967 -1.0909128 1.8530971e-38
3.1909513 0.89790165 -1.0492691 1.8991593e-38
3.1892104 0.96444213 -1.0161073 1.9176711e-38
3.1876607 0.97257519 -1.0091069 1.9361821e-38
3.1861112 0.98070824 -1.0021069 1.8993042e-38
3.1845617 0.98884118 -0.99510646 1.9269625e-38
3.183012 0.99697423 -0.98810625 1.9546568e-38
3.1814625 1.0051072 -0.98110592 1.9636969e-38
3.2365232 0.61002439 -1.2766025 1.7330608e-38
3.2334766 0.62601304 -1.2628407 1.7329171e-38
3.2292035 0.70592141 -1.2182049 1.7791959e-38
3.2276671 0.71398509 -1.2112641 1.7791962e-38
3.2261307 0.72204876 -1.2043235 1.8160021e-38
3.2184491 0.76236707 -1.1696205 1.7977069e-38
3.216913 0.77043068 -1.1626799 1.816182e-38
3.2153766 0.7784943 -1.1557393 1.862064e-38
3.1871254 1.0417299 -0.97745204 1.9177432e-38
3.1855628 1.0499324 -0.97039217 1.9730963e-38
3.184 1.0581347 -0.96333218 1.9729883e-38
3.247483 0.61876881 -1.2969126 1.7146577e-38
3.2459466 0.62683237 -1.2899721 1.7422806e-38
3.2444103 0.63489616 -1.2830316 1.7422806e-38
3.2321196 0.69940537 -1.2275065 1.797635e-38
3.226084 0.78863853 -1.1748762 1.8529171e-38
3.2057195 0.95307899 -1.057513 1.9269625e-38
3.2041566 0.96128124 -1.0504532 1.9178864e-38
3.2025938 0.96948355 -1.0433933 1.9454372e-38
3.1994686 0.98588818 -1.0292733 1.9639118e-38
3.1979058 0.99409044 -1.0222135 1.991535e-38
3.1963432 1.0022929 -1.0151534 1.991535e-38
3.1947801 1.0104952 -1.0080934 1.9914276e-38
3.1932178 1.0186974 -1.0010333 1.9638765e-38
3.1916547 1.0268997 -0.99397367 1.9546568e-38
3.1900923 1.035102 -0.9869135 1.9730961e-38
3.2657628 0.53161627 -1.3756204 1.6960378e-38
3.2596176 0.56387091 -1.3478581 1.741992e-38
3.2445209 0.70073658 -1.2542605 1.7975271e-38
3.2429714 0.70886958 -1.2472603 1.8068904e-38
3.2023869 1.0394468 -1.0121057 2.0006827e-38
3.2008104 1.0477213 -1.0049835 2.0283051e-38
3.199234 1.0559956 -0.99786162 2.0006471e-38
3.1976578 1.0642701 -0.9907397 1.9729883e-38
3.2211444 0.95001674 -1.0928705 1.972988e-38
3.2195678 0.95829111 -1.0857486 1.9822433e-38
3.2179916 0.96656549 -1.0786264 1.9914626e-38
3.2164152 0.97483987 -1.0715044 1.9454372e-38
3.2148385 0.98311424 -1.0643826 1.9730961e-38
3.2038035 1.0410348 -1.0145284 2.000719e-38
3.276746 0.54933196 -1.3920285 1.6959662e-38
3.2599387 0.69532788 -1.2906364 1.7975624e-38
3.2583761 0.70353019 -1.2835764 1.8067467e-38
3.2568135 0.71173251 -1.2765164 1.8251498e-38
3.2552505 0.71993488 -1.2694564 1.7792678e-38
3.2816582 0.59027225 -1.3848172 1.7145491e-38
3.2800956 0.5984745 -1.3777573 1.7329519e-38
3.278533 0.60667676 -1.3706974 1.7330961e-38
3.2769701 0.61487913 -1.3636374 1.7146221e-38
3.2691562 0.65589076 -1.3283377 1.7975977e-38
3.2675939 0.6640929 -1.3212776 1.7700113e-38
3.2586594 0.77115601 -1.2544001 1.7885602e-38
3.2570829 0.77943033 -1.247278 1.8621725e-38
3.2555065 0.78770477 -1.2401561 1.8254382e-38
3.2539301 0.7959792 -1.233034 1.8622088e-38
3.2523539 0.80425358 -1.2259121 1.8161833e-38
3.250777 0.81252795 -1.2187899 1.8623887e-38
3.2492006 0.82080233 -1.211668 1.8899035e-38
3.2476244 0.82907677 -1.2045459 1.8716442e-38
3.2460477 0.8373512 -1.1974239 1.8806483e-38
3.3002524 0.50162119 -1.4648784 1.6407557e-38
3.2986894 0.5098235 -1.4578185 1.6867462e-38
3.297127 0.51802576 -1.4507585 1.6774903e-38
3.2955639 0.52622813 -1.4436984 1.6867462e-38
3.2940013 0.53443033 -1.4366386 1.668415e-38
3.2908759 0.55083501 -1.4225186 1.6959662e-38
3.2774167 0.68172574 -1.3351649 1.806782e-38
3.2758405 0.69000018 -1.3280427 1.797635e-38
3.2742639 0.69827443 -1.3209209 1.7699046e-38
3.2726874 0.70654881 -1.3137988 1.8435529e-38
3.2711112 0.71482325 -1.3066767 1.8252935e-38
3.2695346 0.72309768 -1.2995548 1.8069623e-38
3.2679579 0.73137218 -1.2924328 1.8252935e-38
3.2663817 0.73964649 -1.2853109 1.8804671e-38
3.2977507 0.58402097 -1.4230516 1.7328443e-38
3.2772567 0.69158822 -1.3304654 1.8068904e-38
3.2756803 0.69986266 -1.3233436 1.8067467e-38
3.2741036 0.70813704 -1.3162216 1.8619922e-38
3.3165081 0.49459058 -1.5038165 1.6497607e-38
3.3149321 0.50286496 -1.4966943 1.6590153e-38
3.3133552 0.51113945 -1.4895724 1.6315361e-38
3.1530962 0.54832822 -1.1198571 1.5761472e-38
3.1516573 0.55587888 -1.113358 1.6127377e-38
3.1502187 0.56342977 -1.1068591 8.9346566e-39
3.1487803 0.57098037 -1.1003598 7.1764418e-39
3.1473417 0.57853091 -1.0938609 1.1425383e-38
3.1459029 0.58608162 -1.0873619 1.4842029e-38
3.1444645 0.59363234 -1.0808626 1.4105912e-38
3.1622748 0.55571336 -1.1368393 1.576219e-38
3.1608253 0.56332225 -1.13029 1.6127733e-38
3.1535769 0.60136688 -1.0975442 1.43825e-38
3.1521273 0.60897571 -1.090995 1.4383219e-38
3.1577785 0.58760941 -1.1128705 1.1794892e-38
3.1750009 0.55748719 -1.1641146 1.5949105e-38
3.1894703 0.48990571 -1.225798 1.6497591e-38
3.1880085 0.49757841 -1.2191938 1.6590875e-38
3.1865468 0.50525117 -1.2125896 1.6407563e-38
3.1850848 0.51292372 -1.2059858 1.640756e-38
3.1836231 0.52059644 -1.1993815 1.6315008e-38
3.1821611 0.52826905 -1.1927775 1.6132771e-38
3.1806993 0.53594178 -1.1861733 1.6683424e-38
3.1792376 0.54361451 -1.1795692 1.6408279e-38
3.1777756 0.55128711 -1.1729653 1.6224248e-38
3.1763139 0.55895978 -1.1663612 1.6133497e-38
3.1748521 0.56663245 -1.159757 1.6133497e-38
3.1893218 0.49905097 -1.2214403 1.6222448e-38
3.2064211 0.46758318 -1.2730064 1.5946938e-38
3.2049475 0.47531691 -1.2663498 1.5856188e-38
3.203474 0.48305055 -1.2596931 1.5762912e-38
3.2020009 0.49078423 -1.2530365 1.6314645e-38
3.190213 0.55265379 -1.1997838 1.6499402e-38
3.1887398 0.56038755 -1.193127 1.6499052e-38
3.1872661 0.56812119 -1.1864705 1.6499771e-38
3.2092183 0.46133384 -1.2819272 1.6314641e-38
3.2077448 0.46906748 -1.2752707 1.6497953e-38
3.2062714 0.47680119 -1.2686141 1.6039852e-38
3.2047977 0.4845348 -1.2619575 1.640756e-38
3.1987906 0.56831878 -1.2117915 1.6592676e-38
3.226866 0.42946112 -1.3348813 1.613025e-38
3.2253802 0.43725851 -1.3281699 1.5945859e-38
3.222409 0.45285353 -1.314747 1.6130247e-38
3.2209234 0.46065098 -1.3080355 1.6222443e-38
3.2194381 0.46844843 -1.301324 1.6222443e-38
3.2120099 0.50743568 -1.2677665 1.6499402e-38
3.2060676 0.53862548 -1.2409204 1.6223897e-38
3.204582 0.54642308 -1.2342091 1.668415e-38
3.2030964 0.55422056 -1.2274975 1.6500111e-38
3.201611 0.56201798 -1.2207859 1.6500474e-38
3.2282007 0.43095776 -1.3371643 1.613025e-38
3.2267153 0.43875507 -1.3304529 1.6222083e-38
3.2192872 0.47774249 -1.2968955 1.6314997e-38
3.2310255 0.47709632 -1.3230596 1.65898e-38
3.2295272 0.48495767 -1.3162931 1.649796e-38
3.2280297 0.49281877 -1.3095267 1.6590875e-38
3.2265322 0.50067997 -1.3027604 1.6315008e-38
3.2220387 0.52426368 -1.2824612 1.6682364e-38
3.2205408 0.53212506 -1.2756948 1.7142256e-38
3.2190433 0.53998625 -1.2689285 1.7142607e-38
3.2160478 0.55570871 -1.2553957 1.6592676e-38
3.2311149 0.54001302 -1.2955314 1.65898e-38
3.2296045 0.54794085 -1.2887076 1.6867462e-38
3.2280941 0.55586845 -1.281884 1.6959659e-38
3.2265837 0.56379628 -1.2750602 1.6683796e-38
3.217521 0.61136311 -1.2341183 1.6869279e-38
3.2160106 0.61929095 -1.2272946 1.6961109e-38
3.2145 0.62721872 -1.220471 1.7146221e-38
3.2129896 0.6351465 -1.2136472 1.7146577e-38
3.2475762 0.46225664 -1.366089 1.5945506e-38
3.2460659 0.47018453 -1.3592656 1.5945503e-38
3.2445552 0.47811231 -1.3524418 1.6130253e-38
3.2430449 0.48604009 -1.3456182 1.6497958e-38
3.2415342 0.49396792 -1.3387946 1.6499756e-38
3.2400241 0.50189555 -1.3319708 1.6405761e-38
3.2385137 0.50982338 -1.325147 1.6499758e-38
3.2370031 0.51775116 -1.3183236 1.6409714e-38
3.2354927 0.52567911 -1.3114996 1.6407194e-38
3.2339823 0.53360677 -1.3046762 1.6592676e-38
3.2324722 0.54153454 -1.2978524 1.6591957e-38
3.2309613 0.54946238 -1.2910289 1.6777068e-38
3.2627256 0.45506316 -1.4026592 1.6406114e-38
3.2612026 0.46305752 -1.3957782 1.5946938e-38
3.2596796 0.47105178 -1.3888974 1.6130253e-38
3.2581563 0.4790462 -1.3820167 1.5946585e-38
3.256633 0.48704058 -1.3751355 1.6499756e-38
3.2551098 0.49503493 -1.3682545 1.6774547e-38
3.253587 0.50302917 -1.3613737 1.6314292e-38
3.2520638 0.51102346 -1.3544925 1.6683071e-38
3.2505405 0.51901793 -1.3476118 1.6407563e-38
3.2490175 0.52701229 -1.3407307 1.6407926e-38
3.2474945 0.53500664 -1.3338497 1.6959662e-38
3.2172594 0.8083545 -1.1467316 1.7701211e-38
3.2157097 0.81648755 -1.1397314 1.7886322e-38
3.2141602 0.82462054 -1.1327312 1.7610813e-38
3.2752931 0.46401161 -1.4264233 1.613025e-38
3.2737565 0.47207522 -1.4194828 1.6314641e-38
3.2722201 0.48013902 -1.4125422 1.6591228e-38
3.270684 0.48820257 -1.4056016 1.6132768e-38
3.2691479 0.49626616 -1.398661 1.6773821e-38
3.2630024 0.52852094 -1.3708984 1.6591957e-38
3.2277565 0.82846999 -1.1610109 1.8254384e-38
3.2246311 0.84487468 -1.1468911 1.8438776e-38
3.2230682 0.85307699 -1.1398311 1.8438776e-38
3.2215056 0.86127925 -1.1327711 1.8531327e-38
3.2168176 0.88588619 -1.1115912 1.9084145e-38
3.2152545 0.89408851 -1.1045314 1.8809356e-38
3.2879076 0.47301316 -1.4502686 1.6773821e-38
3.2848086 0.48927909 -1.4362681 1.6222446e-38
3.2832589 0.49741223 -1.4292678 1.6223169e-38
3.2817097 0.50554502 -1.4222676 1.6314289e-38
3.2801602 0.51367813 -1.415267 1.6590519e-38
3.2835386 0.56251669 -1.401194 1.6684517e-38
3.281976 0.570719 -1.3941342 1.6869264e-38
3.2757249 0.6035282 -1.3658943 1.7696146e-38
3.3005698 0.48206809 -1.4741954 1.6405758e-38
3.2990074 0.49027029 -1.4671352 1.7050408e-38
3.2974443 0.49847257 -1.4600754 1.6406841e-38
3.295882 0.50667483 -1.4530153 1.6497605e-38
3.2943189 0.5148772 -1.4459554 1.6775619e-38
3.3136756 0.49141428 -1.4989711 1.6590153e-38
3.0826895 0.96513373 -0.78095514 4.8683575e-39
3.0725422 1.018396 -0.73511058 1.9178874e-38
3.0710924 1.0260049 -0.72856152 1.9086681e-38
3.0696428 1.0336137 -0.72201222 1.9364344e-38
3.090363 0.99335724 -0.78543508 1.8442388e-38
3.0830538 1.0317206 -0.75241452 1.8903366e-38
3.0640504 1.1314656 -0.66656137 1.7425347e-38
3.103579 0.99050498 -0.81582898 1.4281688e-38
3.1021054 0.99823868 -0.80917239 1.8718251e-38
3.100632 1.0059724 -0.8025158 1.8626054e-38
3.0991583 1.013706 -0.79585928 1.8903719e-38
3.1157477 0.9956826 -0.84037638 8.2846181e-39
3.1142623 1.00348 -0.83366483 1.8624609e-38
3.1127765 1.0112774 -0.82695341 1.8718253e-38
3.1617885 0.89524192 -0.9861449 5.056692e-39
3.1602778 0.90316975 -0.9793213 6.1615878e-39
3.1587675 0.91109747 -0.97249764 8.6519348e-39
3.1557467 0.92695308 -0.95885026 1.2156892e-38
3.1542363 0.93488079 -0.95202655 1.2902391e-38
3.1527257 0.94280857 -0.94520307 1.4565859e-38
3.1466842 0.97451973 -0.91790825 1.6690671e-38
3.1451735 0.98244756 -0.91108465 1.7793059e-38
3.1421528 0.99830306 -0.89743733 1.5584324e-38
3.1406424 1.006231 -0.89061362 5.4286989e-39
3.139132 1.0141587 -0.8837899 9.3909642e-39
3.1807871 0.86770004 -1.0401685 1.8346943e-38
3.1792638 0.87569439 -1.0332875 1.8438778e-38
3.1777408 0.88368863 -1.0264066 1.8623887e-38
3.1762176 0.89168304 -1.0195258 1.8991233e-38
3.1746945 0.89967746 -1.0126446 1.9084867e-38
3.1716483 0.91566604 -0.99888265 1.954477e-38
3.167079 0.93964911 -0.97824007 1.9361824e-38
3.1655557 0.9476434 -0.97135907 1.8807205e-38
3.1640325 0.95563781 -0.96447825 1.8251866e-38
3.1594634 0.97962081 -0.9438352 1.2532842e-38
3.1579404 0.98761511 -0.9369542 7.6475485e-39
3.1926439 0.88022673 -1.0607895 1.8530971e-38
3.1911075 0.88829035 -1.0538489 1.8715007e-38
3.1895714 0.89635396 -1.046908 1.8531338e-38
3.1880348 0.90441769 -1.0399674 1.8716088e-38
3.1864984 0.91248143 -1.0330269 1.9175264e-38
3.184962 0.92054504 -1.0260862 1.8993751e-38
3.1834259 0.92860866 -1.0191456 1.9176708e-38
3.1818895 0.93667221 -1.012205 1.9361821e-38
3.1803532 0.94473588 -1.0052645 1.9084514e-38
3.1788168 0.9527995 -0.9983238 1.9636966e-38
3.1711354 0.99311787 -0.96362066 1.9361102e-38
3.1952507 0.94160432 -1.0394894 1.9636966e-38
3.1937015 0.94973725 -1.0324893 1.9455091e-38
3.1921518 0.95787019 -1.0254889 1.9454016e-38
3.2274389 0.84802324 -1.1516942 1.8623887e-38
3.2258763 0.85622549 -1.1446341 1.8716439e-38
3.2243135 0.86442786 -1.1375743 1.8899398e-38
3.2227509 0.87263006 -1.1305141 1.8992312e-38
3.2211881 0.88083243 -1.1234543 1.8716086e-38
3.2196255 0.88903469 -1.1163943 1.8808281e-38
3.2180626 0.89723694 -1.1093343 1.8809e-38
3.2164996 0.90543938 -1.1022744 1.9176343e-38
3.2149372 0.91364163 -1.0952144 1.9544767e-38
3.2133741 0.92184407 -1.0881546 1.9177783e-38
3.2351725 0.88540953 -1.1522694 1.8991593e-38
3.2335961 0.89368391 -1.1451473 1.8809e-38
3.2320194 0.90195841 -1.1380253 1.8993751e-38
3.230443 0.91023272 -1.1309032 1.9361455e-38
3.2194078 0.9681536 -1.0810491 1.9730961e-38
3.2178314 0.97642791 -1.0739272 2.0006824e-38
3.2162547 0.98470241 -1.0668052 2.0006827e-38
3.2010596 0.6891194 -1.1635605 1.7239857e-38
3.2234342 0.64385867 -1.2328353 1.7146224e-38
3.2158189 0.6838302 -1.1984304 1.7514646e-38
3.2112494 0.70781326 -1.1777875 1.7606844e-38
3.2341244 0.66250777 -1.2481861 1.7054024e-38
3.2325881 0.67057157 -1.2412455 1.7514646e-38
3.2249067 0.71088982 -1.2065424 1.7424254e-38
3.2479348 0.66508287 -1.2774993 1.7515002e-38
3.2463851 0.67321581 -1.270499 1.7424604e-38
3.2448356 0.6813488 -1.2634987 1.7514649e-38
3.2432861 0.68948185 -1.2564986 1.769976e-38
3.2417367 0.69761479 -1.2494981 1.7607563e-38
3.2665074 0.64296567 -1.3281931 1.733169e-38
3.264945 0.65116793 -1.3211329 1.7330255e-38
3.263382 0.65937012 -1.3140732 1.733169e-38
3.2602565 0.67577481 -1.2999532 1.7699393e-38
3.2586935 0.68397713 -1.2928933 1.7790513e-38
3.2745843 0.67854947 -1.3303196 1.7882705e-38
3.2730079 0.68682396 -1.3231976 1.8159296e-38
3.1837716 0.51145101 -1.2037392 1.5856537e-38
3.1793861 0.53446913 -1.1839268 1.5856534e-38
3.1779242 0.5421418 -1.1773229 1.6317515e-38
3.1764624 0.54981452 -1.1707187 1.6224248e-38
3.1508245 0.60751534 -1.0887672 1.456689e-38
3.1306038 0.91770792 -0.90749133 1.6779624e-38
3.0729358 1.1344762 -0.684825 1.733387e-38
3.0742595 1.1359606 -0.68708932 1.7241674e-38
3.0878229 1.1252462 -0.72171497 1.9087029e-38
3.0863376 1.1330436 -0.71500349 1.8626056e-38
3.084852 1.1408411 -0.70829201 1.8257278e-38
3.0833662 1.1486386 -0.70158052 1.7704823e-38
3.0927689 1.2315718 -0.68576378 1.4298617e-38
3.1092303 1.1538156 -0.75632149 1.87179e-38
3.131659 1.173939 -0.79690373 1.880865e-38
3.1301231 1.1820028 -0.78996307 1.8625335e-38
3.1285865 1.1900663 -0.78302246 1.8440946e-38
3.1507869 1.1483788 -0.85033822 1.9177079e-38
3.1492374 1.1565118 -0.84333807 1.8992692e-38
3.1476879 1.164645 -0.83633763 1.8993045e-38
3.1461382 1.1727779 -0.82933736 1.8900494e-38
3.1414897 1.1971768 -0.80833662 1.7979971e-38
3.1290934 1.2622406 -0.7523343 1.3561052e-38
3.1654058 1.1467857 -0.8832711 1.9271426e-38
3.1638432 1.1549881 -0.87621129 1.9178155e-38
3.1622803 1.1631902 -0.86915118 2.0006827e-38
3.1607177 1.1713927 -0.8620913 1.9269625e-38
3.1591549 1.1795949 -0.85503113 1.9454016e-38
3.1575923 1.1877972 -0.84797126 1.8993398e-38
3.1560295 1.1959995 -0.84091133 1.8901566e-38
3.1544669 1.2042017 -0.83385134 1.8532786e-38
3.152904 1.2124041 -0.82679152 1.8623903e-38
3.1513414 1.2206063 -0.81973147 1.7888138e-38
3.1694415 1.2033468 -0.86724269 1.9178508e-38
3.1678648 1.2116212 -0.86012083 1.8901201e-38
3.1662881 1.2198956 -0.85299903 1.862534e-38
3.1631353 1.2364445 -0.83875483 1.8716454e-38
3.0758934 1.0609387 -0.72375166 1.9359653e-38
3.2341731 0.45200378 -1.3410571 1.6222443e-38
3.2326753 0.45986503 -1.3342905 1.613025e-38
3.2311773 0.46772626 -1.3275243 1.6222448e-38
3.2296796 0.47558752 -1.320758 1.6224245e-38
3.2492402 0.44487944 -1.3774153 1.6589789e-38
3.2477295 0.4528074 -1.3705918 1.6405042e-38
3.2462192 0.46073514 -1.363768 1.6589437e-38
3.2447088 0.46866298 -1.3569444 1.6958216e-38
3.2431984 0.47659075 -1.3501207 1.6591228e-38
3.241688 0.4845185 -1.343297 1.6957497e-38
3.2401776 0.49244633 -1.3364733 1.6222095e-38
3.2613571 0.45352888 -1.4003186 1.6039133e-38
3.2598341 0.46152326 -1.3934377 1.5947657e-38
3.2583113 0.46951744 -1.3865566 1.6314641e-38
3.256788 0.47751185 -1.3796759 1.6221729e-38
3.2552648 0.48550621 -1.3727949 1.6222813e-38
3.2537415 0.49350062 -1.3659139 1.649796e-38
3.2522185 0.50149488 -1.359033 1.6590519e-38
3.2506955 0.5094893 -1.352152 1.6590519e-38
3.2491722 0.51748365 -1.3452712 1.6775622e-38
3.1653216 0.53142631 -1.1542592 1.585654e-38
3.1638715 0.53903526 -1.1477101 1.5763988e-38
3.1624222 0.54664421 -1.1411607 1.5855461e-38
3.1824582 0.50997841 -1.2014928 1.6223169e-38
3.1809964 0.5176512 -1.1948887 1.6315011e-38
3.1795347 0.52532381 -1.1882845 1.6315011e-38
3.1780727 0.53299654 -1.1816804 1.6132049e-38
3.1766109 0.5406692 -1.1750762 1.604057e-38
3.1751492 0.54834193 -1.1684724 1.6222448e-38
3.1736875 0.55601466 -1.1618683 1.5856188e-38
3.1954663 0.45006973 -1.2565719 1.613025e-38
3.1940043 0.45774239 -1.2499678 1.6406114e-38
3.1925428 0.465415 -1.2433637 1.5762907e-38
3.1910806 0.47308773 -1.2367597 1.5946582e-38
3.1866951 0.49610576 -1.2169473 1.6039852e-38
3.1852334 0.50377846 -1.2103434 1.604057e-38
3.1823096 0.51912373 -1.1971351 1.6132049e-38
3.1808479 0.52679646 -1.1905311 1.6132402e-38
3.2124646 0.42743048 -1.3040249 1.6130247e-38
3.2109911 0.43516421 -1.2973683 1.6039486e-38
3.2006769 0.48929995 -1.2507721 1.6315361e-38
3.1992037 0.4970336 -1.2441156 1.6406114e-38
3.2255313 0.42796457 -1.3325984 1.6129528e-38
3.2210746 0.45135698 -1.3124638 1.6222077e-38
3.2195892 0.45915428 -1.3057523 1.6222799e-38
3.1277015 1.2606796 -0.74995303 1.5033315e-38
3.1632955 1.2265818 -0.84345418 1.8624984e-38
3.1617191 1.2348564 -0.8363322 1.8348392e-38
3.1554134 1.2679539 -0.8078441 1.7515397e-38
3.1538367 1.2762283 -0.80072212 1.7240249e-38
3.2219079 0.78395557 -1.1677325 1.788416e-38
3.2203584 0.79208863 -1.1607322 1.8069267e-38
3.2217505 0.79364955 -1.1631132 1.8161464e-38
3.2293196 0.82026768 -1.1680708 1.8161114e-38
3.2261939 0.83667237 -1.153951 1.8529171e-38
3.219943 0.8694815 -1.1257112 1.8806836e-38
3.21838 0.87768394 -1.1186513 1.8531694e-38
3.2447877 0.7480213 -1.2340121 1.8160021e-38
3.2417991 0.83258688 -1.190156 1.8806836e-38
3.2402222 0.84086132 -1.1830342 1.8714284e-38
3.2621329 0.73488218 -1.2780428 1.8068904e-38
3.2605565 0.74315655 -1.2709209 1.8345132e-38
3.2589798 0.75143093 -1.2637987 1.8252935e-38
3.2465425 0.66352189 -1.2751181 1.7514646e-38
3.2449932 0.67165488 -1.2681179 1.7515002e-38
3.2434435 0.67978781 -1.2611176 1.7974185e-38
3.2418942 0.68792087 -1.2541171 1.7330981e-38
3.2403445 0.6960538 -1.2471169 1.779124e-38
3.2619779 0.65779585 -1.3116716 1.7239854e-38
3.2604153 0.66599822 -1.3046116 1.7606479e-38
3.2588525 0.67420059 -1.2975516 1.76072e-38
3.2572899 0.68240285 -1.2904917 1.7975627e-38
3.2142956 0.69182462 -1.1915494 1.7329902e-38
3.2127724 0.69981897 -1.1846685 1.7422097e-38
3.2295156 0.68669891 -1.2273643 1.7606491e-38
3.2279792 0.69476247 -1.2204237 1.7606847e-38
3.2264428 0.70282608 -1.2134832 1.7974552e-38
3.2618191 0.6675725 -1.3070132 1.7975258e-38
3.2865157 0.47145218 -1.4478873 1.6405042e-38
3.299166 0.48049375 -1.4717935 1.6405763e-38
3.2960405 0.49689826 -1.4576737 1.6590506e-38
3.2944779 0.50510061 -1.4506139 1.6682355e-38
3.2929151 0.51330298 -1.4435539 1.6683071e-38
3.2913525 0.52150524 -1.4364939 1.7051127e-38
3.3122594 0.48982626 -1.4965485 1.6590509e-38
3.3106833 0.49810067 -1.4894265 1.6590509e-38
3.149375 0.61512417 -1.0822179 1.4932783e-38
3.145026 0.6379509 -1.0625705 7.267983e-39
3.1435764 0.64555991 -1.0560213 8.0030313e-39
3.226737 0.55434698 -1.279563 1.6684506e-38
3.0854418 0.95898521 -0.78973198 6.8091601e-39
3.0946 0.97948456 -0.80088967 1.215543e-38
3.093138 0.98715717 -0.79428548 1.8809369e-38
3.0916765 0.99482983 -0.7876814 1.8165445e-38
3.0902143 1.0025024 -0.78107744 1.8626421e-38
3.0887527 1.0101752 -0.77447325 1.8993761e-38
3.1019557 1.0074567 -0.80478019 1.8626054e-38
3.0936148 1.1033504 -0.74413228 1.9454019e-38
3.092129 1.1111479 -0.73742092 1.9087035e-38
3.0906434 1.1189452 -0.73070943 1.9269625e-38
3.0891578 1.1267427 -0.72399795 1.890265e-38
3.087672 1.1345403 -0.71728659 1.8718975e-38
3.0861866 1.1423377 -0.7105751 1.8810452e-38
3.0847011 1.150135 -0.70386344 1.844059e-38
3.1230247 0.96598923 -0.86950529 1.7150202e-38
3.1155968 1.0049765 -0.83594799 1.8718253e-38
3.1086659 1.0936075 -0.78160989 1.9454741e-38
3.1071682 1.1014687 -0.77484345 1.9086679e-38
3.1056705 1.1093299 -0.76807714 1.8993045e-38
3.1041727 1.1171912 -0.76131076 1.9086679e-38
3.102675 1.1250523 -0.75454426 1.9086679e-38
3.1011772 1.1329137 -0.747778 1.8993764e-38
3.0996795 1.140775 -0.74101156 1.8718256e-38
3.0981817 1.1486362 -0.73424524 1.862534e-38
3.096684 1.1564975 -0.72747874 1.8625705e-38
3.0951862 1.1643587 -0.72071236 1.8164727e-38
3.0936885 1.17222 -0.71394598 1.8257281e-38
3.0921907 1.1800811 -0.70717961 1.7704823e-38
3.090693 1.1879424 -0.70041329 1.7796293e-38
3.1368191 0.96298414 -0.90124166 1.6324054e-38
3.1353211 0.97084534 -0.8944754 1.6597753e-38
3.1226709 1.0919149 -0.81323206 1.9454016e-38
3.12116 1.0998428 -0.80640858 1.9453303e-38
3.1196499 1.1077704 -0.79958475 1.9454741e-38
3.1181395 1.1156982 -0.79276109 1.9178508e-38
3.1166289 1.1236261 -0.78593755 1.8718253e-38
3.1151185 1.1315539 -0.77911371 1.9178155e-38
3.1136081 1.1394817 -0.77229005 1.86257e-38
3.1120975 1.1474093 -0.76546657 1.8993764e-38
3.1105874 1.1553372 -0.75864273 1.862534e-38
3.1090767 1.163265 -0.75181913 1.8809371e-38
3.1075664 1.1711928 -0.74499553 1.8624259e-38
3.106056 1.1791207 -0.73817182 1.8165082e-38
3.1045456 1.1870484 -0.73134798 1.7980691e-38
3.103035 1.1949762 -0.72452432 1.7428236e-38
3.1352484 1.0980016 -0.83828026 1.9454019e-38
3.1291561 1.1299788 -0.81075644 1.9178511e-38
3.1276329 1.1379732 -0.80387563 1.9178158e-38
3.1261098 1.1459675 -0.79699457 1.9177076e-38
3.1245866 1.1539619 -0.79011363 1.9177076e-38
3.1176763 1.2561233 -0.7298584 9.4982953e-39
3.166924 0.94917774 -0.97369975 1.9362177e-38
3.165401 0.9571721 -0.96681875 1.982136e-38
3.163878 0.96516645 -0.95993775 1.9729883e-38
3.068193 1.0412226 -0.71546316 1.9454738e-38
3.0667434 1.0488316 -0.70891392 1.9452572e-38
3.0845158 1.024048 -0.75901854 1.9086679e-38
3.0815918 1.0393932 -0.74581051 1.8903001e-38
3.0801303 1.047066 -0.73920643 1.9271426e-38
3.0786684 1.0547388 -0.7326023 1.9729527e-38
3.0772069 1.0624113 -0.72599816 1.9269259e-38
3.0669737 1.1161201 -0.67976946 1.7242753e-38
3.0976849 1.0214397 -0.78920251 1.9269981e-38
3.0962117 1.0291734 -0.78254586 1.8901922e-38
3.0932648 1.0446408 -0.76923275 1.9086313e-38
3.0917912 1.0523744 -0.76257616 1.8901566e-38
3.084424 1.0910428 -0.72929317 1.9088114e-38
3.0829506 1.0987765 -0.72263652 1.9364339e-38
3.0814769 1.1065102 -0.71597999 1.9547291e-38
3.0741098 1.1451786 -0.68269706 1.7336041e-38
3.1068342 1.0424672 -0.80010724 1.8810449e-38
3.1053486 1.0502648 -0.79339588 1.9087032e-38
3.1038628 1.0580623 -0.78668445 1.9269625e-38
3.1023774 1.0658596 -0.77997285 1.9454019e-38
3.1008916 1.0736572 -0.77326143 1.9178508e-38
3.099406 1.0814545 -0.76654994 1.8903719e-38
3.0979204 1.0892521 -0.75983846 1.9086679e-38
3.0964348 1.0970496 -0.75312686 1.9178511e-38
3.0949495 1.104847 -0.74641538 1.9361826e-38
3.0919781 1.1204418 -0.73299247 1.9361824e-38
3.0904927 1.1282392 -0.72628093 1.8718256e-38
3.0890069 1.1360369 -0.71956956 1.8902647e-38
3.0875211 1.1438344 -0.71285814 1.86257e-38
3.1234913 1.0243652 -0.84480906 1.8808647e-38
3.1219933 1.0322263 -0.8380428 1.9086316e-38
3.120496 1.0400877 -0.83127624 1.9361824e-38
3.1189981 1.0479488 -0.82450992 1.9454016e-38
3.1175001 1.0558101 -0.81774354 1.8810452e-38
3.1160028 1.0636714 -0.81097698 1.908596e-38
3.1145048 1.0715326 -0.80421072 1.9361826e-38
3.1130068 1.079394 -0.7974444 1.9361826e-38
3.1115093 1.087255 -0.79067796 1.9177076e-38
3.1100113 1.0951163 -0.78391159 1.9546215e-38
3.1085136 1.1029776 -0.77714527 1.9546935e-38
3.1070161 1.1108388 -0.77037865 1.8993045e-38
3.1025229 1.1344225 -0.75007951 1.8901568e-38
3.1376214 1.0220866 -0.87696636 1.9269978e-38
3.1361113 1.030014 -0.87014258 1.86257e-38
3.114965 1.1410034 -0.77461123 1.927071e-38
3.1503246 1.0275868 -0.90254962 1.5943014e-38
3.141186 1.0755528 -0.86126381 1.9453303e-38
3.1396627 1.0835471 -0.85438281 1.9271426e-38
3.0727861 1.1436943 -0.68043268 1.7057287e-38
3.0832152 1.1579326 -0.69715202 1.8533508e-38
3.0817297 1.16573 -0.69044042 1.8165801e-38
3.0802443 1.1735275 -0.68372887 1.7429678e-38
3.0893474 1.1864337 -0.69811147 1.8073603e-38
3.0912585 1.2394997 -0.67894006 8.576346e-39
3.0954828 1.234615 -0.69040591 1.1800322e-38
3.1289358 1.2719346 -0.74771535 8.5755977e-39
3.1404021 1.2780225 -0.77031183 8.3908393e-39
3.1568296 1.269542 -0.81026661 1.7424643e-38
3.1552529 1.2778164 -0.80314475 1.5493926e-38
3.1536765 1.2860907 -0.79602283 9.2202692e-39
3.1605589 1.1811694 -0.85743272 1.9270707e-38
3.1589961 1.1893716 -0.85037285 1.8993761e-38
3.1574335 1.1975739 -0.8433128 1.8993042e-38
3.1708577 1.204935 -0.8696655 1.9361824e-38
3.0772731 1.1891223 -0.67030591 1.7243107e-38
3.0728161 1.2125148 -0.6501714 1.6319718e-38
3.0942793 1.2236441 -0.69258749 1.6873262e-38
3.1209049 1.2303847 -0.74831933 1.7150207e-38
3.1615589 1.2447188 -0.83163291 1.8348392e-38
3.1483748 1.2272345 -0.81027001 1.825548e-38
3.1601427 1.2431307 -0.82921022 1.7979971e-38
3.158566 1.2514051 -0.8220883 1.7795577e-38
3.1569896 1.2596796 -0.8149662 1.7703025e-38
3.089195 1.1958036 -0.69364703 1.7334596e-38
3.1015244 1.2029039 -0.7177006 1.7518634e-38
3.1000142 1.2108316 -0.71087706 1.7058009e-38
3.0985036 1.2187594 -0.7040534 1.6688147e-38
3.096993 1.2266873 -0.69722974 1.5954545e-38
3.1108787 1.2259108 -0.72818506 1.7330283e-38
3.1093552 1.2339051 -0.72130424 1.6687797e-38
3.0757875 1.1969198 -0.66359448 1.6413358e-38
3.0743017 1.2047174 -0.656883 1.6503037e-38
3.0863519 1.2021559 -0.68457878 1.7242403e-38
3.0848541 1.2100172 -0.67781228 1.6597397e-38
3.0833564 1.2178785 -0.67104608 1.6596678e-38
3.0876975 1.2036648 -0.68688035 1.7149852e-38
3.0956364 1.2251657 -0.69490862 1.7148051e-38
3.1599824 1.2529932 -0.82451093 1.7795577e-38
3.1584058 1.2612677 -0.81738889 1.7885619e-38
3.1329556 0.65403771 -1.0288701 9.4806851e-39
3.1315172 0.66158837 -1.0223711 9.4839235e-39
3.1515114 0.56487882 -1.1090697 9.4863842e-39
3.1500728 0.57242954 -1.1025707 6.9899009e-39
3.1486342 0.57998019 -1.0960716 1.1793813e-38
3.1471953 0.58753085 -1.0895725 1.4841676e-38
3.1428797 0.610183 -1.0700753 1.447542e-38
3.1414411 0.61773354 -1.0635762 1.4838808e-38
3.1400027 0.62528425 -1.0570772 1.3825735e-38
3.1385639 0.63283497 -1.050578 1.3086362e-38
3.131371 0.6705882 -1.0180827 6.9114479e-39
3.1556809 0.55122668 -1.1242787 1.5762909e-38
3.154242 0.55877739 -1.1177796 1.6220648e-38
3.1528037 0.56632811 -1.1112806 9.2101547e-39
3.1534293 0.61043614 -1.0932229 1.4843477e-38
3.1519799 0.61804491 -1.0866736 1.5027519e-38
3.1476309 0.64087164 -1.067026 1.5211906e-38
3.1648796 0.55863416 -1.141295 1.585691e-38
3.1634297 0.56624299 -1.1347457 1.6405395e-38
3.1619802 0.57385194 -1.1281965 9.3938299e-39
3.1605306 0.58146089 -1.1216474 6.7158294e-39
3.1590807 0.58906972 -1.1150981 1.1612298e-38
3.1576312 0.59667861 -1.108549 1.5027142e-38
3.1561816 0.60428756 -1.1019999 1.465908e-38
3.1547318 0.61189651 -1.0954508 1.4750562e-38
3.1532819 0.61950541 -1.0889015 1.4843124e-38
3.1518326 0.6271143 -1.0823522 1.5027875e-38
3.1503828 0.63472313 -1.075803 1.5028238e-38
3.1489329 0.64233208 -1.0692539 1.4845647e-38
3.1474833 0.64994103 -1.0627046 1.5028225e-38
3.1460338 0.65754986 -1.0561554 1.5027875e-38
3.1647322 0.56770349 -1.1369735 1.6773466e-38
3.1761653 0.56810516 -1.1620034 1.6500474e-38
3.1703181 0.59879589 -1.1355871 9.668256e-39
3.1688564 0.60646856 -1.1289828 1.0040692e-38
3.1673944 0.61414123 -1.1223791 1.0507784e-38
3.1659327 0.62181389 -1.1157748 1.1984706e-38
3.1920969 0.49285087 -1.2302909 1.6039856e-38
3.190635 0.50052357 -1.2236867 1.6315364e-38
3.1877115 0.5158689 -1.2104787 1.6408279e-38
3.1862495 0.52354157 -1.2038745 1.5856191e-38
3.1847878 0.5312143 -1.1972704 1.6131699e-38
3.1833258 0.53888714 -1.1906664 1.6132418e-38
3.1774786 0.56957781 -1.16425 1.6684152e-38
3.1760168 0.57725054 -1.1576457 1.6499402e-38
3.1915367 0.55413806 -1.2020481 1.6131699e-38
3.1885898 0.56960541 -1.1887348 1.6592676e-38
3.1871164 0.57733911 -1.1820781 1.6683796e-38
3.1856427 0.58507282 -1.1754218 1.696003e-38
3.1826961 0.6005401 -1.1621084 1.668632e-38
3.2090688 0.47055179 -1.2775348 1.6590504e-38
3.2075949 0.47828549 -1.2708784 1.5855105e-38
3.2061217 0.48601922 -1.2642218 1.6222098e-38
3.2046483 0.49375293 -1.2575651 1.6407563e-38
3.2017014 0.50922024 -1.2442518 1.6773471e-38
3.2002275 0.51695395 -1.2375954 1.6222816e-38
3.1987541 0.52468759 -1.2309388 1.6499405e-38
3.1808124 0.67118239 -1.126825 1.7421731e-38
3.179327 0.67897993 -1.1201135 1.7329183e-38
3.1778412 0.68677723 -1.1134021 1.6501573e-38
3.1733842 0.71016979 -1.0932677 1.3364381e-38
3.1718986 0.71796715 -1.0865561 1.216404e-38
3.2074022 0.54012209 -1.2432033 1.6591957e-38
3.2059166 0.54791963 -1.2364918 1.6133146e-38
3.2044311 0.55571711 -1.2297804 1.6591601e-38
3.2029455 0.56351453 -1.223069 1.6592676e-38
3.2014596 0.57131213 -1.2163576 1.6684152e-38
3.1999743 0.57910949 -1.2096459 1.650156e-38
3.1984887 0.58690697 -1.2029346 1.6684873e-38
3.1970031 0.59470439 -1.1962229 1.6594119e-38
3.1955173 0.60250187 -1.1895115 1.6776712e-38
3.194032 0.61029935 -1.1827999 1.6962178e-38
3.1925464 0.61809677 -1.1760886 1.696146e-38
3.1910605 0.62589419 -1.1693771 1.7238045e-38
3.1895752 0.63369167 -1.1626654 1.6962544e-38
3.1742628 0.76645321 -1.0704017 1.5762556e-38
3.172765 0.77431452 -1.0636351 1.4839514e-38
3.2161648 0.50263149 -1.2790439 1.6406488e-38
3.2146795 0.51042891 -1.2723323 1.65898e-38
3.2040658 0.61859858 -1.2012645 1.7423157e-38
3.2025678 0.6264599 -1.1944982 1.6962181e-38
3.2010701 0.63432109 -1.1877319 1.723697e-38
3.1995723 0.64218235 -1.1809654 1.7146221e-38
3.1980746 0.65004355 -1.174199 1.7145143e-38
3.1965771 0.6579048 -1.1674327 1.696255e-38
3.1950791 0.66576606 -1.1606661 1.7145873e-38
3.1935813 0.67362732 -1.1538999 1.696328e-38
3.1905859 0.68934977 -1.1403672 1.7422453e-38
3.1890881 0.69721091 -1.1336008 1.7239138e-38
3.1875906 0.70507222 -1.1268343 1.7607563e-38
3.1860929 0.71293342 -1.120068 1.7238785e-38
3.1845949 0.72079474 -1.1133015 1.7424251e-38
3.1430187 1.0485009 -0.87722528 1.9086313e-38
3.2158954 0.56507874 -1.2509309 1.7234451e-38
3.2143979 0.57293999 -1.2441646 1.6685592e-38
3.2128999 0.58080131 -1.237398 1.6960381e-38
3.2114022 0.58866251 -1.2306318 1.6959662e-38
3.2099047 0.59652364 -1.2238654 1.7327734e-38
3.1963749 0.72235221 -1.1385869 1.7514298e-38
3.1948647 0.73027998 -1.1317631 1.7699763e-38
3.1842914 0.78577447 -1.0839976 1.8344415e-38
3.1812708 0.80163002 -1.0703502 1.8070343e-38
3.17028 0.9141317 -0.99654204 1.4563663e-38
3.168757 0.92212605 -0.98966116 1.2167299e-38
3.1672339 0.93012041 -0.98278022 9.582212e-39
3.2203882 0.60495698 -1.2432631 1.7329171e-38
3.218878 0.6128847 -1.2364393 1.723697e-38
3.2173676 0.62081254 -1.2296158 1.7237689e-38
3.2158573 0.62874025 -1.222792 1.723662e-38
3.2128363 0.64459592 -1.2091448 1.7237339e-38
3.2113259 0.65252364 -1.2023212 1.7146224e-38
3.2098153 0.66045147 -1.1954976 1.7606481e-38
3.2083049 0.66837925 -1.1886739 1.7331334e-38
3.2007525 0.70801818 -1.1545554 1.7424254e-38
3.1653023 1.0061498 -0.94501752 6.3560684e-39
3.1637659 1.0142134 -0.93807697 5.2525893e-39
3.1622298 1.0222771 -0.93113631 6.7173176e-39
3.1576207 1.0464681 -0.91031438 1.917888e-38
3.2368498 0.52720058 -1.3138208 1.6407563e-38
3.2353394 0.53512841 -1.3069974 1.6683796e-38
3.233829 0.54305619 -1.3001735 1.6774913e-38
3.2323184 0.55098403 -1.2933501 1.6592676e-38
3.230808 0.5589118 -1.2865263 1.6683073e-38
3.2292976 0.56683958 -1.2797025 1.7051857e-38
3.227787 0.57476735 -1.2728791 1.6776718e-38
3.2262766 0.58269525 -1.2660553 1.6869632e-38
3.2247663 0.59062284 -1.2592316 1.7512115e-38
3.2232561 0.59855068 -1.2524079 1.7237689e-38
3.221745 0.60647857 -1.2455844 1.7512848e-38
3.2202349 0.61440641 -1.2387606 1.7512128e-38
3.2187245 0.62233406 -1.2319371 1.7146221e-38
3.2156637 0.69335902 -1.1938901 1.7881636e-38
3.2141407 0.70135331 -1.1870092 1.76072e-38
3.2126179 0.70934761 -1.1801282 1.8342965e-38
3.2110946 0.71734202 -1.1732472 1.7699763e-38
3.2095716 0.72533637 -1.1663662 1.7975274e-38
3.2080483 0.73333061 -1.1594852 1.7884157e-38
3.2065251 0.74132502 -1.1526045 1.7608646e-38
3.2050021 0.74931931 -1.1457235 1.7884157e-38
3.2034788 0.75731367 -1.1388426 1.8067472e-38
3.2019558 0.76530796 -1.1319616 1.8527727e-38
3.2004328 0.77330232 -1.1250805 1.7977069e-38
3.1989095 0.78129661 -1.1181997 1.7884157e-38
3.1835821 0.91899729 -1.0237253 1.8716804e-38
3.1820455 0.92706096 -1.0167845 1.8808281e-38
3.1805096 0.93512446 -1.0098439 1.9177427e-38
3.178973 0.94318825 -1.0029036 1.9175988e-38
3.1774366 0.95125186 -0.99596298 1.908631e-38
3.1709309 1.0426501 -0.94134206 1.595058e-38
3.2337863 0.60695565 -1.2719212 1.7329166e-38
3.2322633 0.61495006 -1.2650404 1.6961828e-38
3.2307403 0.62294424 -1.2581593 1.714514e-38
3.2292173 0.63093859 -1.2512783 1.7330252e-38
3.227694 0.63893294 -1.2443974 1.7146224e-38
3.226171 0.6469273 -1.2375163 1.7146221e-38
3.1831696 0.98728019 -0.99272513 1.9454016e-38
3.1816201 0.99541318 -0.98572481 1.9454016e-38
3.1785209 1.0116792 -0.97172451 1.9729883e-38
3.1769714 1.0198121 -0.96472412 1.9454016e-38
3.175422 1.027945 -0.95772374 1.9916074e-38
3.1738722 1.0360781 -0.95072371 2.0007193e-38
3.172323 1.0442111 -0.9437232 1.9821727e-38
3.1707733 1.0523441 -0.93672299 1.9455821e-38
3.2534323 0.51255792 -1.3568332 1.6867815e-38
3.2519088 0.5205524 -1.3499522 1.6591954e-38
3.2503858 0.52854663 -1.3430715 1.6500477e-38
3.248863 0.53654099 -1.3361905 1.6683073e-38
3.2473397 0.5445354 -1.3293095 1.6867465e-38
3.2458165 0.55252969 -1.3224286 1.6409005e-38
3.2397242 0.58450699 -1.2949048 1.6960383e-38
3.2382009 0.5925014 -1.2880238 1.6961462e-38
3.2366779 0.6004957 -1.2811428 1.7512118e-38
3.2336318 0.61648434 -1.2673811 1.7696874e-38
3.2293594 0.69631004 -1.2227845 1.7974908e-38
3.227823 0.70437378 -1.2158438 1.7975271e-38
3.2262869 0.71243739 -1.2089032 1.7884157e-38
3.2247503 0.72050112 -1.2019626 1.788451e-38
3.2232141 0.72856474 -1.195022 1.7793384e-38
3.2216775 0.73662841 -1.1880815 1.779411e-38
3.2201416 0.74469203 -1.1811408 1.7977425e-38
3.218605 0.75275582 -1.1742002 1.8252217e-38
3.2170689 0.76081938 -1.1672596 1.8067467e-38
3.2155323 0.76888305 -1.1603191 1.8254016e-38
3.2139964 0.7769466 -1.1533784 1.8344412e-38
3.2078047 0.86684644 -1.1001109 1.8438776e-38
3.2062552 0.87497938 -1.0931106 1.8715009e-38
3.2047055 0.88311243 -1.0861102 1.8531338e-38
3.203156 0.89124542 -1.07911 1.8899035e-38
3.2016065 0.89937836 -1.0721097 1.8899754e-38
3.1985073 0.91564435 -1.0581092 1.9177061e-38
3.1969578 0.92377728 -1.0511087 1.9451856e-38
3.1954083 0.9319104 -1.0441084 1.9269262e-38
3.1938589 0.94004333 -1.0371079 1.9361458e-38
3.1923091 0.94817626 -1.030108 1.9362174e-38
3.1907597 0.95630926 -1.0231078 1.9177427e-38
3.2578468 0.49810371 -1.3729358 1.6407563e-38
3.2563236 0.50609797 -1.3660549 1.6407207e-38
3.2548006 0.51409233 -1.3591739 1.6499402e-38
3.2491753 0.60109383 -1.3084331 1.7146574e-38
3.2476392 0.6091575 -1.3014923 1.7328087e-38
3.2414937 0.64141214 -1.2737298 1.733169e-38
3.2399578 0.64947569 -1.2667891 1.7330252e-38
3.2307398 0.69785768 -1.2251455 1.7606128e-38
3.1996272 0.97611159 -1.0339319 1.9728808e-38
3.1980646 0.98431385 -1.0268716 1.9546571e-38
3.1965017 0.99251622 -1.0198119 1.9455088e-38
3.1949391 1.0007184 -1.0127517 1.9546568e-38
3.1933763 1.0089208 -1.0056919 1.9546571e-38
3.1918139 1.017123 -0.99863172 1.9637687e-38
3.1902509 1.0253254 -0.99157196 1.9914276e-38
3.1886883 1.0335277 -0.98451209 1.9730963e-38
3.2689915 0.50587755 -1.3940815 1.6590872e-38
3.2643826 0.53006852 -1.3732594 1.6774913e-38
3.2628462 0.53813231 -1.3663189 1.6499405e-38
3.2613099 0.54619586 -1.3593785 1.6868185e-38
3.2597737 0.5542596 -1.3524376 1.6868188e-38
3.2582374 0.56232321 -1.345497 1.6868185e-38
3.2567008 0.57038695 -1.3385564 1.6869264e-38
3.2551646 0.57845044 -1.3316157 1.7328087e-38
3.2536285 0.58651412 -1.3246751 1.7419213e-38
3.2490191 0.61070508 -1.3038533 1.7236617e-38
3.246228 0.68290973 -1.26588 1.751717e-38
3.2446785 0.69104278 -1.2588797 1.8342967e-38
3.2431288 0.69917578 -1.2518795 1.806782e-38
3.2400298 0.7154417 -1.2378789 1.797635e-38
3.2384801 0.7235747 -1.2308786 1.8251861e-38
3.2369306 0.73170775 -1.2238783 1.8435529e-38
3.2338316 0.74797362 -1.2098776 1.8252935e-38
3.2322822 0.75610656 -1.2028773 1.8252935e-38
3.2307324 0.76423961 -1.1958772 1.8162539e-38
3.229183 0.77237254 -1.1888767 1.8254016e-38
3.2276335 0.78050554 -1.1818764 1.8529889e-38
3.2260351 0.84644896 -1.1492926 1.8348379e-38
3.2244725 0.85465127 -1.1422324 1.8348379e-38
3.2229095 0.86285359 -1.1351727 1.8807558e-38
3.2213469 0.87105584 -1.1281127 1.8991949e-38
3.219784 0.87925822 -1.1210529 1.8808281e-38
3.2182214 0.88746047 -1.1139927 1.8991949e-38
3.2166586 0.89566278 -1.1069329 1.9084867e-38
3.215096 0.9038651 -1.0998728 1.9267457e-38
3.2135329 0.91206747 -1.092813 1.917778e-38
3.2119706 0.92026973 -1.085753 1.9084867e-38
3.2104075 0.92847192 -1.078693 1.9269262e-38
3.2088449 0.93667442 -1.0716331 1.9637682e-38
3.2072821 0.94487667 -1.064573 1.9177427e-38
3.2765172 0.47517052 -1.4242049 1.6222448e-38
3.2688355 0.51548892 -1.3895017 1.677455e-38
3.2646646 0.5950079 -1.3452643 1.7511765e-38
3.2631152 0.60314083 -1.338264 1.723662e-38
3.2615657 0.61127377 -1.3312637 1.7329169e-38
3.2600162 0.61940676 -1.3242633 1.7054744e-38
3.2584667 0.62753969 -1.3172632 1.797274e-38
3.2476201 0.68447065 -1.2682612 1.7792312e-38
3.2460706 0.69260359 -1.2612607 1.7974185e-38
3.2134223 0.98152614 -1.0619599 2.0006827e-38
3.2118456 0.98980057 -1.0548379 1.982208e-38
3.2102695 0.99807495 -1.0477159 1.9639484e-38
3.208693 1.0063492 -1.0405939 1.9914632e-38
3.2071164 1.0146238 -1.0334717 1.9914276e-38
3.2055399 1.0228981 -1.0263497 1.9914276e-38
3.2039635 1.0311725 -1.0192277 2.0098667e-38
3.2800026 0.52337193 -1.4106482 1.677455e-38
3.2784534 0.53150493 -1.4036478 1.7142254e-38
3.2769036 0.53963792 -1.3966475 1.7052213e-38
3.2753539 0.54777098 -1.3896474 1.6684152e-38
3.2707055 0.57217002 -1.3686465 1.6959662e-38
3.2691557 0.58030301 -1.3616461 1.6776718e-38
3.2676063 0.58843601 -1.3546458 1.7237323e-38
3.2647858 0.66094446 -1.3164748 1.7699393e-38
3.2632234 0.6691466 -1.3094145 1.7607197e-38
3.2616603 0.67734903 -1.3023548 1.7792309e-38
3.2600975 0.6855514 -1.2952948 1.7882705e-38
3.2585349 0.69375366 -1.2882348 1.8159299e-38
3.2569721 0.70195597 -1.2811749 1.8159299e-38
3.2554095 0.71015823 -1.2741148 1.8067467e-38
3.2538466 0.71836048 -1.2670549 1.7975274e-38
3.2475958 0.75116974 -1.2388149 1.8437328e-38
3.246033 0.75937212 -1.2317551 1.8712842e-38
3.2444704 0.76757437 -1.2246952 1.8437331e-38
3.2400622 0.85072374 -1.1783346 1.8807558e-38
3.2384858 0.85899812 -1.1712126 1.8623887e-38
3.2337565 0.88382149 -1.1498464 1.9084148e-38
3.2306035 0.90037024 -1.1356026 1.9177064e-38
3.2290268 0.90864462 -1.1284808 1.9361811e-38
3.2274504 0.91691911 -1.1213586 1.9452572e-38
3.2258737 0.92519349 -1.1142364 1.9452574e-38
3.2242973 0.93346775 -1.1071144 1.9362177e-38
3.2227209 0.94174224 -1.0999925 1.972988e-38
3.2802544 0.58869803 -1.3824159 1.7329886e-38
3.2786915 0.59690022 -1.3753558 1.7513198e-38
3.2771289 0.60510254 -1.3682959 1.7235541e-38
3.2755661 0.61330485 -1.361236 1.7329536e-38
3.2740033 0.62150729 -1.3541759 1.7514283e-38
3.2724409 0.62970954 -1.347116 1.7514283e-38
3.2708781 0.63791174 -1.3400561 1.7422806e-38
3.2693152 0.64611411 -1.3329961 1.733169e-38
3.2677524 0.65431643 -1.3259362 1.7423885e-38
3.2661896 0.66251868 -1.3188763 1.7699393e-38
3.2988484 0.50004679 -1.4624767 1.6590872e-38
3.2972856 0.50824916 -1.455417 1.6315364e-38
3.295723 0.51645142 -1.4483569 1.6774903e-38
3.2941601 0.52465373 -1.4412969 1.6774903e-38
3.2925975 0.53285605 -1.434237 1.7234802e-38
3.2910347 0.54105836 -1.4271771 1.6959659e-38
3.2894721 0.54926062 -1.4201169 1.6959662e-38
3.287909 0.55746299 -1.4130571 1.7052213e-38
3.2863464 0.56566536 -1.405997 1.7144775e-38
3.2847836 0.57386762 -1.3989373 1.7238045e-38
3.283221 0.58206993 -1.3918772 1.7235172e-38
3.28073 0.65531439 -1.3541081 1.7607563e-38
3.2760005 0.68013763 -1.3327422 1.7974905e-38
3.2744238 0.68841207 -1.3256203 1.8160018e-38
3.2728477 0.69668645 -1.3184983 1.8067467e-38
3.2712712 0.70496076 -1.3113762 1.8344409e-38
3.2696948 0.71323514 -1.3042542 1.8344412e-38
3.2681181 0.72150964 -1.2971323 1.8344412e-38
3.2665417 0.72978401 -1.2900102 1.816182e-38
3.2649655 0.73805833 -1.2828881 1.871212e-38
3.2633889 0.74633271 -1.2757659 1.8437331e-38
3.2618122 0.7546072 -1.2686441 1.8162183e-38
3.260236 0.76288158 -1.2615221 1.8346214e-38
3.3018148 0.49341899 -1.4719384 1.6314641e-38
3.2947581 0.59070724 -1.413507 1.7235538e-38
3.2931814 0.59898174 -1.4063848 1.7880908e-38
3.291605 0.60725611 -1.399263 1.723662e-38
3.2852993 0.64035356 -1.3707749 1.7697595e-38
3.2837229 0.64862806 -1.3636528 1.7975261e-38
3.2821462 0.65690243 -1.3565308 1.7607916e-38
3.2805698 0.66517699 -1.3494087 1.7424238e-38
3.2789934 0.67345119 -1.3422868 1.7884505e-38
3.3150921 0.49300247 -1.5013939 1.6314292e-38
3.3056331 0.54264897 -1.4586617 1.6868185e-38
3.3040566 0.55092335 -1.4515398 1.7051857e-38
3.3024802 0.55919772 -1.4444176 1.6683796e-38
3.1343944 0.646487 -1.0353692 8.5576498e-39
3.1563289 0.59521824 -1.1063212 1.4934591e-38
3.1505301 0.62565386 -1.0801244 1.5117915e-38
3.1490805 0.63326281 -1.0735751 1.5026439e-38
3.18786 0.5067237 -1.2148361 1.6039136e-38
3.1863983 0.51439631 -1.2082322 1.6315011e-38
3.1849363 0.52206904 -1.2016281 1.603878e-38
3.1834745 0.5297417 -1.1950239 1.6591957e-38
3.1820126 0.53741449 -1.1884198 1.6590872e-38
3.1805508 0.5450871 -1.1818159 1.6407926e-38
3.1790888 0.55275977 -1.1752117 1.6591228e-38
