# .PCD v0.7 - Point Cloud Data file format
VERSION 0.7
FIELDS x y z rgb
SIZE 4 4 4 4
TYPE F F F F
COUNT 1 1 1 1
WIDTH 1026
HEIGHT 1
VIEWPOINT 0 0 0 1 0 0 0
POINTS 1026
DATA ascii
-0.36950845 2.1484716 -2.5785615 1.1102922e-39
-0.37912986 2.1366568 -2.5781283 8.3370392e-40
-0.36527538 2.1424477 -2.606837 1.6634646e-39
-0.37220356 2.1432683 -2.5831795 1.6634646e-39
-0.36188918 2.1569417 -2.5811224 1.6641708e-39
-0.36765805 2.1526153 -2.573961 1.1138865e-39
-0.36638477 2.1476321 -2.5904026 1.1138865e-39
-0.37114432 2.1380463 -2.5995514 1.4794209e-39
-0.36739182 2.1454597 -2.5926995 1.2028466e-39
-0.37701327 2.1336451 -2.5922661 1.3868777e-39
-0.30906776 2.2336335 -2.5538962 6.5458477e-39
-0.31051323 2.2169752 -2.5910795 6.6373413e-39
-0.31353369 2.2127457 -2.5922458 6.4529486e-39
-0.31655398 2.2085166 -2.5934122 6.5458477e-39
-0.31957439 2.2042873 -2.5945783 6.5458477e-39
-0.30936858 2.215528 -2.5982704 6.4540024e-39
-0.82832927 1.3414963 -3.1674592 9.0341025e-39
-0.73975688 1.4751642 -3.1091201 8.8493539e-39
-0.79871219 1.3719715 -3.1835423 1.0230488e-38
-0.30974075 2.2742698 -2.4500968 1.0180952e-39
-0.31541359 2.2700155 -2.4430549 1.0180952e-39
-0.33175588 2.2374418 -2.4736176 8.3370392e-40
-0.33909583 2.2373264 -2.4510186 8.3370392e-40
-0.31951484 2.2617736 -2.4508934 1.0188014e-39
-0.32523572 2.2574832 -2.4437919 1.0180952e-39
-0.32386965 2.2532661 -2.4586058 1.0188014e-39
-0.33810493 2.2529984 -2.4148865 1.4693679e-39
-0.32593685 2.2418058 -2.4808412 8.3370392e-40
-0.333327 2.2416527 -2.45818 8.3370392e-40
-0.32963851 2.2489398 -2.4514441 8.3299767e-40
-0.34239835 2.2446122 -2.4224865 9.1943116e-40
-0.33385429 2.2404282 -2.4596004 8.3370392e-40
-0.34811908 2.2403221 -2.415385 1.5640733e-39
-0.33967328 2.2360642 -2.4523771 1.1077741e-39
-0.34694517 2.2359607 -2.4299605 2.8698593e-42
-0.32424876 2.2456076 -2.4765902 1.1102922e-39
-0.3206217 2.2527733 -2.4699669 1.1102922e-39
-0.31699479 2.2599387 -2.4633434 1.1102922e-39
-0.32992157 2.2413533 -2.4695482 1.2028466e-39
-0.3262946 2.2485189 -2.4629247 1.1102922e-39
-0.32266772 2.2556844 -2.4563015 1.0180952e-39
-0.32842475 2.237159 -2.4847128 6.5325732e-40
-0.33559448 2.2370989 -2.4625061 6.5325732e-40
-0.33196738 2.2442646 -2.4558828 1.0180952e-39
-0.32834053 2.25143 -2.4492593 1.0180952e-39
-0.32108656 2.2657611 -2.4360125 3.7740191e-40
-0.32798275 2.2656536 -2.4147778 5.3809861e-42
-0.33414564 2.2328687 -2.4776111 1.2028466e-39
-0.33048794 2.2400949 -2.4709318 1.2028466e-39
-0.33764026 2.2400103 -2.4488406 1.1102922e-39
-0.32675922 2.261507 -2.4289706 1.0188014e-39
-0.32918069 2.221133 -2.5224638 1.1102922e-39
-0.32546031 2.2284832 -2.5156698 1.0180952e-39
-0.33285433 2.2284451 -2.4927089 1.1102922e-39
-0.33986646 2.2285783 -2.4705095 1.1102922e-39
-0.33620879 2.2358046 -2.46383 1.1102922e-39
-0.33255109 2.2430308 -2.4571505 1.1102922e-39
-0.33499962 2.2167692 -2.5152402 1.1102922e-39
-0.33127922 2.2241194 -2.5084462 1.1102922e-39
-0.33862317 2.2241185 -2.4855478 1.1102922e-39
-0.33493483 2.2314055 -2.4788122 4.6886466e-40
-0.3312465 2.2386923 -2.4720767 1.0180952e-39
-0.33827189 2.2387404 -2.4500489 1.1102922e-39
-0.33709812 2.2197554 -2.5012228 1.0180952e-39
-0.33337778 2.2271056 -2.4944289 1.0180952e-39
-0.32965729 2.2344556 -2.4876351 1.1102922e-39
-0.34663746 2.2080414 -2.5007932 1.1102922e-39
-0.342917 2.2153916 -2.4939995 1.0180952e-39
-0.33547625 2.2300918 -2.4804118 1.0180952e-39
-0.35177678 2.2330959 -2.4220643 1.2907192e-39
-0.31336778 2.2671044 -2.4567201 8.3370392e-40
-0.31904063 2.26285 -2.4496779 1.0188014e-39
-0.32471341 2.2585957 -2.442636 1.0188014e-39
-0.32317251 2.2545474 -2.4575727 5.6106169e-40
-0.32889333 2.250257 -2.4504712 1.1102922e-39
-0.33243206 2.2572527 -2.4219284 3.7200551e-40
-0.34605601 2.237386 -2.4291661 1.1077741e-39
-0.32636166 2.2342231 -2.4984939 1.2028466e-39
-0.33208245 2.2299328 -2.4913924 1.1102922e-39
-0.33077386 2.2254844 -2.5066056 8.3370392e-40
-0.33780342 2.2256424 -2.4842904 1.1102922e-39
-0.28759202 2.2765186 -2.5135345 5.3484003e-39
-0.27436593 2.2919884 -2.5160604 6.2689175e-39
-0.36510497 2.136447 -2.6223867 2.0322471e-39
-0.36141664 2.1437337 -2.6156511 1.4815915e-39
-0.37087384 2.1321206 -2.6152253 2.0322471e-39
-0.36718556 2.1394074 -2.6084898 2.0322471e-39
-0.3696284 2.1269598 -2.6320252 1.7556616e-39
-0.36590791 2.1343098 -2.6252313 1.848216e-39
-0.36479473 2.1290107 -2.6419649 1.6634646e-39
-0.37066364 2.1246092 -2.6346796 1.4790733e-39
-0.36104226 2.1364241 -2.6351125 1.6634646e-39
-0.35326484 2.188283 -2.5295773 1.0213322e-39
-0.35196552 2.1836395 -2.5452499 1.0213322e-39
-0.35893768 2.1840286 -2.5225351 1.0213322e-39
-0.35768655 2.1793489 -2.5381484 1.0213322e-39
-0.35659286 2.1744759 -2.5537543 7.4581168e-40
-0.36340734 2.1750588 -2.5310466 8.3800731e-40
-0.35522342 2.1696825 -2.5700212 7.4581168e-40
-0.36104244 2.1653187 -2.5627975 8.3730106e-40
-0.27582771 2.2777424 -2.5471556 6.7302586e-39
-0.30561736 2.2268803 -2.5815563 6.5451442e-39
-0.30863762 2.2226512 -2.5827227 5.9937697e-39
-0.31165799 2.2184219 -2.5838888 6.5451442e-39
-0.31467828 2.2141929 -2.5850549 6.5458477e-39
-0.31769881 2.2099636 -2.5862215 6.0859653e-39
-0.32071915 2.2057343 -2.5873876 5.902293e-39
-0.34671327 2.2010279 -2.51811 6.529098e-40
-0.35243413 2.1967375 -2.5110083 1.2028466e-39
-0.35570011 2.1830051 -2.5351925 7.4510543e-40
-0.36151901 2.1786411 -2.5279691 6.529098e-40
-0.34238383 2.2097797 -2.509707 1.4794209e-39
-0.35168365 2.19836 -2.5092883 1.0213322e-39
-0.35037103 2.1938016 -2.5247893 1.3868777e-39
-0.35609189 2.1895113 -2.5176878 1.3868777e-39
-0.35498488 2.1847234 -2.5331221 7.4581168e-40
-0.35360152 2.1800189 -2.5492098 1.4790733e-39
-0.3620038 2.1632979 -2.564857 1.3868777e-39
-0.35825133 2.1707113 -2.5580046 1.2028466e-39
-0.36787266 2.1588967 -2.5575714 1.1102922e-39
-0.34963784 2.1954486 -2.5229537 1.2031941e-39
-0.35531065 2.1911943 -2.5159116 1.6634646e-39
-0.35402885 2.1865752 -2.5314689 1.0220384e-39
-0.35974962 2.1822851 -2.5243671 8.3800731e-40
-0.35867327 2.1774366 -2.5398576 1.4794209e-39
-0.34601086 2.2026141 -2.5163305 1.3872252e-39
-0.35150307 2.1770325 -2.5632272 1.3868777e-39
-0.35732192 2.1726687 -2.5560038 1.3868777e-39
-0.30790675 2.2297742 -2.5671749 6.4529486e-39
-0.31092706 2.2255449 -2.5683413 6.5458477e-39
-0.31394741 2.2213159 -2.5695074 6.2699713e-39
-0.28374407 2.2636077 -2.5578451 6.6380461e-39
-0.2886399 2.2537024 -2.5673685 6.5462008e-39
-0.28676432 2.2593787 -2.5590115 6.6380433e-39
-0.29166025 2.2494733 -2.5685346 6.5458477e-39
-0.2897847 2.2551494 -2.5601778 6.5465932e-39
-0.29468057 2.2452443 -2.5697007 6.2696209e-39
-0.29582536 2.246691 -2.56251 6.6380433e-39
-0.30072144 2.2367857 -2.5720332 6.361832e-39
-0.2988458 2.2424617 -2.5636764 6.2689175e-39
-0.30186605 2.2382326 -2.5648425 6.2689175e-39
-0.3067621 2.2283273 -2.5743656 6.4529486e-39
-0.30488652 2.2340033 -2.5660086 6.1767218e-39
-0.30978239 2.2240982 -2.575532 6.5447911e-39
-0.31280279 2.2198689 -2.5766981 6.5458477e-39
-0.31582308 2.2156398 -2.5778642 6.2696209e-39
-0.31884357 2.2114103 -2.5790305 5.9022775e-39
-0.63321543 1.5550643 -3.2413771 7.3788902e-39
-0.57771891 1.6795801 -3.1028032 7.2877736e-39
-0.5739665 1.6869934 -3.0959508 7.2877736e-39
-0.57911599 1.6916962 -3.0681238 7.2877736e-39
-0.57539546 1.6990463 -3.0613301 7.3796175e-39
-0.57167524 1.7063965 -3.0545361 7.1955779e-39
-0.55895698 1.7166466 -3.0685415 7.2881267e-39
-0.55520457 1.7240597 -3.0616894 7.2881267e-39
-0.54769993 1.7388864 -3.0479846 7.2874204e-39
-0.54394758 1.7462996 -3.0411322 7.5632815e-39
-0.54019511 1.7537129 -3.0342798 7.3796175e-39
-0.53644276 1.7611263 -3.0274277 7.2877736e-39
-0.53269041 1.7685394 -3.0205753 7.2877708e-39
-0.52143323 1.7907791 -3.0000186 7.4710858e-39
-0.50833118 1.8017875 -3.0133231 7.3792433e-39
-0.504547 1.8092641 -3.0064123 7.1959311e-39
-0.50076252 1.8167405 -2.9995015 7.1955779e-39
-0.48940948 1.8391699 -2.9787693 7.2866918e-39
-0.4951666 1.8426722 -2.9520521 7.2866946e-39
-0.49141425 1.8500854 -2.9451997 7.1030292e-39
-0.48766178 1.8574986 -2.9383476 7.1026634e-39
-0.4742718 1.8690757 -2.9511266 7.1026634e-39
-0.47048748 1.8765521 -2.9442158 7.010465e-39
-0.46670324 1.8840288 -2.937305 7.0111839e-39
-0.46291879 1.891505 -2.9303944 7.010465e-39
-0.45913443 1.8989816 -2.9234836 6.9189882e-39
-0.45535001 1.9064579 -2.916573 7.0104678e-39
-0.45156574 1.9139345 -2.9096622 7.0104678e-39
-0.45764261 1.9168048 -2.8835292 6.9186379e-39
-0.44399706 1.9288875 -2.8958406 6.917919e-39
-0.44021264 1.9363639 -2.8889298 6.7346012e-39
-0.43642819 1.9438404 -2.882019 6.9186323e-39
-0.43264401 1.9513168 -2.8751085 6.9179134e-39
-0.57233083 1.6974186 -3.0749607 7.1952248e-39
-0.56857848 1.7048317 -3.0681083 7.2874204e-39
-0.56482601 1.712245 -3.0612559 7.2877736e-39
-0.55356896 1.7344849 -3.040699 7.1955779e-39
-0.54981649 1.7418982 -3.0338466 7.2881267e-39
-0.54606414 1.7493116 -3.0269942 7.2881267e-39
-0.54231173 1.7567247 -3.0201421 7.4714389e-39
-0.53855944 1.7641381 -3.0132897 7.2881267e-39
-0.52560329 1.7749193 -3.0267076 7.1959311e-39
-0.52181906 1.7823958 -3.0197968 7.3788902e-39
-0.51803464 1.7898722 -3.0128863 7.3792433e-39
-0.51425016 1.7973486 -3.0059755 7.1959311e-39
-0.5104658 1.8048251 -2.9990649 7.1959311e-39
-0.50668132 1.8123015 -2.9921541 7.1033823e-39
-0.50289708 1.8197781 -2.9852433 7.3788902e-39
-0.49911267 1.8272545 -2.9783328 7.1026634e-39
-0.49532831 1.834731 -2.971422 7.1033823e-39
-0.49154392 1.8422074 -2.9645112 7.2866918e-39
-0.48775965 1.8496839 -2.9576004 7.2866918e-39
-0.49353069 1.8530972 -2.931062 7.1026634e-39
-0.48019087 1.8646369 -2.9437788 7.1026634e-39
-0.47640651 1.8721133 -2.9368682 7.0104678e-39
-0.47262207 1.8795899 -2.9299574 7.0104678e-39
-0.46883771 1.8870661 -2.9230468 6.9179134e-39
-0.45494947 1.899097 -2.936245 6.7342481e-39
-0.45370033 1.916972 -2.8954039 6.9179134e-39
-0.44991592 1.9244486 -2.8884933 6.7346012e-39
-0.44613147 1.9319251 -2.8815825 6.9179134e-39
-0.44234711 1.9394015 -2.8746717 6.7342481e-39
-0.43856278 1.946878 -2.8677611 6.9179134e-39
-0.55422854 1.7256216 -3.0608244 7.2877736e-39
-0.55044407 1.733098 -3.0539138 7.2877736e-39
-0.54665971 1.7405746 -3.047003 7.4714418e-39
-0.54287541 1.7480512 -3.040092 7.2881267e-39
-0.54818076 1.7523235 -3.0128565 7.4710858e-39
-0.53530657 1.7630039 -3.0262709 7.4714418e-39
-0.53152227 1.7704804 -3.0193601 7.4714389e-39
-0.52773792 1.7779568 -3.0124493 7.3788902e-39
-0.52395356 1.7854333 -3.0055385 7.2866946e-39
-0.52016908 1.7929097 -2.9986279 7.0108279e-39
-0.51638484 1.8003863 -2.9917171 7.4714418e-39
-0.5126003 1.8078628 -2.9848063 7.2870477e-39
-0.508816 1.8153392 -2.9778957 7.1026606e-39
-0.50503165 1.8228155 -2.9709849 7.1026634e-39
-0.50124729 1.830292 -2.9640744 7.1026634e-39
-0.49746296 1.8377687 -2.9571636 7.0111839e-39
-0.49367851 1.845245 -2.9502528 7.2866918e-39
-0.48989418 1.8527215 -2.9433422 7.1026634e-39
-0.48610982 1.860198 -2.9364314 7.0104678e-39
-0.48232538 1.8676744 -2.9295206 7.1026634e-39
-0.47854105 1.8751509 -2.9226098 7.1026578e-39
-0.46473801 1.8870766 -2.9358044 7.0104622e-39
-0.46092039 1.8946187 -2.928833 6.9182652e-39
-0.44946754 1.9172455 -2.9079185 6.9182652e-39
-0.44564992 1.9247878 -2.9009469 6.6424013e-39
-0.44183227 1.9323299 -2.8939753 6.8257164e-39
-0.43801466 1.939872 -2.8870041 6.6424042e-39
-0.43419701 1.9474142 -2.8800325 6.8260723e-39
-0.4303793 1.9549563 -2.8730612 6.8260695e-39
-0.42656174 1.9624984 -2.8660896 7.0086657e-39
-0.42274418 1.9700407 -2.8591182 6.7338739e-39
-0.41892648 1.9775829 -2.8521466 6.733518e-39
-0.41510901 1.9851252 -2.845175 6.6413223e-39
-0.41129127 1.9926671 -2.8382037 6.6416783e-39
-0.55257869 1.7361357 -3.0396554 7.3803251e-39
-0.54879433 1.7436122 -3.0327446 7.2881267e-39
-0.54500991 1.7510886 -3.0258338 7.2866946e-39
-0.54122567 1.7585651 -3.018923 7.2866918e-39
-0.52797359 1.7694662 -3.0329642 7.2866918e-39
-0.52987254 1.7809944 -2.9981911 7.2866918e-39
-0.52608818 1.788471 -2.9912801 7.1033823e-39
-0.52230376 1.7959473 -2.9843695 7.2866946e-39
-0.51851946 1.8034239 -2.9774587 7.0111839e-39
-0.51473492 1.8109002 -2.9705479 7.0111839e-39
-0.51095074 1.8183768 -2.9636374 7.1026578e-39
-0.50716639 1.8258532 -2.9567266 7.1026634e-39
-0.50338179 1.8333296 -2.949816 7.1026634e-39
-0.49959749 1.8408061 -2.9429052 7.0108279e-39
-0.49581325 1.8482826 -2.9359944 7.1023103e-39
-0.4920288 1.8557591 -2.9290836 7.0101147e-39
-0.48824435 1.8632355 -2.922173 6.9179134e-39
-0.4745267 1.8750566 -2.9353635 6.918268e-39
-0.43253285 1.9580204 -2.8586774 6.9161142e-39
-0.42871517 1.9655628 -2.8517058 6.6413223e-39
-0.42489755 1.9731048 -2.8447344 6.9164701e-39
-0.42107981 1.9806472 -2.8377631 6.6413223e-39
-0.41726229 1.9881893 -2.8307915 6.4576444e-39
-0.66067559 1.5298322 -3.2188973 7.6565533e-39
-0.64175367 1.5672145 -3.1843438 7.6565533e-39
-0.63796932 1.5746911 -3.177433 7.5640017e-39
-0.63418502 1.5821675 -3.1705222 7.3799692e-39
-0.63040066 1.589644 -3.1636114 7.5643576e-39
-0.53012681 1.7725303 -3.0185804 7.2866918e-39
-0.52630931 1.7800728 -3.0116088 7.1033795e-39
-0.52249163 1.7876148 -3.0046375 7.1033823e-39
-0.5186739 1.795157 -2.9976661 7.469288e-39
-0.5148564 1.8026992 -2.9906945 7.2866918e-39
-0.51103866 1.8102415 -2.9837232 7.1026634e-39
-0.5072211 1.8177836 -2.9767516 7.1026634e-39
-0.50340348 1.8253257 -2.9697802 7.1026634e-39
-0.49958587 1.8328679 -2.9628086 6.9179134e-39
-0.49576822 1.8404101 -2.9558372 7.0108279e-39
-0.4919506 1.8479522 -2.9488657 7.1026606e-39
-0.65145719 1.5552994 -3.1839068 7.5640017e-39
-0.64767265 1.5627756 -3.1769962 7.6565533e-39
-0.64388829 1.5702522 -3.1700854 7.5643576e-39
-0.64010394 1.5777286 -3.1631746 7.5640017e-39
-0.6086328 1.6247511 -3.1436262 7.7480328e-39
-0.53609794 1.7680525 -3.0111682 7.2866918e-39
-0.53228045 1.7755948 -3.0041966 7.2866918e-39
-0.52846265 1.7831368 -2.9972255 7.2866918e-39
-0.52464503 1.7906791 -2.9902539 7.4692852e-39
-0.52082741 1.7982212 -2.9832823 7.0111839e-39
-0.51700974 1.8057636 -2.9763107 7.010465e-39
-0.51319212 1.8133056 -2.9693394 7.285254e-39
-0.5093745 1.8208476 -2.962368 6.918268e-39
-0.68386656 1.498525 -3.2249343 7.933143e-39
-0.6800822 1.5060015 -3.2180235 7.933143e-39
-0.65737605 1.5508604 -3.1765592 7.7487517e-39
-0.65359169 1.5583369 -3.1696484 7.7487517e-39
-0.64980739 1.5658134 -3.1627376 7.6561973e-39
-0.64602292 1.5732898 -3.155827 7.6561973e-39
-0.63369226 1.5825624 -3.1710711 7.6565533e-39
-0.62987453 1.5901045 -3.1640997 7.9320612e-39
-0.61460388 1.6202732 -3.1362138 7.9317108e-39
-0.61078632 1.6278155 -3.1292424 7.7487489e-39
-0.53825134 1.7711169 -2.9967847 7.2866946e-39
-0.6472984 1.563 -3.1776018 7.8409473e-39
-0.64348078 1.5705423 -3.1706305 7.8409473e-39
-0.6320278 1.5931687 -3.1497161 7.7487489e-39
-0.62057495 1.6157954 -3.1288016 7.7487489e-39
-0.61675733 1.6233374 -3.1218302 8.0242568e-39
-0.65326923 1.5585222 -3.1701899 7.8405942e-39
-0.64945161 1.5660644 -3.1632185 7.933143e-39
-0.61509293 1.6339439 -3.1004753 7.8409473e-39
-0.4244085 1.9594343 -2.8804734 6.8257164e-39
-0.42059094 1.9669764 -2.8735018 7.1008614e-39
-0.41677302 1.9745185 -2.8665304 6.8260667e-39
-0.41295546 1.9820608 -2.8595588 6.918268e-39
-0.40913776 1.989603 -2.8525872 6.7335208e-39
-0.40532017 1.9971452 -2.8456159 6.7335208e-39
-0.40150264 2.0046873 -2.8386443 6.733518e-39
-0.45113182 1.906639 -2.9292736 6.9182652e-39
-0.66727483 1.4877763 -3.3035734 7.3799692e-39
-0.6634903 1.4952526 -3.2966628 7.3799692e-39
-0.65970594 1.5027289 -3.289752 7.2877736e-39
-0.63236898 1.5788062 -3.1845977 7.4714389e-39
-0.62861645 1.5862194 -3.1777453 7.4710858e-39
-0.62486428 1.5936328 -3.170893 7.4714389e-39
-0.61360699 1.6158725 -3.150336 7.3792433e-39
-0.59109277 1.6603522 -3.1092222 7.2881239e-39
-0.64949501 1.5521649 -3.1978691 7.3803251e-39
-0.6419903 1.5669917 -3.1841645 7.4710858e-39
-0.63823783 1.5744048 -3.1773121 7.4710858e-39
-0.63448548 1.5818181 -3.1704597 7.4714389e-39
-0.63073301 1.5892313 -3.1636076 7.2877708e-39
-0.5617972 1.7106687 -3.074646 7.2877736e-39
-0.63660204 1.5848299 -3.1563222 7.2877708e-39
-0.63284957 1.5922432 -3.1494699 7.3803251e-39
-0.62069726 1.6015594 -3.1640484 7.2877708e-39
-0.6169129 1.6090357 -3.1571376 7.2877708e-39
-0.60177553 1.6389418 -3.1294949 7.3803251e-39
-0.59799111 1.6464182 -3.1225841 7.5636374e-39
-0.59420675 1.6538947 -3.1156733 7.4714389e-39
-0.57150048 1.6987534 -3.074209 7.3792433e-39
-0.56014735 1.7211826 -3.0534768 7.4714389e-39
-0.55636305 1.7286593 -3.046566 7.2881267e-39
-0.62661624 1.5971204 -3.1567006 7.5643576e-39
-0.622832 1.604597 -3.14979 7.3803251e-39
-0.61904764 1.6120734 -3.1428792 7.3803251e-39
-0.61526316 1.6195498 -3.1359684 7.5643576e-39
-0.61147887 1.6270263 -3.1290579 7.6558344e-39
-0.60769451 1.6345028 -3.1221471 7.5643576e-39
-0.60391009 1.6419791 -3.1152365 7.5643576e-39
-0.5774197 1.6943145 -3.0668612 7.5639905e-39
-0.57363522 1.7017909 -3.0599506 7.5639905e-39
-0.56985068 1.7092673 -3.0530398 7.4714361e-39
-0.56606638 1.7167438 -3.046129 7.4714389e-39
-0.55471331 1.7391732 -3.0253968 7.2881267e-39
-0.53776222 1.7574462 -3.0325234 7.2870449e-39
-0.53394449 1.7649883 -3.025552 7.5618395e-39
-0.6287508 1.600158 -3.1424425 7.5643576e-39
-0.62496662 1.6076345 -3.1355317 7.5643576e-39
-0.6211822 1.6151111 -3.1286209 7.7480328e-39
-0.60481524 1.6322933 -3.1366546 7.5640017e-39
-0.5857271 1.6700041 -3.1017971 7.6558344e-39
-0.55518609 1.7303417 -3.0460258 7.4714389e-39
-0.55136836 1.7378838 -3.0390542 7.4714389e-39
-0.5475508 1.7454261 -3.0320826 7.4714389e-39
-0.54373318 1.7529682 -3.0251112 7.2870477e-39
-0.6346699 1.5957192 -3.1350949 7.7480272e-39
-0.63088548 1.6031955 -3.1281841 7.7487461e-39
-0.62710106 1.610672 -3.1212735 7.656203e-39
-0.6069687 1.6353576 -3.1222708 7.7480272e-39
-0.58788055 1.6730685 -3.0874135 7.5643576e-39
-0.58406276 1.6806107 -3.0804422 7.6554785e-39
-0.53443366 1.7786589 -2.9898131 7.2870477e-39
-0.6368044 1.5987567 -3.1208365 7.8409473e-39
-0.63302016 1.6062332 -3.1139257 7.5640017e-39
-0.61293983 1.6308798 -3.1148586 8.0246127e-39
-0.60912216 1.6384218 -3.1078875 7.9324171e-39
-0.59003389 1.6761327 -3.07303 7.74803e-39
-0.58621627 1.6836751 -3.0660584 7.6554785e-39
-0.58239871 1.6912171 -3.0590868 7.7480272e-39
-0.65592158 1.5102055 -3.2828412 7.2877736e-39
-0.6521371 1.517682 -3.2759306 7.2877736e-39
-0.64835292 1.5251585 -3.2690198 7.1955751e-39
-0.64078408 1.5401113 -3.2551985 7.4710858e-39
-0.63699961 1.5475879 -3.2482877 7.3788902e-39
-0.54239058 1.7344993 -3.0755196 7.2877736e-39
-0.67319369 1.4833373 -3.296226 7.5640017e-39
-0.66940922 1.4908139 -3.289315 7.3799692e-39
-0.66562498 1.4982903 -3.2824044 7.5643576e-39
-0.6618405 1.5057667 -3.2754936 7.2877736e-39
-0.65805608 1.5132432 -3.2685828 7.5640073e-39
-0.65427178 1.5207196 -3.2616723 7.2874204e-39
-0.65048742 1.5281961 -3.2547615 7.2874232e-39
-0.64670306 1.5356725 -3.2478509 7.2874232e-39
-0.65113086 1.5417398 -3.2188594 7.2874204e-39
-0.55209374 1.7225839 -3.0750828 7.2877736e-39
-0.54830956 1.7300606 -3.068172 7.2877736e-39
-0.67911261 1.4788984 -3.2888782 7.7487517e-39
-0.67154396 1.4938513 -3.2750568 7.6561973e-39
-0.66775942 1.5013276 -3.2681463 7.5640017e-39
-0.66397506 1.5088042 -3.2612355 7.5640017e-39
-0.66019082 1.5162809 -3.2543244 7.5640017e-39
-0.65640634 1.5237571 -3.2474141 7.3799692e-39
-0.65262198 1.5312335 -3.2405033 7.5632815e-39
-0.64883757 1.5387101 -3.2335925 7.3799692e-39
-0.64505339 1.5461867 -3.2266817 7.3788902e-39
-0.63748455 1.5611393 -3.2128603 7.3803251e-39
-0.67367858 1.496889 -3.2607985 7.6561973e-39
-0.66989422 1.5043654 -3.2538877 7.6561973e-39
-0.66610974 1.5118418 -3.2469771 7.74803e-39
-0.66232544 1.5193181 -3.2400663 7.6558344e-39
-0.65854102 1.5267947 -3.2331557 7.6558344e-39
-0.65475667 1.5342711 -3.2262449 7.3803251e-39
-0.64250255 1.5432009 -3.2421081 7.4710858e-39
-0.64718783 1.549224 -3.2124236 7.2877736e-39
-0.64340365 1.5567007 -3.2055125 7.3803251e-39
-0.63961917 1.564177 -3.198602 7.3803251e-39
-0.63583493 1.5716535 -3.1916912 7.2877736e-39
-0.6320504 1.5791299 -3.1847804 7.2877736e-39
-0.67959744 1.4924501 -3.2534509 7.7487517e-39
-0.67581308 1.4999264 -3.2465401 7.7487517e-39
-0.67202878 1.5074029 -3.2396295 7.7480272e-39
-0.66824442 1.5148793 -3.2327187 7.7487489e-39
-0.66445994 1.5223558 -3.2258079 7.6565533e-39
-0.64847356 1.5387231 -3.2346959 7.6554785e-39
-0.64465594 1.5462652 -3.2277246 7.7480328e-39
-0.64083815 1.5538073 -3.220753 7.6561973e-39
-0.64553809 1.559738 -3.1912544 7.3803251e-39
-0.65062684 1.5417871 -3.2203124 7.7480328e-39
-0.64680916 1.5493294 -3.2133408 7.6561973e-39
-0.62772107 1.5870403 -3.1784835 7.5643576e-39
-0.62390339 1.5945824 -3.1715119 7.6565533e-39
-0.65278023 1.5448515 -3.2059283 7.7487517e-39
-0.67484343 1.4728233 -3.317395 8.0242568e-39
-0.67105901 1.4802997 -3.3104842 7.5643576e-39
-0.64456844 1.532635 -3.2621093 7.2881267e-39
-0.63775712 1.5609678 -3.2124403 7.4710858e-39
-0.63400477 1.5683812 -3.2055879 7.3788902e-39
-0.6302523 1.5757943 -3.1987357 7.2866946e-39
-0.62649983 1.5832076 -3.1918833 7.5614836e-39
-0.61429352 1.5924466 -3.2068233 7.3788902e-39
-0.61899507 1.5980341 -3.1781785 7.2866946e-39
-0.64737862 1.5491531 -3.212007 7.4707327e-39
-0.64362615 1.5565664 -3.2051547 7.6558316e-39
-0.6398738 1.5639797 -3.1983023 7.2881267e-39
-0.63612133 1.571393 -3.1914501 7.3792433e-39
-0.62111181 1.601046 -3.1640408 7.4710858e-39
-0.58615309 1.6552958 -3.1372793 7.4714389e-39
-0.57858437 1.6702487 -3.1234579 7.2881267e-39
-0.6147784 1.6059983 -3.171396 7.2877736e-39
-0.61099392 1.6134746 -3.1644852 7.2877708e-39
-0.60720962 1.6209512 -3.1575747 7.2877736e-39
-0.60342515 1.6284276 -3.1506639 7.1955779e-39
-0.59964085 1.6359041 -3.1437531 7.5632815e-39
-0.59585649 1.6433806 -3.1368423 7.4714389e-39
-0.6131286 1.6165122 -3.1502268 7.4714389e-39
-0.60934424 1.6239887 -3.1433163 7.2877736e-39
-0.59120911 1.6518556 -3.1301239 7.6558344e-39
-0.58739138 1.6593978 -3.1231525 7.5643576e-39
-0.5835737 1.66694 -3.1161809 7.5636374e-39
-0.57975608 1.6744821 -3.1092095 7.4710858e-39
-0.60099763 1.6398355 -3.1296833 7.74803e-39
-0.51968437 1.7793581 -3.0340552 7.2877736e-39
-0.51590002 1.7868346 -3.0271447 7.4710858e-39
-0.52415597 1.7770084 -3.0259926 7.3788874e-39
-0.49697816 1.824217 -2.9925907 7.1030292e-39
-0.49319384 1.8316934 -2.9856801 7.2863414e-39
-0.4473142 1.9141812 -2.9223022 6.918268e-39
-0.3055205 2.2026174 -2.6425812 7.1919472e-39
-0.31229228 2.1870358 -2.6604614 7.3759783e-39
-0.31041664 2.1927118 -2.6521046 7.3759783e-39
-0.30854082 2.1983883 -2.6437473 7.1919472e-39
-0.3066653 2.2040644 -2.6353903 7.3759783e-39
-0.3134369 2.1884828 -2.6532707 7.4678054e-39
-0.3115612 2.194159 -2.6449137 7.1919444e-39
-0.3127059 2.195606 -2.637723 7.1919444e-39
-0.31874678 2.1871474 -2.6400552 7.0068454e-39
-0.32176703 2.1829183 -2.6412215 6.9146498e-39
-0.32478738 2.178689 -2.6423876 6.8224388e-39
-0.31614012 2.1999466 -2.6161506 6.8224388e-39
-0.31124422 2.209852 -2.6066272 6.7302431e-39
-0.31426466 2.2056227 -2.6077936 6.7302431e-39
-0.28447494 2.2564847 -2.5733929 7.0068454e-39
-0.28937089 2.2465794 -2.582916 7.0986683e-39
-0.28749517 2.2522557 -2.5745592 6.9146344e-39
-0.30447268 2.2254333 -2.588747 6.3625522e-39
-0.30749291 2.2212043 -2.5899134 6.6380433e-39
-0.3123889 2.2112989 -2.5994365 6.8224542e-39
-0.31687093 2.1928236 -2.6316984 7.0986683e-39
-0.31989145 2.1885943 -2.6328645 6.9146344e-39
-0.32291183 2.184365 -2.6340308 6.8224388e-39
-0.32593217 2.180136 -2.6351969 6.8224388e-39
-0.31499541 2.1984997 -2.6233413 6.8224542e-39
-0.3180159 2.1942704 -2.6245077 6.8224388e-39
-0.3210361 2.1900413 -2.6256738 6.8224388e-39
-0.29957664 2.2353387 -2.5792241 6.361832e-39
-0.30259693 2.2311096 -2.5803902 6.4536787e-39
-0.27353823 2.2748485 -2.5615373 7.0068454e-39
-0.27655843 2.2706194 -2.5627036 6.8224388e-39
-0.27468279 2.2762957 -2.5543466 6.8224388e-39
-0.27957878 2.2663903 -2.5638697 6.7302431e-39
-0.27770337 2.2720661 -2.5555129 6.8224388e-39
-0.28259936 2.2621608 -2.5650358 6.7302586e-39
-0.28072372 2.267837 -2.556679 6.7302431e-39
-0.28561962 2.2579317 -2.5662022 6.8224388e-39
-0.30374172 2.2325566 -2.5731993 6.4529486e-39
-0.39315042 2.0365956 -2.7848322 5.9051866e-39
-0.38936606 2.0440719 -2.7779217 4.7070134e-39
-0.39596877 2.0458424 -2.7529016 2.4921491e-39
-0.3952851 2.0396328 -2.7705739 4.0576769e-39
-0.39363536 2.0501468 -2.7494049 2.0322471e-39
-0.38606644 2.0651 -2.7355835 1.848216e-39
-0.39955434 2.0457079 -2.7420573 2.0322471e-39
-0.39576995 2.0531845 -2.7351465 2.0322471e-39
-0.40168875 2.0487456 -2.7277992 2.1244427e-39
-0.55801284 1.7181453 -3.0677352 7.3788902e-39
-0.59272844 1.649927 -3.1302125 7.4710858e-39
-0.5889762 1.6573404 -3.1233602 7.2877736e-39
-0.60985464 1.6232858 -3.1434839 7.3788902e-39
-0.60610235 1.630699 -3.1366315 7.2877736e-39
-0.62698066 1.5966445 -3.1567552 7.2877708e-39
-0.58450347 1.66581 -3.1161101 7.4714418e-39
-0.58071899 1.6732864 -3.1091995 7.2877708e-39
-0.5769347 1.6807629 -3.1022887 7.2877736e-39
-0.5655815 1.7031922 -3.0815566 7.4710858e-39
-0.60555989 1.6314652 -3.1364055 7.5636374e-39
-0.59042245 1.661371 -3.1087625 7.3803251e-39
-0.58663797 1.6688474 -3.1018517 7.4710858e-39
-0.58285362 1.676324 -3.0949411 7.4710858e-39
-0.57906926 1.6838005 -3.0880303 7.2877736e-39
-0.57528496 1.6912769 -3.0811195 7.2877736e-39
-0.56771618 1.7062298 -3.0672982 7.4710858e-39
-0.56393194 1.7137064 -3.0603874 7.3788902e-39
-0.58498824 1.6793615 -3.0806828 7.2877708e-39
-0.58120394 1.6868379 -3.0737722 7.3803251e-39
-0.55303276 1.7272774 -3.0604093 7.1955779e-39
-0.54921502 1.7348195 -3.0534377 7.2877736e-39
-0.54157978 1.7499039 -3.039495 7.1033795e-39
-0.59090722 1.6749227 -3.0733352 7.3799692e-39
-0.58712286 1.6823992 -3.0664246 7.3799692e-39
-0.58333838 1.6898757 -3.0595138 7.5636374e-39
-0.57955402 1.6973519 -3.0526032 7.5636374e-39
-0.5757696 1.7048284 -3.0456924 7.2877708e-39
-0.56282139 1.7152574 -3.0599685 7.4710858e-39
-0.53991544 1.7605103 -3.0181396 7.3788874e-39
-0.58925742 1.6854366 -3.0521662 7.6554841e-39
-0.58547318 1.6929132 -3.0452554 7.6554785e-39
-0.57261002 1.7032372 -3.0595276 7.5640017e-39
-0.5420689 1.7635745 -3.003756 7.6536792e-39
-0.6152429 1.6054475 -3.1713262 7.1955779e-39
-0.61149043 1.6128607 -3.164474 7.1033823e-39
-0.60773808 1.6202739 -3.1576216 7.3788874e-39
-0.60398561 1.6276872 -3.1507695 7.6540351e-39
-0.59158736 1.6373055 -3.165359 7.1955751e-39
-0.58780313 1.6447819 -3.1584482 7.4710858e-39
-0.58522373 1.6647536 -3.1165078 7.1955751e-39
-0.57266551 1.6746877 -3.1308055 7.2877708e-39
-0.61735946 1.6084592 -3.1571884 7.2877736e-39
-0.59372199 1.6403431 -3.1511006 7.4714418e-39
-0.58993739 1.6478195 -3.1441901 7.4714418e-39
-0.57480001 1.6777253 -3.1165471 7.2877736e-39
-0.5710156 1.6852018 -3.1096365 7.2877736e-39
-0.56723136 1.6926783 -3.1027257 7.2877736e-39
-0.59207225 1.6508572 -3.1299314 7.5636374e-39
-0.58828765 1.6583334 -3.1230209 7.4710858e-39
-0.57315034 1.6882393 -3.0953779 7.2877736e-39
-0.56936598 1.6957158 -3.0884674 7.2877736e-39
-0.91550243 1.2782159 -3.0540035 6.3377451e-39
-0.91506737 1.2829777 -3.0434425 6.4288491e-39
-0.88935661 1.3434907 -2.9721696 5.7863705e-39
-0.91244721 1.2725699 -3.077661 7.6238049e-39
-0.91006541 1.2788448 -3.0693831 7.7149216e-39
-0.90292066 1.2976698 -3.0445497 7.6238049e-39
-0.93955928 1.2251624 -3.1117649 1.0585524e-38
-0.93247664 1.2438232 -3.087148 7.5316219e-39
-0.92996287 1.2576027 -3.0605006 7.8078361e-39
-0.95422727 1.2168682 -3.0867841 1.1044707e-38
-0.94800264 1.256344 -3.0073991 5.2418442e-39
-0.93768919 1.2675375 -3.011544 6.4497508e-39
-0.73676133 1.4085337 -3.2852163 9.1425042e-39
-0.71084213 1.4597415 -3.2378817 9.4158485e-39
-0.70705783 1.4672178 -3.2309711 9.1378196e-39
-0.70327342 1.4746944 -3.2240603 9.0449023e-39
-0.69948906 1.4821709 -3.2171495 8.9519766e-39
-0.6957047 1.4896474 -3.2102389 8.5828284e-39
-0.70162362 1.4852085 -3.2028913 9.6899214e-39
-0.73772287 1.4354079 -3.2149606 9.1378323e-39
-0.68478858 1.5255263 -3.154484 9.688841e-39
-0.68097091 1.5330684 -3.1475124 1.0240574e-38
-0.69075954 1.5210482 -3.1470718 8.4884818e-39
-0.68694186 1.5285904 -3.1401002 8.4884818e-39
-0.8089422 1.3515149 -3.2028401 9.8735868e-39
-0.81102264 1.3544754 -3.1889431 9.3204102e-39
-0.8073343 1.3617624 -3.1822073 9.2289335e-39
-0.80364591 1.3690492 -3.175472 9.1360218e-39
-0.69506633 1.527177 -3.1183045 9.2235287e-39
-0.6912486 1.5347189 -3.1113331 8.7654274e-39
-0.81310308 1.3574361 -3.1750462 9.0427471e-39
-0.69721973 1.5302411 -3.1039207 8.7654274e-39
-0.69340199 1.5377833 -3.0969491 8.9494585e-39
-0.68958431 1.5453254 -3.0899777 8.9494585e-39
-0.70700824 1.5182209 -3.1034799 8.7654274e-39
-0.70319068 1.525763 -3.0965085 8.7650714e-39
-0.69937307 1.5333053 -3.0895369 8.7650714e-39
-0.69555545 1.5408475 -3.0825655 8.9494585e-39
-0.81726396 1.3633571 -3.1472526 5.0517132e-39
-0.81357574 1.370644 -3.140517 4.5017638e-39
-0.79174799 1.3999943 -3.1351259 4.3180802e-39
-0.7091617 1.5212853 -3.0890963 8.7654274e-39
-0.70534384 1.5288274 -3.0821249 8.9491026e-39
-0.70152622 1.5363696 -3.0751536 8.9494585e-39
-0.84791088 1.3230443 -3.1525791 8.3930491e-39
-0.81934458 1.3663176 -3.1333559 4.5946657e-39
-0.81565607 1.3736044 -3.1266203 4.5946657e-39
-0.81196761 1.3808914 -3.119885 4.2258832e-39
-0.80827922 1.3881782 -3.1131494 4.3180802e-39
-0.80459088 1.3954653 -3.1064136 4.3180802e-39
-0.79384667 1.4029804 -3.1211085 4.2258832e-39
-0.84631622 1.3332063 -3.1321185 5.0517132e-39
-0.84265858 1.3404326 -3.1254392 4.6836369e-39
-0.81773657 1.3765651 -3.1127236 4.6843432e-39
-0.81404823 1.383852 -3.105988 4.3180802e-39
-0.81035978 1.3911388 -3.0992525 4.2258832e-39
-0.79594517 1.4059666 -3.1070912 4.3180802e-39
-0.77765024 1.4284605 -3.1078439 4.0414919e-39
-0.70965075 1.534956 -3.0533574 8.9491026e-39
-0.87294626 1.3006526 -3.1305518 7.5658178e-39
-0.86569226 1.3149836 -3.1173053 5.3282875e-39
-0.84837931 1.3361423 -3.1183376 4.3180802e-39
-0.84472173 1.3433685 -3.1116579 4.6843432e-39
-0.8410641 1.3505948 -3.1049786 4.7765402e-39
-0.82350552 1.3722388 -3.1055622 4.1336875e-39
-0.81981707 1.3795257 -3.0988266 4.3180802e-39
-0.81612867 1.3868124 -3.0920911 4.2258832e-39
-0.81244028 1.3940994 -3.0853555 4.1336875e-39
-0.79432333 1.4163029 -3.0862799 4.1336875e-39
-0.70798647 1.5455624 -3.0320024 9.133854e-39
-0.89898014 1.2686177 -3.1295455 8.5806802e-39
-0.87499201 1.3035637 -3.1168866 5.8796634e-39
-0.87136507 1.3107293 -3.1102631 5.2368107e-39
-0.85044259 1.3390782 -3.1045563 4.6843432e-39
-0.84678471 1.3463044 -3.097877 4.2258832e-39
-0.84312713 1.3535308 -3.0911975 4.3177327e-39
-0.82189751 1.3824861 -3.0849297 4.2258832e-39
-0.81820923 1.389773 -3.0781941 4.2258832e-39
-0.81452084 1.3970599 -3.0714588 4.1336875e-39
-0.79270142 1.4266392 -3.0654688 4.1336875e-39
-0.78898108 1.4339894 -3.0586748 4.1336875e-39
-0.71395743 1.5410844 -3.0245903 8.3040891e-39
-0.904607 1.2643979 -3.1225605 8.3015724e-39
-0.90100938 1.2715052 -3.1159909 8.2093767e-39
-0.89741188 1.2786127 -3.1094213 8.0253386e-39
-0.880665 1.2993095 -3.1098444 4.5003247e-39
-0.88302147 1.3070424 -3.0831428 4.8687358e-39
-0.87341094 1.3136406 -3.0965977 4.7765402e-39
-0.85616338 1.3347877 -3.0974548 4.6843432e-39
-0.85250574 1.3420141 -3.0907753 4.6843432e-39
-0.84884816 1.3492403 -3.0840957 4.3180802e-39
-0.82397813 1.3854468 -3.071033 4.2258832e-39
-0.80968142 1.4002252 -3.0786271 4.2251769e-39
-0.79852033 1.4222754 -3.0582454 4.3162935e-39
-0.79480004 1.4296255 -3.0514514 4.1329813e-39
-0.79107946 1.4369755 -3.0446575 4.5006722e-39
-0.71611089 1.5441488 -3.0102065 8.9469362e-39
-0.71229315 1.5516909 -3.0032351 9.0384185e-39
-0.70465791 1.5667753 -2.9892921 8.4884818e-39
-0.92669934 1.2399809 -3.1147795 7.4595251e-39
-0.92313117 1.2470301 -3.1082637 7.6439178e-39
-0.91956294 1.2540796 -3.1017478 8.4798329e-39
-0.89944124 1.2815003 -3.0958667 7.915523e-39
-0.8618843 1.3304974 -3.090353 4.5917888e-39
-0.86457568 1.3380487 -3.0630622 4.3180802e-39
-0.85456896 1.3449501 -3.0769942 4.3180802e-39
-0.85091114 1.3521762 -3.0703149 4.2258832e-39
-0.84725338 1.3594025 -3.0636351 4.5917888e-39
-0.8186816 1.402981 -3.0436652 4.1426713e-39
-0.81499326 1.4102678 -3.0369298 4.3281401e-39
-0.81130499 1.4175549 -3.0301943 5.1528561e-39
-0.80061889 1.4252616 -3.0442278 4.4196071e-39
-0.79689842 1.4326117 -3.0374341 4.0461582e-39
-0.7182641 1.547213 -2.9958229 8.7618246e-39
-0.71062899 1.5622975 -2.9818799 8.8543874e-39
-0.92514378 1.2498943 -3.09482 8.1985545e-39
-0.92157555 1.2569435 -3.088304 7.9306262e-39
-0.90506792 1.2772804 -3.0888817 5.1456941e-39
-0.9014703 1.2843879 -3.0823119 4.8694547e-39
-0.89787275 1.2914954 -3.0757425 4.9616503e-39
-0.85663211 1.347886 -3.0632129 4.3180802e-39
-0.85297424 1.3551122 -3.0565336 4.6836369e-39
-0.84931666 1.3623384 -3.0498543 4.7765402e-39
-0.84565884 1.3695645 -3.0431747 4.2258832e-39
-0.82076222 1.4059416 -3.0297685 5.0653548e-39
-0.8170737 1.4132284 -3.0230331 4.9731592e-39
-0.80643773 1.4208977 -3.0370047 5.0660583e-39
-0.80271733 1.4282478 -3.0302105 5.7993073e-39
-0.79155612 1.450298 -3.009829 7.562187e-39
-0.77322352 1.4731731 -3.0097454 7.9356611e-39
-0.71659988 1.5578195 -2.9744678 8.8543902e-39
-0.93429273 1.2386594 -3.094408 7.2747751e-39
-0.93072462 1.2457091 -3.0878921 7.5513872e-39
-0.92715651 1.2527581 -3.0813763 7.8366285e-39
-0.9235884 1.2598076 -3.0748603 7.5611333e-39
-0.92002016 1.2668568 -3.0683444 6.9914214e-39
-0.9070971 1.2801683 -3.0753269 5.052767e-39
-0.90349954 1.2872757 -3.0687575 5.052767e-39
-0.87954855 1.3223743 -3.0556014 4.7765402e-39
-0.87592155 1.32954 -3.0489781 4.6843432e-39
-0.87229455 1.3367054 -3.0423546 4.7765402e-39
-0.8686676 1.3438711 -3.0357313 4.3177327e-39
-0.85869521 1.3508219 -3.0494318 4.5918e-39
-0.85503745 1.358048 -3.0427523 4.2258832e-39
-0.85137993 1.3652743 -3.036073 4.6843432e-39
-0.84772217 1.3725005 -3.0293934 4.8690862e-39
-0.84406441 1.3797268 -3.0227141 4.8813083e-39
-0.8191542 1.4161891 -3.009136 6.1666577e-39
-0.81546581 1.423476 -3.0024004 6.0755341e-39
-0.80481583 1.431234 -3.0161934 5.4344653e-39
-0.80109555 1.4385841 -3.0093994 6.4529178e-39
-0.79737514 1.4459342 -3.0026054 7.2834155e-39
-0.7936548 1.4532844 -2.9958115 7.2845113e-39
-0.72257096 1.5533416 -2.9670556 8.8540259e-39
-0.94519567 1.235594 -3.0680826 7.3666106e-39
-0.93630534 1.2415237 -3.0809646 7.6417682e-39
-0.92916906 1.2556223 -3.0679326 7.0083154e-39
-0.92560089 1.2626715 -3.0614169 4.9609441e-39
-0.92203271 1.2697208 -3.0549009 5.053846e-39
-0.91846466 1.2767701 -3.0483849 4.8694547e-39
-0.9091264 1.2830559 -3.0617723 4.6843432e-39
-0.9055289 1.2901634 -3.055203 4.6843432e-39
-0.90193117 1.2972707 -3.0486333 4.6843432e-39
-0.8888483 1.3109545 -3.0551825 4.6843432e-39
-0.88522136 1.31812 -3.0485594 4.6843432e-39
-0.8815943 1.3252857 -3.0419359 4.2258832e-39
-0.87796736 1.3324512 -3.0353124 4.3180802e-39
-0.87434036 1.3396169 -3.0286891 4.7765402e-39
-0.87071329 1.3467823 -3.0220659 4.5917888e-39
-0.85710067 1.360984 -3.0289712 4.6850635e-39
-0.85344297 1.3682102 -3.0222919 4.9620007e-39
-0.84978533 1.3754364 -3.0156124 5.2500894e-39
-0.84612763 1.3826627 -3.0089331 6.0744621e-39
-0.82123464 1.4191495 -2.9952393 6.2602631e-39
-0.81754637 1.4264364 -2.9885037 5.9930242e-39
-0.81385785 1.4337233 -2.9817681 6.8213402e-39
-0.80319399 1.4415703 -2.9953821 7.0057356e-39
-0.78871381 1.4569571 -3.0020268 7.2834155e-39
-0.78496128 1.4643704 -2.9951744 7.5600192e-39
-0.72090662 1.563948 -2.9457004 8.4863167e-39
-0.71708906 1.5714902 -2.938729 8.393768e-39
-0.93831784 1.2443876 -3.0675206 7.4642335e-39
-0.93474972 1.2514369 -3.0610049 7.2791388e-39
-0.93118173 1.2584862 -3.0544889 5.1428172e-39
-0.9276135 1.2655355 -3.0479732 4.7772591e-39
-0.91690916 1.2866836 -3.0284252 4.6843432e-39
-0.91334087 1.2937328 -3.0219095 4.6836369e-39
-0.90396059 1.3001585 -3.0350788 4.6843432e-39
-0.90036297 1.3072658 -3.0285091 4.6843432e-39
-0.89089429 1.3138658 -3.041517 4.6843432e-39
-0.89316779 1.3214808 -3.0153697 4.7765402e-39
-0.88957012 1.3285881 -3.0088 4.3180802e-39
-0.88597262 1.3356956 -3.0022306 4.6843432e-39
-0.87638628 1.3425282 -3.0150235 4.7765402e-39
-0.8628214 1.3566936 -3.0218697 4.6843432e-39
-0.85916376 1.36392 -3.0151901 5.0531173e-39
-0.85550618 1.3711462 -3.0085106 5.0660583e-39
-0.8518483 1.3783723 -3.0018313 5.0657052e-39
-0.84819067 1.3855985 -2.9951518 6.0744621e-39
-0.80529255 1.4445566 -2.981365 6.9153379e-39
-0.79083055 1.459969 -2.9878888 7.1912143e-39
-0.78707808 1.4673822 -2.9810364 7.1004704e-39
-0.72305995 1.5670122 -2.9313166 8.2086509e-39
-0.71924239 1.5745544 -2.9243453 8.2097215e-39
-0.95272917 1.2342831 -3.0478718 7.089665e-39
-0.94033062 1.2472516 -3.0540769 6.0787977e-39
-0.93676257 1.254301 -3.0475609 5.0509803e-39
-0.9331944 1.2613503 -3.0410452 4.8694547e-39
-0.92962629 1.2683995 -3.0345294 4.6843432e-39
-0.92605805 1.2754488 -3.0280135 4.6843432e-39
-0.91892165 1.2895474 -3.0149815 4.6843432e-39
-0.91535366 1.2965968 -3.0084658 4.6843432e-39
-0.90598983 1.303046 -3.0215242 4.5917888e-39
-0.90239209 1.3101534 -3.0149546 4.2258832e-39
-0.89879453 1.3172607 -3.0083847 4.5917888e-39
-0.89519715 1.3243684 -3.0018151 4.7765402e-39
-0.88568616 1.3311082 -3.0146048 4.6843432e-39
-0.8820591 1.3382738 -3.0079815 4.6843432e-39
-0.87843198 1.3454393 -3.0013583 4.5917888e-39
-0.86122686 1.3668557 -3.0014091 6.0744621e-39
-0.85756916 1.374082 -2.9947298 5.2490174e-39
-0.80739117 1.4475429 -2.9673474 6.8231422e-39
-0.75566852 1.5235304 -2.9384568 8.5774334e-39
-0.95472592 1.2371246 -3.034534 7.3673295e-39
-0.95118588 1.2441183 -3.0280695 6.4439733e-39
-0.94234341 1.2501156 -3.0406332 5.3264924e-39
-0.93877518 1.257165 -3.0341172 5.0524194e-39
-0.93520713 1.2642143 -3.0276015 4.6843432e-39
-0.93163896 1.2712636 -3.0210855 4.6843432e-39
-0.92807072 1.2783129 -3.0145698 4.5924979e-39
-0.92450249 1.2853622 -3.0080538 4.5924979e-39
-0.92093438 1.2924114 -3.001538 4.5917888e-39
-0.91161668 1.2988261 -3.0145392 4.4999505e-39
-0.90801895 1.3059336 -3.0079696 4.0414919e-39
-0.90442151 1.3130412 -3.0013998 4.5917888e-39
-0.90082389 1.3201486 -2.9948301 4.6843432e-39
-0.89135891 1.3268539 -3.0075629 4.6843432e-39
-0.88773191 1.3340194 -3.0009394 4.6843432e-39
-0.88410491 1.341185 -2.9943163 4.6843432e-39
-0.88047773 1.3483505 -2.9876928 4.6843432e-39
-0.86694777 1.3625654 -2.9943073 5.4265759e-39
-0.86329007 1.3697916 -2.9876277 5.3419319e-39
-0.85597473 1.3842442 -2.9742692 6.2592135e-39
-0.85231704 1.3914704 -2.9675894 5.3447878e-39
-0.80948955 1.4505291 -2.9533303 6.9153407e-39
-0.80576909 1.4578792 -2.9465361 7.099369e-39
-0.75023454 1.541521 -2.910377 8.2072033e-39
-0.96026289 1.2329723 -3.0276606 7.4591762e-39
-0.95672274 1.239966 -3.0211961 6.2592233e-39
-0.9531827 1.2469597 -3.0147316 5.3264924e-39
-0.94078779 1.260029 -3.0206738 4.6850635e-39
-0.93721962 1.2670783 -3.0141578 4.6843432e-39
-0.93365151 1.2741276 -3.0076418 4.6843432e-39
-0.93008327 1.2811769 -3.0011261 4.5917888e-39
-0.92651516 1.2882261 -2.9946103 4.6846935e-39
-0.92294699 1.2952754 -2.9880943 4.6846935e-39
-0.91937882 1.3023248 -2.9815784 4.6843432e-39
-0.91004825 1.3088213 -2.9944148 4.7765402e-39
-0.90645063 1.3159287 -2.9878452 4.6843432e-39
-0.88252366 1.3512617 -2.9740274 4.9616503e-39
-0.86901093 1.3655013 -2.9805262 6.0755341e-39
-0.86535335 1.3727275 -2.9738469 6.0744621e-39
-0.86169565 1.3799537 -2.9671671 5.5266777e-39
-0.85803789 1.3871801 -2.9604878 6.6383964e-39
-0.82217991 1.4455656 -2.9261811 6.915691e-39
-0.7896753 1.4838312 -2.9317708 7.3759601e-39
-0.75615358 1.5370821 -2.9030292 7.8391327e-39
-0.98172402 1.2092401 -3.0201335 7.4577272e-39
-0.96768171 1.2369825 -2.9944904 5.5299455e-39
-0.95871967 1.2428074 -3.0078585 5.4183125e-39
-0.95517951 1.2498012 -3.001394 5.3275588e-39
-0.95163953 1.2567948 -2.9949296 4.8694547e-39
-0.94280052 1.2628931 -3.00723 4.7765402e-39
-0.93923217 1.2699424 -3.0007141 4.6843432e-39
-0.93566412 1.2769916 -2.9941981 5.142806e-39
-0.93209589 1.2840409 -2.9876823 4.6843432e-39
-0.92852777 1.2910903 -2.9811664 4.7765402e-39
-0.9249596 1.2981396 -2.9746504 4.6843432e-39
-0.9156751 1.3046014 -2.9874301 4.6843432e-39
-0.91207749 1.3117089 -2.9808605 4.6843432e-39
-0.90128469 1.3330312 -2.9611516 4.7765402e-39
-0.89182365 1.339842 -2.9736085 4.7765402e-39
-0.88456953 1.3541731 -2.9603617 5.0509663e-39
-0.86375874 1.3828896 -2.9533861 6.7305935e-39
-0.8601011 1.3901159 -2.9467065 7.0057356e-39
-0.80996621 1.4638516 -2.9185016 7.3748699e-39
-0.8062458 1.4712017 -2.9117076 7.1919177e-39
-0.77678227 1.5164962 -2.8902235 8.2994046e-39
-0.97668308 1.225929 -2.9940851 7.9230466e-39
-0.96071619 1.2456489 -2.9945209 5.8782144e-39
-0.95717615 1.2526424 -2.9880564 5.3275588e-39
-0.95363617 1.2596362 -2.9815919 4.8694547e-39
-0.94481313 1.2657571 -2.9937861 5.142806e-39
-0.9412449 1.2728063 -2.9872704 5.2353632e-39
-0.93767679 1.2798556 -2.9807544 4.7765402e-39
-0.93410867 1.2869049 -2.9742384 4.6843432e-39
-0.93054056 1.2939544 -2.9677224 5.1428032e-39
-0.92697233 1.3010036 -2.9612067 4.6843432e-39
-0.92340422 1.3080529 -2.9546907 4.6843432e-39
-0.91410667 1.3145965 -2.9673059 4.7765402e-39
-0.91626787 1.3221515 -2.941659 4.6843432e-39
-0.90691155 1.3288114 -2.9541667 4.6850635e-39
-0.90331393 1.3359189 -2.947597 5.051332e-39
-0.89024228 1.3499187 -2.9533198 4.040773e-39
-0.88661534 1.3570844 -2.9466965 4.6054235e-39
-0.8658219 1.3858256 -2.939605 6.8234954e-39
-0.86216414 1.3930519 -2.9329257 6.915691e-39
-0.85850644 1.4002781 -2.9262464 7.2823155e-39
-0.82265222 1.4587736 -2.8916519 7.3745139e-39
-0.81206465 1.4668379 -2.9044843 7.1919205e-39
-0.80834436 1.474188 -2.8976903 7.3748699e-39
-0.79015607 1.4972683 -2.8966427 7.7433063e-39
-0.7864036 1.5046815 -2.8897903 7.7444147e-39
-0.78265131 1.5120949 -2.8829379 7.8387795e-39
-0.77889889 1.5195081 -2.8760858 7.8387795e-39
-0.97687316 1.2205154 -3.0070412 7.5578528e-39
-0.96979308 1.2345029 -2.9941123 5.3361754e-39
-0.95039397 1.2615718 -2.9868581 5.4190356e-39
-0.9361214 1.2897691 -2.9607947 5.142806e-39
-0.93255311 1.2968183 -2.9542789 4.6843432e-39
-0.91973346 1.3103766 -2.9603209 5.3275588e-39
-0.91613591 1.3174841 -2.9537511 4.8694547e-39
-0.91828048 1.3250155 -2.9282153 5.418688e-39
-0.90894085 1.3316991 -2.9406118 4.1329659e-39
-0.90534317 1.3388065 -2.9340425 3.4908545e-39
-0.89591509 1.3456645 -2.9462776 6.3604293e-39
-0.89228821 1.3528301 -2.9396546 7.1934101e-39
-0.88866115 1.3599957 -2.9330311 7.5585717e-39
-0.87885827 1.3670828 -2.9458623 7.0975809e-39
-0.86788505 1.3887615 -2.9258239 7.1919177e-39
-0.78852028 1.5076934 -2.8756526 7.9280661e-39
-0.78476775 1.5151067 -2.8688004 8.204297e-39
-0.97178978 1.2373443 -2.9807746 4.0483106e-39
-0.94527024 1.2785343 -2.9603829 5.2353632e-39
-0.92536026 1.3061569 -2.953336 4.8673177e-39
-0.92176276 1.3132645 -2.9467661 2.5721394e-39
-0.91246909 1.3199134 -2.9591057 2.4820891e-39
-0.99666595 1.2066404 -2.9800477 8.3804066e-39
-0.95798737 1.2602506 -2.9664869 4.4999519e-39
-0.9544192 1.2672998 -2.959971 4.4081108e-39
-0.95085096 1.2743491 -2.953455 3.8571077e-39
-0.94728285 1.2813985 -2.946939 3.6737982e-39
-0.92738956 1.3090446 -2.9397814 7.0979887e-39
-1.0138109 1.1900884 -2.9680095 8.1949265e-39
-1.0021569 1.2025225 -2.9732316 8.7520758e-39
-0.9986462 1.209458 -2.966821 9.3149984e-39
-1.0192597 1.1860021 -2.9612455 8.5633517e-39
-1.015776 1.1928846 -2.9548836 8.9296175e-39
-1.0122923 1.1997671 -2.9485221 8.7582121e-39
-1.0006262 1.212276 -2.9535942 9.6838006e-39
-1.0247085 1.181916 -2.9544816 8.5626329e-39
-1.0212247 1.1887984 -2.9481199 8.2907487e-39
-1.0177411 1.195681 -2.9417582 9.4997456e-39
-1.0301571 1.1778297 -2.9477177 9.0264767e-39
-1.0231897 1.1915947 -2.9349945 1.0237678e-38
-1.019706 1.1984773 -2.9286327 1.0329526e-38
-0.68185407 1.4435018 -3.3689167 7.656203e-39
-0.67421877 1.4585861 -3.3549738 7.7487517e-39
-0.67637199 1.4616505 -3.3405902 7.8409445e-39
-0.67255437 1.4691926 -3.3336189 7.7487489e-39
-0.66873664 1.4767349 -3.3266473 7.6561973e-39
-0.82464087 1.3487833 -3.1607234 7.8272777e-39
-0.82095248 1.35607 -3.1539881 4.5917986e-39
-0.83693767 1.3447229 -3.1325409 5.4212034e-39
-0.83900082 1.3476588 -3.1187599 4.6836369e-39
-0.83534318 1.3548851 -3.1120803 4.3180802e-39
-0.82142496 1.3692781 -3.1194592 4.3180802e-39
-0.8374064 1.357821 -3.0982993 4.2258832e-39
-0.82927448 1.3679123 -3.0984008 4.5924979e-39
-0.82766628 1.3781598 -3.0777686 4.5924979e-39
-0.83343536 1.3738335 -3.0706072 4.5924979e-39
-0.84200114 1.3767909 -3.0364952 4.6850635e-39
-0.8318274 1.3840809 -3.0499749 4.8759203e-39
-0.82813895 1.3913678 -3.0432394 4.8813083e-39
-0.82445049 1.3986546 -3.036504 4.8813083e-39
-0.84040666 1.386953 -3.0160346 5.9822665e-39
-0.83021945 1.3943284 -3.0293427 5.2490174e-39
-0.82653105 1.4016153 -3.0226071 6.1666577e-39
-0.82284272 1.4089022 -3.0158718 5.3419319e-39
-0.83598834 1.390002 -3.0221813 6.0744621e-39
-0.83229995 1.3972889 -3.0154457 6.1666577e-39
-0.82861155 1.4045757 -3.0087104 5.6177999e-39
-0.8249231 1.4118627 -3.0019748 6.075181e-39
-0.8380689 1.3929626 -3.0082846 6.0755341e-39
-0.83438039 1.4002494 -3.001549 5.4341289e-39
-0.83069199 1.4075363 -2.9948134 6.2599267e-39
-0.8270036 1.4148232 -2.9880779 5.4369834e-39
-0.8233152 1.4221101 -2.9813423 7.0057356e-39
-0.84014922 1.395923 -2.9943876 6.2592135e-39
-0.83646095 1.40321 -2.9876518 5.8961623e-39
-0.83277237 1.4104968 -2.9809165 6.5462008e-39
-0.82908422 1.4177839 -2.9741809 6.9135358e-39
-0.83485299 1.4134575 -2.9670198 7.0057356e-39
-0.8311646 1.4207443 -2.9602842 7.0060859e-39
-0.82747614 1.4280312 -2.9535489 7.0060859e-39
-0.82378769 1.4353181 -2.9468133 6.8234954e-39
-0.83693349 1.416418 -2.9531229 7.0982844e-39
-0.83324516 1.4237049 -2.9463875 7.0060887e-39
-0.82955664 1.4309918 -2.939652 6.8234954e-39
-0.82586807 1.4382786 -2.9329166 7.2823155e-39
-0.83901393 1.4193785 -2.9392262 7.0982844e-39
-0.83532536 1.4266654 -2.9324908 6.915691e-39
-0.83163708 1.4339523 -2.9257553 6.915691e-39
-0.82794869 1.4412392 -2.9190197 7.2823211e-39
-0.84109443 1.4223391 -2.9253294 6.915691e-39
-0.83740598 1.429626 -2.9185939 7.2823155e-39
-0.83371764 1.4369129 -2.9118583 7.2823155e-39
-0.83002919 1.4441999 -2.9051228 7.0997221e-39
-0.82634079 1.4514867 -2.8983872 7.3748699e-39
-0.83948654 1.4325866 -2.9046969 7.3748699e-39
-0.74311107 1.4175695 -3.2428029 1.0708778e-38
-0.73935872 1.4249828 -3.2359505 1.1629655e-38
-0.73560625 1.4323961 -3.2290986 1.2825317e-38
-0.73185396 1.4398093 -3.2222462 1.3468886e-38
-0.74897999 1.4131682 -3.2355173 9.5048071e-39
-0.74147516 1.4279946 -3.221813 9.045624e-39
-0.75605917 1.4211928 -3.1933594 5.0578144e-39
-0.75956285 1.4282277 -3.1648283 4.8741421e-39
-0.74092174 1.4510987 -3.1657164 4.8770357e-39
-0.73373175 1.4654258 -3.1522803 5.3343985e-39
-0.77274293 1.4597361 -3.0448732 8.1124896e-39
-0.69686937 1.4655817 -3.2668355 8.3015724e-39
-0.69308519 1.4730582 -3.2599249 7.9327898e-39
-0.68173218 1.4954877 -3.2391925 8.0246127e-39
-0.71414149 1.4387136 -3.28022 8.5849934e-39
-0.71035725 1.44619 -3.2733092 8.6757443e-39
-0.70657271 1.4536663 -3.2663987 8.3058884e-39
-0.70278847 1.4611429 -3.2594879 8.3037346e-39
-0.69143522 1.4835721 -3.2387557 7.7509167e-39
-0.68765098 1.4910487 -3.2318449 7.8405942e-39
-0.71627623 1.4417511 -3.2659616 9.4151296e-39
-0.71249187 1.4492276 -3.2590508 9.3211291e-39
-0.70870745 1.456704 -3.2521403 8.6775477e-39
-0.69357002 1.4866098 -3.2244973 8.3037346e-39
-0.68978548 1.4940861 -3.2175868 7.9353108e-39
-0.65875131 1.5403736 -3.1985164 7.8409473e-39
-0.68978137 1.4937069 -3.2185493 9.1378168e-39
-0.68596357 1.501249 -3.2115781 8.5853619e-39
-0.68214613 1.5087912 -3.2046065 8.582848e-39
-0.65924037 1.5540444 -3.1627774 7.7509195e-39
-0.69193482 1.4967712 -3.2041657 9.8761007e-39
-0.68811709 1.5043132 -3.1971943 9.1396189e-39
-0.67666411 1.5269397 -3.1762798 8.9509074e-39
-0.67284662 1.5344821 -3.1693084 8.4910013e-39
-0.66902894 1.5420241 -3.1623371 8.3055324e-39
-0.66521126 1.5495664 -3.1553655 8.2133368e-39
-0.69754964 1.4279644 -3.3588593 8.0249869e-39
-0.70346856 1.4235257 -3.3515117 7.7512698e-39
-0.68234313 1.4571728 -3.333178 7.7483986e-39
-0.68833101 1.4534314 -3.323869 7.3828433e-39
-0.67532808 1.4863749 -3.2819676 7.7480272e-39
-0.68067878 1.467779 -3.3118227 8.0253386e-39
-0.68503171 1.4744595 -3.2815306 7.8409473e-39
-0.68124723 1.481936 -3.2746198 8.1164552e-39
-0.66922593 1.4904056 -3.2909083 7.7487517e-39
