# .PCD v0.7 - Point Cloud Data file format
VERSION 0.7
FIELDS x y z rgb
SIZE 4 4 4 4
TYPE F F F F
COUNT 1 1 1 1
WIDTH 1027
HEIGHT 1
VIEWPOINT 0 0 0 1 0 0 0
POINTS 1027
DATA ascii
0.27015221 1.4430964 -0.84569758 1.0319743e-38
0.26908207 1.4603133 -0.84429246 9.0304437e-39
0.27384222 1.3635899 -0.85274601 1.1240269e-38
0.27111763 1.3741908 -0.85280514 1.1791637e-38
0.265481 1.4462824 -0.84743899 1.1148059e-38
0.26522297 1.4553624 -0.84656096 1.0043157e-38
0.26800671 1.3675456 -0.8549242 1.2435554e-38
0.25920737 1.4635776 -0.84835351 1.0134993e-38
0.48144144 1.4523867 -0.75014687 2.0264934e-39
0.48247632 1.4580708 -0.74906182 1.8428238e-39
0.48460037 1.4679326 -0.7470324 2.1193911e-39
0.4853045 1.4723939 -0.74622929 2.6700453e-39
0.47622654 1.4263277 -0.75533146 1.1978103e-39
0.47732213 1.4364017 -0.75373894 1.3814785e-39
0.47640473 1.4432279 -0.75340247 2.5782112e-39
0.46991408 1.4256771 -0.75822687 3.7770935e-39
0.47142321 1.4235528 -0.75778413 3.6852987e-39
0.47055393 1.4337583 -0.7570563 8.2010712e-39
0.47561955 1.4689053 -0.7509442 9.491066e-39
0.47560298 1.4670987 -0.75114924 1.1056231e-38
0.47809774 1.4982666 -0.7466228 1.1423571e-38
0.45836556 1.3551325 -0.77111274 3.5066611e-39
0.45899561 1.3543853 -0.77091253 3.3226202e-39
0.47309268 1.5045253 -0.74817729 1.1423571e-38
0.47392279 1.515314 -0.74662542 1.1331373e-38
0.47475937 1.5261439 -0.74506611 1.1423571e-38
0.46046108 1.4158256 -0.76353425 1.0227545e-38
0.46051884 1.4257526 -0.7624222 1.2252253e-38
0.46458879 1.4668431 -0.75610512 9.5829015e-39
0.46497771 1.4759201 -0.75493789 1.1607604e-38
0.46877402 1.5162071 -0.74883139 1.1422121e-38
0.46958712 1.5270412 -0.74728215 1.133102e-38
0.47073045 1.557825 -0.7434023 1.133102e-38
0.47264439 1.5934908 -0.73864353 1.0871118e-38
0.45871708 1.4539649 -0.76014143 9.6740167e-39
0.46362528 1.5171003 -0.75103724 1.133102e-38
0.46441495 1.5279385 -0.74949807 1.1790926e-38
0.46529067 1.5451564 -0.7472223 1.1146629e-38
0.4671917 1.588042 -0.74167925 1.0870768e-38
0.45847651 1.5179936 -0.75324309 1.1330667e-38
0.45924273 1.5288357 -0.75171399 1.1423936e-38
0.46007153 1.5460618 -0.74945837 1.1054433e-38
0.4526144 1.5143666 -0.75626278 1.1331376e-38
0.45335391 1.5251924 -0.75474739 1.1148073e-38
0.45409992 1.5360591 -0.75322461 1.1516856e-38
0.45492223 1.5605674 -0.750175 1.1331376e-38
0.44818443 1.5323992 -0.75627184 1.133102e-38
0.44890428 1.5369605 -0.75545055 1.1148427e-38
0.44964242 1.5542235 -0.75323135 1.1425011e-38
0.43998089 1.4715111 -0.76660442 9.6732964e-39
0.43892714 1.4809927 -0.76603836 9.765848e-39
0.44157618 1.5179056 -0.76081425 1.1238105e-38
0.44226879 1.5287393 -0.75931901 1.1238824e-38
0.4429678 1.5396143 -0.75781626 1.133102e-38
0.44367343 1.5505306 -0.75630617 1.133102e-38
0.4443998 1.555133 -0.75547761 1.1424655e-38
0.43253756 1.4807436 -0.76892447 9.5818225e-39
0.43347704 1.4884958 -0.76765591 9.6743754e-39
0.43594655 1.5139998 -0.76376039 9.5818211e-39
0.43640399 1.5188029 -0.76303023 1.1238471e-38
0.43707314 1.5296407 -0.761545 1.1146982e-38
0.43774873 1.5405197 -0.76005232 1.1330667e-38
0.43843085 1.55144 -0.75855231 1.1423216e-38
0.43911403 1.5633098 -0.75694782 1.1424292e-38
0.4185141 1.3419963 -0.79038024 1.1974908e-38
0.42516047 1.4342891 -0.77730799 8.8435358e-39
0.42600152 1.4472142 -0.77551752 8.7527807e-39
0.42694992 1.454434 -0.77430326 9.306309e-39
0.42790473 1.4612563 -0.77312952 9.3981501e-39
0.42790717 1.4793464 -0.77114904 1.1514688e-38
0.42762828 1.4872522 -0.77040887 9.7665767e-39
0.43115756 1.5259808 -0.76459211 1.133102e-38
0.43187743 1.5305421 -0.76377094 1.133102e-38
0.43246183 1.5477471 -0.76162696 1.1606884e-38
0.4205074 1.4312513 -0.77972233 8.5665859e-39
0.42105517 1.4573326 -0.77662343 8.5676719e-39
0.42138731 1.4712685 -0.77495003 1.0778202e-38
0.42273793 1.4904131 -0.77225101 9.4903485e-39
0.42643523 1.527072 -0.76658559 9.3981501e-39
0.42668176 1.5314434 -0.76599693 1.1514688e-38
0.42721921 1.5486566 -0.76387304 1.1238824e-38
0.41557485 1.4676723 -0.77794403 9.6722216e-39
0.41785842 1.4910653 -0.77436274 9.3977941e-39
0.42051998 1.5202813 -0.76997513 9.4903499e-39
0.42149043 1.5277181 -0.7687273 9.3985102e-39
0.42148623 1.5323446 -0.76822293 1.1239177e-38
0.42197675 1.549566 -0.76611912 1.105443e-38
0.42539784 1.5863632 -0.76056224 1.0317947e-38
0.40451595 1.3326155 -0.79766965 1.4556771e-38
0.41129857 1.4387931 -0.78301728 1.0039205e-38
0.41117701 1.4730399 -0.77932447 1.0131401e-38
0.41241267 1.4871982 -0.77722245 9.1219177e-39
0.41331646 1.4971005 -0.77573454 9.3977899e-39
0.41654688 1.5283625 -0.7708686 9.3977871e-39
0.41629046 1.533246 -0.77044898 1.0962586e-38
0.41673407 1.5504756 -0.76836532 1.0961514e-38
0.42010486 1.5872815 -0.7628299 1.0317941e-38
0.40011346 1.3285292 -0.8000865 1.4557491e-38
0.40626103 1.4520103 -0.78382498 8.0137737e-39
0.40704039 1.4624565 -0.78233325 8.1059693e-39
0.40776169 1.4763588 -0.78048939 7.9226571e-39
0.40647778 1.4862714 -0.77997917 8.1996125e-39
0.40741414 1.4932194 -0.77880001 8.6598704e-39
0.40991792 1.5280643 -0.77386713 9.3059474e-39
0.41091913 1.5325472 -0.77292866 8.9364502e-39
0.41196033 1.5340213 -0.77230155 9.0286431e-39
0.4116531 1.5450468 -0.7712326 1.0869319e-38
0.41221786 1.5559875 -0.76978278 1.0594527e-38
0.41481197 1.5881996 -0.76509756 1.050054e-38
0.40146261 1.4526504 -0.78590173 8.1981579e-39
0.4038493 1.5275707 -0.77663636 9.1215604e-39
0.40485308 1.5320649 -0.7756955 8.9375278e-39
0.40585664 1.5365595 -0.7747547 8.9364404e-39
0.40472808 1.5381912 -0.7750811 8.5680223e-39
0.4062489 1.5522945 -0.77285755 1.0593455e-38
0.40697527 1.5568969 -0.77202892 1.0593455e-38
0.39666691 1.5023453 -0.78260994 8.1988936e-39
0.39894602 1.5252137 -0.77908802 8.9371733e-39
0.39988118 1.5327095 -0.7778495 8.9368216e-39
0.4008348 1.5375383 -0.77689445 8.9368104e-39
0.40027985 1.5486015 -0.77593213 1.0961514e-38
0.40100625 1.5532039 -0.77510357 1.0777849e-38
0.40173268 1.5578064 -0.774275 1.0593105e-38
0.40245911 1.5624088 -0.77344644 1.077677e-38
0.39090899 1.493384 -0.78616673 8.014501e-39
0.39165714 1.5059475 -0.78445727 8.1070539e-39
0.39328423 1.5267839 -0.78144944 8.5683894e-39
0.39498767 1.5303324 -0.78029907 8.8449735e-39
0.39431098 1.5449084 -0.77900684 1.0686372e-38
0.39686719 1.5426619 -0.77810901 8.936809e-39
0.39475185 1.5551592 -0.77768797 9.1197625e-39
0.38093147 1.3370079 -0.80774117 1.6676546e-38
0.38558865 1.4769666 -0.79034352 7.7386259e-39
0.38606563 1.4932698 -0.78834611 7.8304614e-39
0.38677266 1.506284 -0.78660583 8.1070525e-39
0.38932091 1.5319123 -0.7826615 8.5694656e-39
0.39019001 1.5397348 -0.78141677 8.936816e-39
0.38872761 1.5512615 -0.78080982 9.1208429e-39
0.38974208 1.5557888 -0.77986056 9.3959949e-39
0.39340129 1.5983299 -0.77356857 1.0594171e-38
0.38079453 1.4768934 -0.7924965 7.8304614e-39
0.38111714 1.4961882 -0.79024088 8.0137709e-39
0.38200235 1.503636 -0.7890299 8.2903634e-39
0.38420072 1.5358561 -0.78452086 8.7524219e-39
0.38503882 1.5441582 -0.78323746 8.8449763e-39
0.38357046 1.5552182 -0.78268427 8.9371649e-39
0.38473386 1.556417 -0.78203255 9.1215562e-39
0.37626016 1.4965684 -0.79237235 8.1981691e-39
0.37752452 1.5059625 -0.79077882 8.3829163e-39
0.37903476 1.5402577 -0.78635061 8.6602291e-39
0.37781426 1.5449235 -0.78638613 8.9375278e-39
0.37855101 1.5558388 -0.7848621 8.8449679e-39
0.37972713 1.5570436 -0.78420413 8.9368048e-39
0.38305479 1.5937088 -0.77870345 1.0686372e-38
0.36534813 1.3395576 -0.81443441 3.6903069e-39
0.36704358 1.3430157 -0.81329739 1.428127e-38
0.37229711 1.4735961 -0.79665905 8.1992439e-39
0.37035149 1.478667 -0.79697478 8.3829163e-39
0.37086684 1.4921042 -0.79527396 8.5669475e-39
0.37188253 1.4967735 -0.79430848 8.8424582e-39
0.37276733 1.5038043 -0.79314339 8.8442574e-39
0.37392148 1.5439342 -0.78823602 9.2141077e-39
0.37193489 1.5491084 -0.78855878 9.3066705e-39
0.37302643 1.5512121 -0.78784025 9.3070334e-39
0.37479332 1.5577514 -0.7863341 1.1331373e-38
0.3777619 1.594627 -0.78097111 1.1148774e-38
0.35964537 1.3442813 -0.81646907 1.5480902e-38
0.36434779 1.4779158 -0.79974306 8.2910794e-39
0.36534169 1.4823167 -0.79881686 8.5669531e-39
0.36614227 1.4899524 -0.79762322 8.2914396e-39
0.36686781 1.5000186 -0.79619718 8.5676691e-39
0.36772624 1.5075016 -0.79499429 8.844619e-39
0.36817336 1.5450423 -0.79068667 9.1215632e-39
0.3670432 1.547087 -0.7909686 9.3059516e-39
0.36842152 1.5613155 -0.78879505 1.114878e-38
0.36955085 1.5586609 -0.78858024 1.1331376e-38
0.37018901 1.5595419 -0.78819835 9.5818169e-39
0.3724691 1.5955453 -0.78323865 1.133102e-38
0.35636714 1.3386114 -0.81855619 6.9113638e-39
0.35959178 1.4448158 -0.80549276 1.0499795e-38
0.35931367 1.4815733 -0.80159521 8.3829163e-39
0.3601048 1.4892008 -0.80040675 8.5676691e-39
0.36110404 1.4936218 -0.79947585 8.5669503e-39
0.36196938 1.5006607 -0.79831851 8.5680335e-39
0.36297098 1.5050898 -0.79738575 9.0286459e-39
0.36252302 1.5400506 -0.7937609 9.3985088e-39
0.36395782 1.5486135 -0.79218197 1.1331373e-38
0.36468101 1.5531954 -0.7913571 1.1424292e-38
0.36503461 1.5641727 -0.78999782 1.1424292e-38
0.36644283 1.5918169 -0.78634292 1.1424292e-38
0.36681968 1.6029412 -0.78495717 1.1424292e-38
0.34915292 1.3434564 -0.82125378 9.9509483e-39
0.35616967 1.4770784 -0.80349374 8.5673034e-39
0.35506707 1.4924433 -0.80230588 8.5676663e-39
0.35606968 1.4968722 -0.80137271 8.7520562e-39
0.35690507 1.5043648 -0.80017912 8.7524205e-39
0.35772771 1.5115839 -0.79902112 9.1212072e-39
0.35873869 1.5495189 -0.79441804 1.1608333e-38
0.35946184 1.5541009 -0.79359311 1.1791276e-38
0.36018503 1.5586827 -0.7927683 1.1424292e-38
0.36041656 1.5880885 -0.78944713 1.1424292e-38
0.36076671 1.5991963 -0.78807509 1.1424292e-38
0.36150336 1.6038635 -0.78723484 1.1423585e-38
0.34840563 1.4482684 -0.81011987 1.0684206e-38
0.35122535 1.4720473 -0.80625641 8.5676677e-39
0.34933728 1.474522 -0.80683041 8.6598648e-39
0.34952658 1.4909734 -0.80494559 8.7520562e-39
0.35053122 1.4954022 -0.80401158 8.7520576e-39
0.35116053 1.5056621 -0.80260736 8.9364488e-39
0.35216936 1.5101101 -0.80166924 9.2137546e-39
0.35335392 1.5114646 -0.80099112 9.3059488e-39
0.35254475 1.5500748 -0.7971285 9.4907016e-39
0.35424271 1.5550063 -0.79582918 1.1516487e-38
0.35496587 1.5595881 -0.79500431 1.1423571e-38
0.35585713 1.5936533 -0.79087824 1.1607956e-38
0.3447637 1.4579883 -0.81068575 1.0869669e-38
0.34631425 1.4622228 -0.80952865 8.7527751e-39
0.34448248 1.4751482 -0.80893403 8.8453294e-39
0.34462914 1.4916042 -0.80706775 9.02792e-39
0.34582534 1.4988676 -0.80573785 1.0961865e-38
0.3462542 1.5066301 -0.80469662 8.936809e-39
0.34706369 1.5138382 -0.80354571 8.9375335e-39
0.34826308 1.5151925 -0.80286092 9.2137588e-39
0.3487469 1.5449635 -0.79938698 1.1608683e-38
0.34824377 1.5613981 -0.79781383 9.7669298e-39
0.35056424 1.5945715 -0.7931459 1.1700879e-38
0.35172457 1.5927279 -0.7928285 1.1608683e-38
0.33972564 1.4588623 -0.81284422 1.1054783e-38
0.33916262 1.482008 -0.81056368 9.1197667e-39
0.34041226 1.4899205 -0.80913872 1.1144827e-38
0.34014773 1.5054733 -0.80755538 9.3959865e-39
0.34116247 1.5099295 -0.80661368 9.0297249e-39
0.34217715 1.5143856 -0.80567217 9.3070334e-39
0.34136373 1.5498569 -0.8021549 1.0226829e-38
0.34199458 1.5606768 -0.80068874 9.8591254e-39
0.34645516 1.5936422 -0.79508597 1.1700881e-38
0.33144316 1.3493354 -0.82853413 1.3359678e-38
0.33645099 1.4661542 -0.81351155 9.3959851e-39
0.3340953 1.4852693 -0.81247395 9.3959977e-39
0.33582315 1.4845757 -0.81177676 1.1329575e-38
0.33522144 1.5061281 -0.80968779 9.3956263e-39
0.33672175 1.4997698 -0.80971223 1.0871118e-38
0.3347441 1.5529845 -0.80477434 1.0042796e-38
0.33556354 1.5606821 -0.8035655 1.0134279e-38
0.33023801 1.4575738 -0.81723017 9.5807477e-39
0.32883301 1.4806142 -0.81533778 9.5807449e-39
0.32932913 1.4912727 -0.81394953 9.3970683e-39
0.32916847 1.510451 -0.81192291 8.8449665e-39
0.33162761 1.5480748 -0.80670595 1.0134993e-38
0.32985371 1.5590914 -0.80629426 1.0042075e-38
0.33089218 1.563652 -0.80533063 1.0042078e-38
0.33411795 1.5952424 -0.80043077 9.7676501e-39
0.33492169 1.6084749 -0.79862332 1.1608683e-38
0.32518405 1.4553077 -0.81973934 1.1422137e-38
0.32390305 1.4981604 -0.81562364 9.3970683e-39
0.32422212 1.5110998 -0.81406498 9.2130371e-39
0.32646692 1.5513257 -0.8086592 1.0043154e-38
0.32429951 1.5660959 -0.8080129 1.0133909e-38
0.32775733 1.5944963 -0.80335826 1.0042078e-38
0.32876968 1.5991557 -0.80239552 9.7665753e-39
0.32826981 1.6121421 -0.8011983 1.1791642e-38
0.32073098 1.4586676 -0.82136405 9.5810924e-39
0.31826779 1.4912145 -0.81890494 9.6725762e-39
0.3187654 1.501464 -0.81756085 9.4885478e-39
0.31923908 1.5117793 -0.81622016 9.3970669e-39
0.31942394 1.5257187 -0.81461227 9.2137644e-39
0.3212029 1.5551203 -0.81059921 1.0042792e-38
0.32091466 1.5576411 -0.8104524 1.2159339e-38
0.32238531 1.5984005 -0.80533463 9.4903261e-39
0.32344103 1.6030229 -0.80435646 9.4903415e-39
0.32355237 1.6056522 -0.80401897 1.1423571e-38
0.31595266 1.459293 -0.82343352 9.6729321e-39
0.31447861 1.4952905 -0.82015425 9.5807407e-39
0.31357858 1.5047952 -0.81951702 9.6729321e-39
0.31372294 1.5186893 -0.81793219 9.5814595e-39
0.31444749 1.5263445 -0.81677032 9.4903485e-39
0.31647095 1.5525703 -0.81299549 9.9516826e-39
0.31721416 1.5603192 -0.81181502 1.0410863e-38
0.31623098 1.6004574 -0.80786312 1.0136445e-38
0.31800926 1.6073869 -0.80630922 1.0319739e-38
0.30669057 1.359615 -0.83848405 1.0133909e-38
0.30695984 1.3687292 -0.83736628 1.0593453e-38
0.3081007 1.4552605 -0.82738781 1.1791632e-38
0.31010154 1.4555959 -0.82645595 9.6736425e-39
0.31058487 1.4652697 -0.82518119 9.673295e-39
0.30947566 1.4909855 -0.82286376 9.5810994e-39
0.30717093 1.4960734 -0.82333827 9.673295e-39
0.30758777 1.5067832 -0.82197976 9.4896198e-39
0.30773994 1.5202159 -0.82044202 9.581098e-39
0.31019661 1.5573291 -0.81528193 1.0318306e-38
0.30849767 1.565734 -0.81512249 1.0319019e-38
0.3111161 1.6010746 -0.81008404 9.9520427e-39
0.31281406 1.5987853 -0.80957484 1.0043881e-38
0.31327021 1.6103591 -0.80810434 1.0319032e-38
0.30338722 1.4655217 -0.82837397 9.674374e-39
0.30439514 1.4699202 -0.82744169 9.6740139e-39
0.30449075 1.4831842 -0.82594764 9.7647662e-39
0.30227578 1.4967046 -0.82545924 9.6736495e-39
0.30271512 1.5069679 -0.82413971 9.306309e-39
0.3027648 1.5208162 -0.82260221 9.5818127e-39
0.30346435 1.5664192 -0.81729943 1.031866e-38
0.30572417 1.6049371 -0.81207389 9.9516854e-39
0.29818812 1.4692003 -0.83029765 9.9505994e-39
0.29927775 1.4732003 -0.82937247 9.9498805e-39
0.29964319 1.4838238 -0.82804656 9.8580408e-39
0.2977156 1.4942625 -0.82776678 9.4903429e-39
0.2980904 1.5049666 -0.82642794 9.7662067e-39
0.29782063 1.5214584 -0.82474411 9.5832588e-39
0.29981545 1.5623082 -0.81938183 1.0502333e-38
0.29840493 1.5670847 -0.81949031 1.0318659e-38
0.299943 1.6124822 -0.81383485 1.0318671e-38
0.29238775 1.4781604 -0.8319124 1.0134635e-38
0.29374188 1.4800148 -0.83110368 1.022575e-38
0.29475886 1.4844422 -0.83016419 1.0041717e-38
0.29446554 1.4871671 -0.8299973 1.1606528e-38
0.29286271 1.5088249 -0.82834464 9.8580422e-39
0.29223883 1.5284716 -0.82647413 9.859124e-39
0.29305682 1.5647368 -0.82214004 1.0410857e-38
0.29476246 1.5629728 -0.82156998 1.0318662e-38
0.29334638 1.5677488 -0.82168096 1.0319382e-38
0.29376861 1.6139287 -0.81643915 1.0411219e-38
0.28647733 1.4743195 -0.83497709 1.0502697e-38
0.28682622 1.4850055 -0.83365178 1.0227188e-38
0.28816226 1.4868336 -0.83285397 1.0226466e-38
0.28867981 1.4835874 -0.83297759 1.1974594e-38
0.28938392 1.4880487 -0.83217442 1.1791276e-38
0.28582174 1.5190691 -0.83037406 1.0042078e-38
0.28547937 1.5361332 -0.82866013 1.0041723e-38
0.28833878 1.5677078 -0.82392591 1.0503413e-38
0.28971884 1.5690759 -0.82315874 1.0594897e-38
0.28893766 1.5966272 -0.8204937 1.0504136e-38
0.28927106 1.6080786 -0.8190915 1.0320102e-38
0.28054246 1.4756926 -0.83748227 1.0319385e-38
0.28086251 1.4864066 -0.8361668 1.04105e-38
0.28159207 1.4935684 -0.8350566 1.0318306e-38
0.28187817 1.504164 -0.83376938 1.0041726e-38
0.28219983 1.5148947 -0.83245128 9.8584094e-39
0.27975041 1.5290149 -0.83200216 9.6754572e-39
0.28045014 1.5367514 -0.83084261 1.013428e-38
0.2820999 1.5640042 -0.82712251 1.068817e-38
0.28315914 1.5686052 -0.82614517 1.0503772e-38
0.28382632 1.5972463 -0.82271284 1.0503412e-38
0.28454041 1.605054 -0.82153904 1.0319738e-38
0.2756398 1.4762721 -0.83961242 1.0319382e-38
0.27453822 1.4991291 -0.83760428 1.0318662e-38
0.27629736 1.4973278 -0.83701426 1.0410501e-38
0.27621025 1.5110843 -0.83554804 9.9513252e-39
0.27443168 1.518837 -0.83549547 1.0134276e-38
0.2747336 1.5296223 -0.83418036 1.0319027e-38
0.27499101 1.5408887 -0.8328324 1.0319027e-38
0.27702641 1.5646262 -0.82932448 1.0687448e-38
0.27837157 1.6011492 -0.82472634 1.0503056e-38
0.27905127 1.6095589 -0.82350206 1.0411222e-38
0.27015716 1.3590131 -0.85489559 2.1229896e-39
0.2718854 1.3620038 -0.85379511 1.382245e-38
0.27152127 1.3656025 -0.85356432 1.1976744e-38
0.26818278 1.4966711 -0.84071672 1.2344446e-38
0.26917112 1.5027879 -0.83960527 1.0318662e-38
0.26961613 1.5057524 -0.83908176 1.1976742e-38
0.26872429 1.522769 -0.83761883 1.1976392e-38
0.26868421 1.5258157 -0.8373034 1.0226828e-38
0.26934439 1.5334263 -0.83617532 1.0319027e-38
0.27002496 1.5411915 -0.8350212 1.0595611e-38
0.27121013 1.5715907 -0.83116472 1.0779641e-38
0.26991582 1.6032472 -0.82827997 1.0688518e-38
0.27063724 1.6112092 -0.82708603 1.0871828e-38
0.27207848 1.6126012 -0.82628894 1.0595611e-38
0.2654227 1.3626564 -0.85661525 5.0606395e-39
0.26640266 1.366905 -0.85571194 1.5850045e-38
0.26481482 1.4729809 -0.84481573 1.0594535e-38
0.26384804 1.491388 -0.84323424 1.2252253e-38
0.26380384 1.5065739 -0.84159243 1.0318664e-38
0.2644459 1.5141307 -0.8404783 1.0226829e-38
0.26509103 1.5217074 -0.83936054 1.0135347e-38
0.26422834 1.5282562 -0.83902997 1.1884547e-38
0.26362583 1.5318592 -0.83890539 1.0410504e-38
0.26428375 1.5394727 -0.83777803 1.059561e-38
0.26375949 1.5728703 -0.83435827 1.2712875e-38
0.26425147 1.6006007 -0.83110386 1.2897637e-38
0.26363948 1.6046274 -0.83093715 1.0964394e-38
0.26510954 1.6061916 -0.83010823 1.0688522e-38
0.25960651 1.3642514 -0.85904288 3.9618449e-39
0.2612814 1.3682494 -0.85785609 1.3545164e-38
0.26229018 1.3731794 -0.85686535 1.0409777e-38
0.25766966 1.4835708 -0.84685385 1.041086e-38
0.25756067 1.4909137 -0.84609908 9.3992249e-39
0.25851449 1.5017197 -0.84449005 1.0227188e-38
0.2587463 1.5124305 -0.84321439 1.0227186e-38
0.25939953 1.520159 -0.84207648 1.0043514e-38
0.26004261 1.5277389 -0.84095937 1.0134991e-38
0.25859731 1.5324804 -0.84108722 1.0595254e-38
0.25961429 1.5446333 -0.83930254 1.2713228e-38
0.25957385 1.6036695 -0.83286095 1.0872917e-38
0.25722545 1.6152172 -0.83264816 1.0872194e-38
0.25461209 1.3638387 -0.86132264 8.8438623e-39
0.25624651 1.3696941 -0.85995066 1.216294e-38
0.25732821 1.3778106 -0.85857868 1.0595246e-38
0.25594741 1.4494197 -0.85136116 9.6750943e-39
0.25413859 1.4619801 -0.85079622 9.7672899e-39
0.2522209 1.4839121 -0.84925437 9.5828973e-39
0.25280979 1.4925756 -0.84804296 9.5825469e-39
0.25353473 1.5023338 -0.84665084 1.0503058e-38
0.25374505 1.5130471 -0.8453846 1.0410504e-38
0.25396475 1.5238016 -0.84410959 1.0318309e-38
0.25502062 1.5283583 -0.84313852 1.0318664e-38
0.25364518 1.5409404 -0.84237725 1.2436293e-38
0.25437158 1.5455428 -0.84154862 1.289799e-38
0.25254837 1.6097941 -0.83533406 1.2715026e-38
0.25155893 1.6196262 -0.83470106 1.0872194e-38
0.24851872 1.3662879 -0.86378103 1.8367099e-40
0.24892834 1.3696793 -0.86322665 1.170123e-38
0.25029737 1.3758253 -0.86194164 1.3268562e-38
0.25143662 1.3800187 -0.86097306 1.0687091e-38
0.24889123 1.4690384 -0.85237163 9.766927e-39
0.24703428 1.4759678 -0.85244423 9.7672913e-39
0.2472752 1.4870132 -0.85112786 9.6750929e-39
0.24785605 1.4956641 -0.84992146 9.6747342e-39
0.24855606 1.5029466 -0.84881145 1.0503058e-38
0.24874476 1.5136626 -0.84755445 1.0318311e-38
0.24894291 1.5244194 -0.84628874 1.041015e-38
0.24999976 1.5289761 -0.84531736 1.0779648e-38
0.24840263 1.5418499 -0.84462333 1.2807574e-38
0.24912903 1.5464523 -0.84379476 1.2990536e-38
0.24922051 1.6049622 -0.8373518 1.1056594e-38
0.24438773 1.3711299 -0.86509955 1.4744059e-38
0.24522798 1.3773335 -0.86404479 1.1515782e-38
0.24453516 1.4507741 -0.85631901 9.9513224e-39
0.24520728 1.4584587 -0.8551774 9.7665711e-39
0.24261969 1.4756628 -0.85445279 1.0687448e-38
0.24109362 1.4945182 -0.8530724 9.5832644e-39
0.24111076 1.5067132 -0.85173041 9.5825427e-39
0.24224727 1.5127238 -0.8505643 1.0319023e-38
0.24286447 1.5204792 -0.8494395 1.0411564e-38
0.24392217 1.525036 -0.84846765 1.0780359e-38
0.24335186 1.5318778 -0.84797418 1.2439518e-38
0.24211429 1.5499587 -0.84654957 1.2807223e-38
0.24325395 1.6038783 -0.84013987 1.1148057e-38
0.24300969 1.6182487 -0.83867687 1.0779994e-38
0.23867124 1.3699163 -0.86778992 8.1027309e-39
0.2392612 1.3768184 -0.86677068 1.612736e-38
0.24021526 1.3817436 -0.86580497 1.0594887e-38
0.23881638 1.4593771 -0.85793638 9.951321e-39
0.24015786 1.4626249 -0.85698074 9.766934e-39
0.23773719 1.4847268 -0.85564548 1.0136064e-38
0.23550543 1.5185837 -0.85293949 1.0964032e-38
0.23668645 1.5236195 -0.85186005 1.2344449e-38
0.23646466 1.5344639 -0.85077274 1.2714658e-38
0.23763661 1.6075914 -0.84224695 1.0780361e-38
0.23779954 1.6188799 -0.84093887 1.0871478e-38
0.23241135 1.3723657 -0.8703227 7.922629e-39
0.23410779 1.3798507 -0.86874461 1.3914658e-38
0.23469219 1.3865954 -0.86774522 1.1699434e-38
0.23399843 1.45796 -0.86024702 9.9520385e-39
0.23401856 1.4646802 -0.85950273 9.8591268e-39
0.23311432 1.4827856 -0.85792619 9.7672941e-39
0.23083185 1.607318 -0.84532142 1.0872913e-38
0.23097223 1.6188581 -0.84399587 1.1056947e-38
0.22707678 1.3752753 -0.8723911 1.0870742e-38
0.22868547 1.3781946 -0.8713519 1.5204325e-38
0.22883536 1.3875656 -0.87025952 1.1424642e-38
0.2270402 1.4566441 -0.86350423 1.0044234e-38
0.22787569 1.463218 -0.86241114 9.9513252e-39
0.22803192 1.47413 -0.86114728 9.951321e-39
0.22798765 1.4865335 -0.85980994 9.8594855e-39
0.22461541 1.6209077 -0.84661579 1.2622831e-38
0.22249289 1.3771037 -0.87424195 1.6125544e-38
0.22306587 1.3838313 -0.87324947 1.2990555e-38
0.22407378 1.3881518 -0.87232584 1.1517206e-38
0.22151186 1.4596084 -0.86565334 1.0136075e-38
0.22139746 1.4721435 -0.86433303 9.9516798e-39
0.22154644 1.4830595 -0.86307192 9.9513196e-39
0.22176675 1.5582412 -0.85474712 1.2437002e-38
0.21819881 1.3783882 -0.87602264 4.876258e-39
0.21729551 1.3800954 -0.87624002 1.631176e-38
0.2173485 1.3873209 -0.87542564 1.0688522e-38
0.21514222 1.4591901 -0.86854899 1.0320824e-38
0.21537925 1.4695184 -0.86731285 1.0136074e-38
0.21606819 1.4771634 -0.86616808 9.9520413e-39
0.21381761 1.5519599 -0.85899103 9.7672885e-39
0.21200742 1.3834738 -0.87823629 1.4468538e-38
0.21228251 1.3880645 -0.87761086 1.0597038e-38
0.20899414 1.4603318 -0.87117487 1.0411939e-38
0.21048948 1.476439 -0.86874342 1.1425025e-38
0.2112454 1.4822323 -0.86777127 1.1333532e-38
0.20963679 1.541169 -0.86204231 1.077928e-38
0.20885661 1.5538148 -0.86100769 9.4914191e-39
0.20654066 1.3789017 -0.88118249 1.4377087e-38
0.20752771 1.3922417 -0.87928116 1.2434847e-38
0.20279106 1.5304769 -0.86627507 1.0688527e-38
0.20387459 1.5350851 -0.86528605 1.0687448e-38
0.20397715 1.5430974 -0.86436355 9.5828973e-39
0.20314807 1.3759813 -0.88301986 1.4467494e-38
0.2006738 1.3883948 -0.88276869 1.2068577e-38
0.20257673 1.3931005 -0.88140237 1.2804721e-38
0.20206323 1.5021064 -0.86970496 1.2344446e-38
0.20277667 1.5066265 -0.86889124 1.2345169e-38
0.19824572 1.539031 -0.86737281 1.0778565e-38
0.19555703 1.7003576 -0.85092372 5.1557176e-39
0.19710761 1.3744421 -0.88589096 1.0504095e-38
0.19793533 1.3804659 -0.88486147 1.5942616e-38
0.19747788 1.3884503 -0.88419259 1.2067856e-38
0.18899123 1.5271864 -0.87280941 1.2252969e-38
0.48981673 1.4690945 -0.74457145 1.8618212e-40
0.47575924 1.4185092 -0.75639594 7.1746481e-43
0.44720849 1.3354293 -0.77826041 1.7495464e-39
0.42767224 1.3338599 -0.78717297 8.0152016e-39
0.42209071 1.3395995 -0.78904223 4.5161061e-39
0.41787016 1.330478 -0.79192865 1.0407599e-38
0.41357493 1.3307971 -0.79381549 1.0868597e-38
0.41478664 1.3348178 -0.79283345 7.6449743e-39
0.39074051 1.3326577 -0.80382836 1.1514332e-38
0.40091011 1.4844043 -0.78267455 5.8983091e-39
0.37659246 1.3295839 -0.81049484 6.6311938e-39
0.39516997 1.4750226 -0.78626931 5.9883579e-39
0.37028328 1.3412069 -0.81204581 3.7451663e-40
0.37177062 1.3401641 -0.81149447 1.0130326e-38
0.38110134 1.4523264 -0.79504728 6.0805549e-39
0.35404924 1.3465922 -0.81871992 1.2348066e-38
0.37482864 1.5551691 -0.78660089 7.1890479e-39
0.34375075 1.339999 -0.82404912 1.1794142e-38
0.36767393 1.5411359 -0.79133749 7.6475079e-39
0.33827537 1.339304 -0.82657498 7.0957747e-39
0.36402303 1.5514407 -0.79184341 7.2808932e-39
0.36505562 1.562356 -0.79018718 7.2816022e-39
0.33322325 1.3458002 -0.82812452 9.6732796e-39
0.35761526 1.5538048 -0.79445171 8.0162932e-39
0.32217324 1.3504057 -0.83256459 6.2652951e-39
0.31849238 1.3471556 -0.83456701 8.2917941e-39
0.31277546 1.3472244 -0.83711731 2.4942664e-39
0.30855155 1.343462 -0.83941895 6.4496668e-39
0.30152407 1.3497831 -0.84187144 2.6758004e-39
0.31475517 1.4626721 -0.82359964 7.6475079e-39
0.29766971 1.3483155 -0.84375656 2.7665583e-39
0.29296109 1.3549848 -0.84513348 5.1596636e-39
0.3003777 1.5928115 -0.81579268 8.4765651e-39
0.24247682 1.3692527 -0.86615986 3.9571772e-39
0.22556466 1.3699788 -0.87364721 0
0.20947848 1.3716755 -0.88065875 2.5764161e-39
0.32949531 1.3436577 -0.83002692 9.4014109e-39
0.32325712 1.3433019 -0.83285695 6.1760184e-39
0.28892955 1.3506974 -0.84740645 1.7546106e-39
0.28042412 1.3511958 -0.85115743 3.6881755e-39
0.27348593 1.348048 -0.85460597 1.5734396e-39
0.27508223 1.3518463 -0.85347623 1.2965038e-39
0.26371214 1.3576428 -0.85792917 2.7694464e-39
0.27022806 1.3552766 -0.85527271 7.5603541e-39
0.2581223 1.3591009 -0.86027056 2.2420775e-44
0.25484532 1.358914 -0.86175728 2.3822074e-44
0.25646713 1.3627734 -0.86060929 4.6111464e-39
0.25880224 1.3611126 -0.85974634 9.9545847e-39
0.25156826 1.3587271 -0.86324388 0
0.25990745 1.4791977 -0.84633118 6.4529486e-39
0.23648913 1.3640652 -0.8694064 1.8367099e-40
0.23879129 1.3634144 -0.86844766 1.0878304e-38
0.24304989 1.3796771 -0.86476278 6.8231422e-39
0.23002449 1.369926 -0.87165755 0
0.23232475 1.3769734 -0.86985725 7.3741664e-39
0.22011039 1.3755275 -0.87548035 2.7661856e-39
0.21601234 1.3798429 -0.87684178 1.0970851e-38
0.2200762 1.3832692 -0.87464857 7.3752748e-39
0.23832035 1.511596 -0.85244459 6.2699713e-39
0.21430489 1.3836313 -0.87719113 7.6518645e-39
0.23303418 1.5072297 -0.85528749 6.6383964e-39
0.20423153 1.3675129 -0.88346177 4.2038954e-45
0.20590469 1.3714943 -0.88227755 6.7298452e-39
0.20418361 1.3891758 -0.88111287 7.0997473e-39
0.21367133 1.5259399 -0.86190349 7.0990187e-39
0.21641478 1.5401328 -0.85912311 7.0986683e-39
0.20922622 1.5314175 -0.86329293 7.0986683e-39
0.25931525 1.4224172 -0.85280889 6.7302586e-39
0.46777728 1.3867313 -0.76344424 1.7513484e-39
0.40888327 1.3969198 -0.78867954 8.7513457e-39
0.38999009 1.4007206 -0.79671687 8.7509828e-39
0.30621535 1.4156073 -0.8325702 9.6743726e-39
0.27971303 1.421665 -0.84376484 9.3066761e-39
0.27274352 1.4230134 -0.84673566 1.2622475e-38
0.24477631 1.4298779 -0.8584975 1.0412308e-38
0.22723058 1.4365542 -0.86561733 1.0411942e-38
0.21010332 1.441389 -0.87275124 1.1609754e-38
0.20673233 1.4406512 -0.87434018 1.0780722e-38
0.21868552 1.4371926 -0.86937058 7.2834127e-39
0.46010044 1.3629608 -0.76947993 3.9643925e-39
0.46106863 1.3688031 -0.76840746 2.76442e-39
0.45536616 1.3568747 -0.77226406 3.2239548e-39
0.45053321 1.3535759 -0.77478737 4.881653e-39
0.45123988 1.3594261 -0.77383107 9.4903569e-39
0.44706678 1.3545237 -0.77623463 9.4003067e-39
0.44670236 1.3589761 -0.77591044 1.0688164e-38
0.44649664 1.3648347 -0.77536148 1.2254054e-38
0.44441724 1.3492508 -0.77799702 1.0412294e-38
0.44277585 1.3600047 -0.77755469 9.1222891e-39
0.44347021 1.3640927 -0.7767967 9.5821882e-39
0.43919134 1.3544827 -0.77976269 9.8580548e-39
0.43986315 1.3656886 -0.77823597 1.0042443e-38
0.43538919 1.3495674 -0.78200161 9.4881947e-39
0.43467644 1.3581038 -0.78138649 9.5807477e-39
0.43013647 1.3588772 -0.78333312 9.303802e-39
0.43072829 1.3698131 -0.7818718 9.4878332e-39
0.4257594 1.3698248 -0.78409368 9.2108805e-39
0.42144802 1.3536147 -0.78779632 8.9350125e-39
0.42057389 1.3631992 -0.78713864 8.7509856e-39
0.4123984 1.3561972 -0.79156274 9.3027118e-39
0.41151842 1.3646227 -0.79103446 8.9353727e-39
0.40723914 1.3646837 -0.79294246 1.0500895e-38
0.40497905 1.361838 -0.79426491 8.1070483e-39
0.40091476 1.3654681 -0.79568624 9.0275641e-39
0.40016329 1.3705691 -0.79546428 1.0685653e-38
0.39593172 1.3559309 -0.79895926 9.4871045e-39
0.39640492 1.3662421 -0.79761928 9.0268494e-39
0.39180931 1.3685201 -0.7994262 9.026848e-39
0.38741237 1.3739432 -0.80080003 9.119401e-39
0.38233203 1.3662592 -0.80391383 9.6711356e-39
0.37939692 1.3576375 -0.80617046 1.1513613e-38
0.37771836 1.3698162 -0.8055889 9.5785785e-39
0.37564987 1.3661703 -0.80691338 8.8417421e-39
0.37309217 1.3720986 -0.80740899 9.7626138e-39
0.37019312 1.3782356 -0.8080346 1.160473e-38
0.36659375 1.3634323 -0.81126469 9.7644074e-39
0.36708814 1.3715465 -0.81015575 9.6711384e-39
0.36204877 1.3646437 -0.81316572 1.0040275e-38
0.36242658 1.3741734 -0.81195396 9.7629711e-39
0.35734227 1.3686731 -0.81483054 9.9480812e-39
0.35787797 1.375833 -0.81380749 9.7636928e-39
0.35266453 1.3713098 -0.81663501 1.0224309e-38
0.35328591 1.3774089 -0.81568962 9.7644103e-39
0.34986538 1.3651522 -0.81856114 1.2342298e-38
0.34806725 1.3729011 -0.81851774 1.0225027e-38
0.34855413 1.3801798 -0.81750345 9.8566087e-39
0.34422642 1.3762277 -0.81987226 9.2123141e-39
0.34204501 1.3825216 -0.82015949 1.1329568e-38
0.33562428 1.3913773 -0.82206333 8.9371747e-39
0.33326063 1.3838862 -0.82394046 1.0041713e-38
0.32400417 1.3828281 -0.82819772 9.3970683e-39
0.32183695 1.3691291 -0.83066636 1.0869682e-38
0.32061487 1.3765948 -0.83039623 1.2159704e-38
0.32014152 1.3853253 -0.82965273 1.1883475e-38
0.31788686 1.3884928 -0.83031493 1.0318667e-38
0.3126497 1.3810699 -0.83347034 9.6740181e-39
0.31302562 1.3904957 -0.83227086 9.8580506e-39
0.30773613 1.3741925 -0.83642125 9.9502406e-39
0.30811134 1.3833148 -0.83525527 9.7665668e-39
0.30889848 1.3926065 -0.83388638 8.6616654e-39
0.30337694 1.3749528 -0.83828837 1.2251892e-38
0.30369744 1.3853606 -0.83700627 9.9509623e-39
0.29836157 1.3787565 -0.8401162 1.0594528e-38
0.2985715 1.3848701 -0.83935338 9.8580436e-39
0.29223338 1.3820159 -0.84250134 1.2159346e-38
0.28658539 1.3783116 -0.84543377 1.0042436e-38
0.28763342 1.3848093 -0.8442539 1.0134638e-38
0.2870945 1.3932432 -0.84357214 1.0042796e-38
0.28243896 1.3797337 -0.84713328 1.234481e-38
0.28386277 1.3805006 -0.84641236 1.2528841e-38
0.28219715 1.3906931 -0.84604234 1.0963315e-38
0.277787 1.3820215 -0.84896433 1.2621034e-38
0.27779001 1.389645 -0.8481288 1.2621394e-38
0.27696458 1.3980619 -0.84757721 1.0320101e-38
0.27631572 1.376155 -0.85026461 9.2148378e-39
0.27113312 1.3821379 -0.85192865 1.0504495e-38
0.27091438 1.3951081 -0.8506074 1.0412301e-38
0.27131757 1.3918892 -0.85077918 1.2713954e-38
0.26539505 1.3787695 -0.8548646 1.0687807e-38
0.26572329 1.387612 -0.85375017 1.0504136e-38
0.2670157 1.392265 -0.85266286 1.289834e-38
0.26601002 1.400359 -0.85222715 9.3992291e-39
0.46467704 1.3679175 -0.76688993 3.5044933e-39
0.2615203 1.380465 -0.85641259 1.3174567e-38
0.26025146 1.3941218 -0.85548604 1.0135718e-38
0.26076081 1.4030631 -0.85427982 1.1425731e-38
0.25584704 1.3864408 -0.85829711 1.3267481e-38
0.25452635 1.3950158 -0.85794973 1.0228271e-38
0.25490871 1.404582 -0.85673201 1.0136435e-38
0.25213706 1.3871787 -0.85987628 1.0412292e-38
0.24943453 1.3965335 -0.86006176 1.0411583e-38
0.24591926 1.3844898 -0.86295247 1.0595256e-38
0.24566846 1.3928944 -0.86214501 1.0504495e-38
0.24397874 1.4038754 -0.86169952 1.0411943e-38
0.24040581 1.387193 -0.86512345 1.0412652e-38
0.2410953 1.394374 -0.86402923 1.0320459e-38
0.23808576 1.4087492 -0.86380279 1.0136077e-38
0.23481201 1.3916335 -0.86714029 1.0320824e-38
0.23523889 1.4004124 -0.86598873 1.0320464e-38
0.23486377 1.4055567 -0.86559379 1.05967e-38
0.22933041 1.3935701 -0.86938101 1.0504495e-38
0.22997871 1.4009867 -0.86827946 1.0504136e-38
0.22547187 1.3919621 -0.87128335 1.05045e-38
0.22438389 1.4052025 -0.87032133 1.050414e-38
0.21791095 1.3952376 -0.87430775 1.0597053e-38
0.21880163 1.3992168 -0.87347388 1.3084179e-38
0.21856523 1.4102701 -0.87237024 1.151865e-38
0.21246338 1.3981134 -0.87643051 9.5839749e-39
0.21274485 1.4075649 -0.87527037 9.7687305e-39
0.20724131 1.4017119 -0.87837315 1.2805074e-38
0.207848 1.4073454 -0.87748528 1.1703386e-38
0.20208663 1.4015363 -0.88069862 1.1701603e-38
0.20110685 1.4152569 -0.87963581 1.0873639e-38
0.19661029 1.3990725 -0.88341838 1.3358598e-38
0.19613412 1.407527 -0.8827064 1.0964753e-38
0.18928134 1.4063451 -0.88590181 1.0780726e-38
0.45972326 1.3616616 -0.76979077 3.7272577e-40
0.46094459 1.365714 -0.76880103 8.3046692e-40
0.25219634 1.4010651 -0.85833031 6.9146344e-39
0.24095605 1.402096 -0.86324668 7.0068454e-39
0.20929711 1.4152685 -0.87597001 7.2834127e-39
0.19809213 1.4122256 -0.8813163 7.5600038e-39
0.44762924 1.3883635 -0.77228028 1.0780013e-38
0.44302979 1.3891405 -0.77425313 1.0595974e-38
0.36408576 1.4043498 -0.80790979 1.0868247e-38
0.34406301 1.4051003 -0.81678617 1.1331736e-38
0.34007922 1.4081563 -0.81823415 9.8573304e-39
0.32746172 1.4104683 -0.82362646 1.0410141e-38
0.30277631 1.414175 -0.83426559 1.2159699e-38
0.29879493 1.4149816 -0.83595866 1.0594891e-38
0.26274663 1.4215916 -0.85136396 1.1793427e-38
0.2382655 1.4314421 -0.86123937 1.0228267e-38
0.23212481 1.433766 -0.86373258 1.0227912e-38
0.21587671 1.4365357 -0.87069923 1.0505207e-38
0.46440169 1.397361 -0.76379144 8.9375419e-39
0.46548337 1.4027424 -0.76271868 9.3992347e-39
0.4609983 1.3969766 -0.7653563 1.3544791e-38
0.45458138 1.3986998 -0.76803869 1.1056231e-38
0.45023769 1.4059641 -0.76918739 1.0872921e-38
0.4432846 1.401419 -0.77279556 1.326533e-38
0.44386035 1.4041686 -0.77223718 1.2345532e-38
0.43917239 1.4040772 -0.77434456 1.0042442e-38
0.43448839 1.4075954 -0.77605534 9.949526e-39
0.42943001 1.4046016 -0.77864611 9.3959921e-39
0.42478076 1.4089577 -0.78024966 8.9364559e-39
0.42024019 1.4091319 -0.78226209 8.0141338e-39
0.40798232 1.4044917 -0.7882542 8.8428267e-39
0.39391327 1.4139439 -0.79351473 8.9350097e-39
0.38017535 1.4177238 -0.79924756 1.0684562e-38
0.37820414 1.4117783 -0.80078012 1.0593091e-38
0.37346396 1.4127587 -0.80279374 1.0776041e-38
0.36776838 1.4164498 -0.80493814 9.2119609e-39
0.3567659 1.4211531 -0.8093462 8.5687523e-39
0.35312814 1.4160186 -0.8115356 9.7654907e-39
0.35245067 1.4168724 -0.81174529 1.1699084e-38
0.34839952 1.4187964 -0.81334734 9.8576849e-39
0.34335989 1.4169011 -0.81580955 1.0133194e-38
0.34383702 1.4246371 -0.8147496 9.9484428e-39
0.33937961 1.4229503 -0.81692851 1.0042079e-38
0.32935843 1.4210098 -0.82162452 1.0317946e-38
0.3223227 1.4239042 -0.82445568 9.3981473e-39
0.31825683 1.424553 -0.82620376 1.0503057e-38
0.31420431 1.4225634 -0.82823467 1.2068579e-38
0.31447083 1.4260635 -0.82773238 1.2159339e-38
0.3039887 1.4327743 -0.83168805 1.2066781e-38
0.30150425 1.4295644 -0.83315086 1.2434847e-38
0.29695532 1.4269675 -0.83547026 1.0778562e-38
0.29275933 1.4288958 -0.83713663 1.2437005e-38
0.29223436 1.4367267 -0.83651465 1.2619958e-38
0.28653577 1.4380221 -0.8389225 1.0871482e-38
0.28347224 1.4306129 -0.84110397 1.262032e-38
0.27963221 1.4357519 -0.84225965 1.0410856e-38
0.27532873 1.4366186 -0.84409028 1.0319746e-38
0.26762891 1.4341676 -0.84780359 1.041194e-38
0.26287824 1.4341915 -0.84992641 1.0319745e-38
0.26295641 1.438383 -0.84943283 1.0688171e-38
0.47252363 1.3953902 -0.76037323 2.8573232e-39
0.46884352 1.3989244 -0.76163304 3.1317339e-39
0.25620782 1.4404781 -0.85222304 9.9509595e-39
0.24515453 1.4394634 -0.85727948 1.0136434e-38
0.2388479 1.4507768 -0.85886329 1.1240612e-38
0.23347789 1.4492986 -0.86142766 1.0136427e-38
0.22621308 1.4498897 -0.86461329 1.0319746e-38
0.22171456 1.4476577 -0.86687028 1.1610128e-38
0.21491574 1.4489019 -0.86977613 1.0504856e-38
0.4684298 1.3953944 -0.76220447 0
0.3708806 1.4155434 -0.80364484 6.541882e-39
0.25224552 1.4420102 -0.85382813 6.5458477e-39
0.22899973 1.4457116 -0.86382377 6.9149875e-39
0.4591552 1.3950106 -0.76639611 1.1241341e-38
0.41170338 1.4035577 -0.78669155 8.0148527e-39
0.33888459 1.415575 -0.81795692 1.0133916e-38
0.30802789 1.4239988 -0.83084106 1.0594893e-38
0.30389982 1.42507 -0.83257079 1.2068221e-38
0.30144602 1.4254822 -0.83362353 1.2160057e-38
0.27243587 1.4307003 -0.8460322 1.0503417e-38
0.25123349 1.4352397 -0.85502177 1.1332815e-38
0.23893811 1.4392396 -0.86008525 1.022899e-38
0.46881309 1.3898294 -0.76264179 3.7760271e-39
0.46369508 1.3910872 -0.76479417 5.5266847e-39
0.45702672 1.3938645 -0.7674737 1.022898e-38
0.45211262 1.3948222 -0.76956761 1.3542636e-38
0.44832373 1.3955098 -0.77118748 1.0780733e-38
0.44375539 1.3965541 -0.77311724 1.0688169e-38
0.43846431 1.3942633 -0.77573526 9.9495344e-39
0.43385383 1.3950448 -0.77771252 9.8573304e-39
0.424211 1.396077 -0.781914 8.7517045e-39
0.41699296 1.398742 -0.78485179 8.7506227e-39
0.41308349 1.3975096 -0.78673583 1.0317228e-38
0.40366825 1.4010968 -0.79055589 1.0132475e-38
0.39964157 1.4013101 -0.79233408 8.7509744e-39
0.35981891 1.409568 -0.80924785 1.1237738e-38
0.35668752 1.4074717 -0.81087828 1.1421783e-38
0.33184612 1.4143882 -0.82123595 9.4899842e-39
0.32272437 1.4130919 -0.825459 1.0410501e-38
0.3180109 1.4148231 -0.82737845 1.0319386e-38
0.3130573 1.4187903 -0.82916069 1.0594891e-38
0.28921098 1.4211707 -0.83956945 1.0135352e-38
0.28343859 1.4228717 -0.84196597 1.262068e-38
0.27674323 1.4245425 -0.84477872 1.0964753e-38
0.26725098 1.4254792 -0.84892333 1.0412301e-38
0.47134298 1.3968645 -0.7607401 2.7669255e-39
0.4718377 1.3910437 -0.76115578 2.7669255e-39
0.25578836 1.430761 -0.8534739 1.0135356e-38
0.25096673 1.433589 -0.85532182 1.0227548e-38
0.2329424 1.4404799 -0.86263216 1.0136426e-38
0.22180986 1.4420134 -0.86744529 1.151721e-38
0.21167222 1.4447286 -0.87168396 1.0781806e-38
0.20099744 1.444232 -0.87651432 1.0872916e-38
0.19580522 1.4481215 -0.87841171 1.078072e-38
0.24209362 1.4336251 -0.8592878 6.8227919e-39
0.45265284 1.3903382 -0.76981652 1.0872919e-38
0.4846853 1.4783536 -0.74585426 1.0409083e-38
0.4664858 1.4840508 -0.75337362 9.7665725e-39
0.49270582 1.4911276 -0.74086797 2.7644045e-39
0.48600864 1.476855 -0.74542618 3.5923701e-39
0.48689333 1.4875315 -0.74386209 6.0805409e-39
0.4874168 1.4857774 -0.74381977 8.0156122e-39
0.48163104 1.4821978 -0.74680012 1.1609755e-38
0.48233512 1.4866589 -0.74599695 1.1332074e-38
0.47725347 1.4875405 -0.74817419 1.1331726e-38
0.47076362 1.4794996 -0.7519576 1.1239177e-38
0.47157791 1.4901885 -0.75042373 1.1607237e-38
0.46647272 1.4910741 -0.75261098 1.1699432e-38
0.46788746 1.5000378 -0.75099725 1.1238824e-38
0.45983425 1.4837136 -0.75638652 9.6747243e-39
0.46136752 1.4919598 -0.75479811 1.179163e-38
0.46278226 1.5009234 -0.75318444 1.133102e-38
0.45626238 1.4928454 -0.75698543 1.179163e-38
0.45056978 1.4943656 -0.7593661 9.6740125e-39
0.44475025 1.4872133 -0.76275241 9.7665697e-39
0.44571292 1.4950056 -0.76146907 9.5821714e-39
0.43985409 1.4975848 -0.76380825 9.674374e-39
0.44084629 1.5049177 -0.76256198 9.5821714e-39
0.43436217 1.5025606 -0.76572096 9.9495246e-39
0.4285281 1.4953892 -0.76911587 9.7669312e-39
0.4294576 1.505703 -0.76757151 9.7658494e-39
0.43039763 1.5135261 -0.76629496 9.4899814e-39
0.42366853 1.4976987 -0.77103746 1.0041717e-38
0.42453763 1.5088603 -0.7694273 9.6740083e-39
0.42545554 1.5196443 -0.76783663 9.7647676e-39
0.41875076 1.5012978 -0.77284384 9.4910604e-39
0.41959846 1.5124552 -0.77124381 9.3988647e-39
0.41464046 1.5160675 -0.77306682 9.3981501e-39
0.41563264 1.5205225 -0.77213544 9.4906988e-39
0.40829623 1.5035814 -0.77727157 8.9368216e-39
0.40900999 1.5202385 -0.77512962 9.3059544e-39
0.40157974 1.5076813 -0.77982801 9.7644173e-39
0.4021354 1.5067697 -0.77967912 8.4754805e-39
0.40295273 1.5197512 -0.77789307 8.7524303e-39
0.39638406 1.5085826 -0.78205401 9.8562429e-39
0.39799151 1.5204024 -0.78004152 8.4761966e-39
0.39256814 1.5134091 -0.78323328 8.4754735e-39
0.38754565 1.5166162 -0.78512949 8.4754735e-39
0.38845506 1.5241125 -0.78390229 8.6609396e-39
0.38264656 1.5169818 -0.78728139 8.3836352e-39
0.38349792 1.524752 -0.78605032 8.7520562e-39
0.3785421 1.52539 -0.78819776 8.6598648e-39
0.37346235 1.529078 -0.79006702 9.213756e-39
0.36842909 1.5178049 -0.79355252 9.1215618e-39
0.36350057 1.51846 -0.79568583 9.2130385e-39
0.3641127 1.5294636 -0.79420799 9.3974284e-39
0.35775504 1.5374199 -0.79618198 9.7662095e-39
0.35250273 1.5349395 -0.79880333 1.1514688e-38
0.34839237 1.5324786 -0.80091172 9.3981515e-39
0.34675354 1.5429429 -0.80049986 1.0042792e-38
0.34307206 1.5388989 -0.80258954 9.8584079e-39
0.33783895 1.5253764 -0.80641055 9.6750999e-39
0.32965052 1.5212834 -0.81052208 9.3970683e-39
0.33018011 1.5320925 -0.80910236 9.6740167e-39
0.33116743 1.5366766 -0.80815911 9.7662123e-39
0.32440162 1.5250909 -0.81245387 9.4892639e-39
0.32495216 1.5358636 -0.81102878 9.6736594e-39
0.32570794 1.5435841 -0.80984586 9.8584065e-39
0.31941187 1.5428282 -0.81274551 9.5814637e-39
0.32074007 1.544189 -0.81200248 9.6743656e-39
0.31465232 1.5403244 -0.81514907 9.6750985e-39
0.31543088 1.5480232 -0.81395823 1.0042079e-38
0.30817676 1.5310166 -0.8190648 9.7654935e-39
0.30893424 1.5387064 -0.81788445 9.950605e-39
0.30942386 1.549589 -0.81647462 1.0226829e-38
0.30317998 1.5316195 -0.82123446 9.9506008e-39
0.30226803 1.5537812 -0.81921756 1.1885993e-38
0.304378 1.5448276 -0.81925321 1.1886345e-38
0.3051011 1.5494094 -0.81842828 1.2252972e-38
0.29788098 1.535392 -0.82319248 9.7680088e-39
0.29699868 1.5546952 -0.82147515 1.2069657e-38
0.2990593 1.5545386 -0.82057035 1.0502693e-38
0.29192933 1.5455427 -0.8247447 1.0043157e-38
0.29252252 1.5483812 -0.82416874 1.1978545e-38
0.28652769 1.5406905 -0.82769245 1.0227192e-38
0.28684437 1.5520073 -0.82631248 1.013607e-38
0.28792775 1.5566858 -0.82531583 1.0319382e-38
0.28115615 1.5445086 -0.829678 1.0319385e-38
0.28179288 1.5526271 -0.82850474 1.0320106e-38
0.27568769 1.5486664 -0.83166969 1.0503417e-38
0.27674273 1.5532453 -0.83069664 1.0687451e-38
0.27063787 1.5492831 -0.83386165 1.059561e-38
0.27127752 1.5575522 -0.83267057 1.0871478e-38
0.26405478 1.5542998 -0.83625805 1.068745e-38
0.25770655 1.5691253 -0.83747613 1.3080932e-38
0.2419326 1.5609049 -0.84543312 1.2990536e-38
0.32901013 1.6168329 -0.80035371 1.1791276e-38
0.32366699 1.6177597 -0.80264294 1.1791279e-38
0.31758353 1.6139958 -0.80577654 1.1978542e-38
0.31775621 1.625201 -0.80447334 1.206966e-38
0.30584982 1.6197473 -0.81039715 9.9516826e-39
0.30627927 1.6223518 -0.80992001 1.1977105e-38
0.30036414 1.6240984 -0.81237549 9.9516812e-39
0.30091268 1.6232828 -0.81221926 1.1516487e-38
0.29260737 1.640825 -0.81401575 1.197709e-38
0.29478624 1.6316538 -0.81404436 1.1607572e-38
0.29282337 1.6460533 -0.81334704 1.0134276e-38
0.28968516 1.6192124 -0.81768799 1.0320455e-38
0.28870463 1.6391035 -0.81595027 1.2162222e-38
0.28945521 1.6438591 -0.81509411 1.2252969e-38
0.2825371 1.6352879 -0.8191272 1.2069657e-38
0.28328764 1.6400434 -0.81827104 1.1977105e-38
0.28457406 1.6509693 -0.81650001 1.022683e-38
0.27901286 1.624331 -0.82190287 1.0502693e-38
0.279015 1.6393135 -0.82026255 1.022719e-38
0.27893513 1.6552927 -0.81854993 1.0043874e-38
0.2731598 1.6172782 -0.82529336 1.0503777e-38
0.2717033 1.6371673 -0.82376873 1.2254771e-38
0.27341557 1.6437593 -0.82228136 1.031938e-38
0.27377093 1.6556399 -0.82082254 1.0227186e-38
0.26461434 1.6240202 -0.82837903 1.0779638e-38
0.26570585 1.6287386 -0.82737434 1.0595607e-38
0.26679745 1.6334575 -0.82636964 1.0319376e-38
0.26747307 1.6419908 -0.82513368 1.0042787e-38
0.26856825 1.6467217 -0.82412606 1.0226833e-38
0.25831792 1.6199355 -0.8316431 1.0964746e-38
0.25941029 1.6246544 -0.83063799 1.0780356e-38
0.26006576 1.6331744 -0.82941252 1.0688525e-38
0.25994518 1.6464913 -0.82800931 1.2437721e-38
0.26225787 1.6426356 -0.82739651 1.0503049e-38
0.26292777 1.6512038 -0.8261593 9.9520385e-39
0.25265586 1.6243565 -0.83369273 1.0871838e-38
0.25395149 1.6304755 -0.83244342 1.2805074e-38
0.2548497 1.6338178 -0.83167583 1.0411575e-38
0.25549924 1.6423725 -0.83044916 1.0134986e-38
0.2565873 1.6468774 -0.82946944 1.0134985e-38
0.25600994 1.6569935 -0.82862091 1.1609384e-38
0.24703352 1.6219044 -0.83647645 1.2714658e-38
0.24622029 1.6263374 -0.83635533 1.0687803e-38
0.24732292 1.63108 -0.835343 1.0595602e-38
0.24883652 1.6327126 -0.83448714 1.0594881e-38
0.2495283 1.6405652 -0.83331847 1.0227175e-38
0.24981199 1.6531589 -0.83181357 1.1884191e-38
0.25024825 1.6710677 -0.82965881 1.0227546e-38
0.24098924 1.6269815 -0.83862531 1.0779278e-38
0.24160989 1.6352593 -0.83744192 1.0778925e-38
0.24319631 1.6364665 -0.83659995 1.0871475e-38
0.24382068 1.6447664 -0.83541244 1.0319383e-38
0.24436826 1.6541034 -0.83414584 1.225332e-38
0.24330439 1.6759913 -0.83222693 1.0503049e-38
0.23590751 1.6359317 -0.83991963 1.2714307e-38
0.23666175 1.6407106 -0.83905923 1.271573e-38
0.23796803 1.6371086 -0.83886892 1.0688876e-38
0.23809116 1.6489508 -0.8375181 1.0411942e-38
0.23699711 1.6690851 -0.83580452 1.2070007e-38
0.23673406 1.6814185 -0.83457267 1.1884191e-38
0.23207994 1.6233258 -0.84301144 1.1425374e-38
0.23121808 1.6416551 -0.84139144 1.2623181e-38
0.23091018 1.6538782 -0.84019178 1.2437721e-38
0.23272663 1.651213 -0.83967072 1.2068941e-38
0.23348092 1.655992 -0.83881038 1.1700879e-38
0.23423521 1.660771 -0.83795005 1.1700879e-38
0.225366 1.6256632 -0.84575963 1.2623911e-38
0.22502002 1.6378205 -0.84458417 1.2807574e-38
0.2257743 1.6425993 -0.84372377 1.2623181e-38
0.22418171 1.6543843 -0.8431468 1.050377e-38
0.22619756 1.6596298 -0.84167099 1.2069644e-38
0.22879137 1.6617155 -0.84028226 1.1609036e-38
0.2199105 1.641387 -0.84648007 1.0872554e-38
0.22103117 1.646176 -0.84545463 1.0688162e-38
0.21834041 1.6589286 -0.84526318 1.0134632e-38
0.22148494 1.6653813 -0.84315014 1.1606884e-38
0.22127642 1.6767676 -0.84199768 1.1331373e-38
0.21405633 1.6337856 -0.849931 1.0688166e-38
0.21463685 1.6420388 -0.84876823 1.0320461e-38
0.21520625 1.6507026 -0.84756541 1.0503416e-38
0.21249746 1.6630962 -0.84742135 1.0042435e-38
0.21311535 1.6841439 -0.8448419 9.5825385e-39
0.20879361 1.6465621 -0.85088766 1.0411576e-38
0.20991985 1.6513637 -0.8498584 1.0227542e-38
0.20670155 1.6668106 -0.84960812 9.7665514e-39
0.20407492 1.6554933 -0.85202169 9.4914219e-39
0.20050323 1.6776043 -0.85120034 9.3959767e-39
0.19780149 1.6425422 -0.85624558 1.133102e-38
0.19853687 1.6622924 -0.85375547 9.1193926e-39
0.1977779 1.6709337 -0.85314953 1.0040942e-38
0.19185843 1.6557189 -0.85746282 1.0593089e-38
0.1926164 1.6605215 -0.85659826 7.7318577e-39
0.19337437 1.6653241 -0.85573357 4.0480178e-39
0.18755122 1.677663 -0.85698885 1.1996012e-39
0.28511375 1.6373447 -0.81774938 8.3854289e-39
0.26334146 1.6723638 -0.82365888 8.4772686e-39
0.25680229 1.6679685 -0.82706559 8.0191673e-39
0.25824109 1.6727427 -0.82589942 8.4772686e-39
0.2485017 1.6783768 -0.82964051 8.8449805e-39
0.23674916 1.6743218 -0.83534253 8.6613095e-39
0.23820189 1.6791424 -0.83416504 8.5694642e-39
0.47156683 1.5688063 -0.74182653 1.0961881e-38
0.46619117 1.5633651 -0.74482703 1.0778922e-38
0.46765143 1.5726171 -0.74316138 1.105443e-38
0.4609811 1.5706426 -0.74636185 1.0778915e-38
0.461777 1.581673 -0.74479872 1.0594171e-38
0.45565239 1.5651933 -0.7493422 1.105512e-38
0.45642164 1.5762074 -0.74779296 1.0594177e-38
0.45038307 1.5661075 -0.75159979 1.1425005e-38
0.45112881 1.5771255 -0.7500605 1.1331373e-38
0.45184329 1.5753596 -0.74993414 1.0963311e-38
0.44511357 1.5670217 -0.75385743 1.1240989e-38
0.44583592 1.5780438 -0.75232828 1.1425005e-38
0.44657379 1.5762737 -0.75219178 1.1331726e-38
0.43984416 1.5679358 -0.75611496 1.114878e-38
0.44057426 1.5725617 -0.75528216 1.105443e-38
0.44130442 1.5771878 -0.75444931 1.0869316e-38
0.43304998 1.5659404 -0.75937313 1.1331373e-38
0.43378335 1.570587 -0.75853658 1.1054433e-38
0.43451673 1.5752336 -0.75770009 1.0685653e-38
0.43525016 1.5798802 -0.75686353 1.050054e-38
0.42775711 1.5668586 -0.76164073 1.0778922e-38
0.42849049 1.5715053 -0.76080424 1.0593455e-38
