# .PCD v0.7 - Point Cloud Data file format
VERSION 0.7
FIELDS x y z rgb
SIZE 4 4 4 4
TYPE F F F F
COUNT 1 1 1 1
WIDTH 1050
HEIGHT 1
VIEWPOINT 0 0 0 1 0 0 0
POINTS 1050
DATA ascii
1.6945901 -0.4008655 2.3939247 7.4386752e-39
1.6815268 -0.36555752 2.4029522 7.7141817e-39
1.6782609 -0.35673055 2.4052091 7.7141817e-39
1.6749949 -0.34790352 2.4074659 7.8060172e-39
1.6894971 -0.33747748 2.4190052 7.8060172e-39
1.6862051 -0.32857952 2.4212799 7.4386752e-39
1.6651975 -0.32142258 2.4142363 7.8978527e-39
1.6619316 -0.31259561 2.4164932 7.6223462e-39
1.676329 -0.30188623 2.4281046 7.8060172e-39
1.6730369 -0.29298845 2.4303796 7.8060172e-39
1.669745 -0.28409061 2.4326546 7.8060172e-39
1.6664528 -0.27519286 2.4349296 7.6223462e-39
1.6631607 -0.26629511 2.4372046 7.7141817e-39
1.6598687 -0.2573972 2.4394794 7.6223462e-39
1.6565768 -0.24849945 2.4417543 7.6223462e-39
1.6532848 -0.2396016 2.4440293 7.8060172e-39
1.6499926 -0.23070392 2.4463043 8.0815237e-39
1.6467006 -0.22180603 2.4485793 7.2550042e-39
1.6260073 -0.21549855 2.4413183 7.6223462e-39
1.6227416 -0.20667149 2.4435751 7.8060172e-39
1.6368246 -0.19511256 2.4554038 7.8978527e-39
1.6335325 -0.18621491 2.4576788 7.8978527e-39
1.6302404 -0.1773171 2.4599538 7.8060172e-39
1.6433961 -0.16561513 2.4713967 7.7141817e-39
1.6236564 -0.15952136 2.4645038 7.8060172e-39
1.6334451 -0.13871935 2.4782734 7.8060172e-39
1.6301281 -0.12975404 2.4805653 7.8060172e-39
1.6268113 -0.12078881 2.4828575 7.8978527e-39
1.6234943 -0.11182367 2.4851496 7.4386752e-39
1.6201774 -0.10285844 2.4874418 7.8060172e-39
1.6168604 -0.093893155 2.4897339 7.8060172e-39
1.4968504 0.28009522 2.5942264 7.4386752e-39
1.4801345 0.32527545 2.6057777 7.4386752e-39
1.8294153 -0.9450044 2.2226639 7.0068483e-39
1.8262455 -0.93643707 2.2248542 7.0075685e-39
1.8230758 -0.92786968 2.2270446 7.0068483e-39
1.819906 -0.9193024 2.2292352 7.1004704e-39
1.8343832 -0.91351891 2.2387452 6.8253226e-39
1.8311899 -0.90488738 2.240952 6.641646e-39
1.8262929 -0.8467387 2.2638505 4.6097815e-39
1.8230759 -0.83804315 2.2660737 4.6987149e-39
1.8198587 -0.82934767 2.268297 4.1458704e-39
1.7951369 -0.71761644 2.3048949 5.1427878e-39
1.7608856 -0.57776403 2.3491054 7.2550042e-39
1.7576197 -0.56893712 2.3513622 7.3468397e-39
1.7543539 -0.56011015 2.3536191 7.2550042e-39
1.751088 -0.55128306 2.355876 7.4386752e-39
1.747822 -0.54245609 2.3581328 7.1631687e-39
1.7445563 -0.53362912 2.3603897 7.1631687e-39
1.7412905 -0.52480209 2.3626466 7.1631687e-39
1.7380247 -0.51597518 2.3649032 7.0713332e-39
1.7216953 -0.47183999 2.3761876 7.4386752e-39
1.7184296 -0.46301299 2.3784442 7.4386752e-39
1.7151638 -0.45418602 2.3807011 7.4386752e-39
1.7299881 -0.44461253 2.3920257 7.4386752e-39
1.7201121 -0.41791907 2.3988502 7.4386752e-39
1.6988345 -0.41005096 2.3919852 7.8060172e-39
1.7135279 -0.40012342 2.4034004 7.3468397e-39
1.7102357 -0.3912257 2.4056752 7.5305107e-39
1.6970677 -0.35563463 2.4147749 7.7141817e-39
1.6937757 -0.34673673 2.4170499 7.8060172e-39
1.690828 -0.29149255 2.4396284 7.8060172e-39
1.687511 -0.28252733 2.4419205 7.8060172e-39
1.684194 -0.27356207 2.4442127 7.4386752e-39
1.680877 -0.26459679 2.4465051 7.8978527e-39
1.67756 -0.25563163 2.4487972 8.0815237e-39
1.6742431 -0.24666636 2.4510891 7.6223462e-39
1.670926 -0.23770112 2.4533815 7.8060172e-39
1.667609 -0.22873594 2.4556737 7.6223462e-39
1.6642921 -0.2197707 2.4579656 7.8060172e-39
1.6609751 -0.21080536 2.460258 7.8060172e-39
1.6477072 -0.17494445 2.4694266 7.8060172e-39
1.6443902 -0.16597913 2.4717188 7.7141817e-39
1.6410732 -0.15701394 2.4740109 8.0815237e-39
1.6516385 -0.13592961 2.4882784 7.8060172e-39
1.6482954 -0.12689349 2.4905887 7.8060172e-39
1.6449521 -0.1178575 2.4928989 8.0815237e-39
1.6416091 -0.10882154 2.4952092 7.8978527e-39
1.6382658 -0.099785477 2.4975195 7.8978527e-39
1.6349226 -0.09074939 2.4998298 7.8060172e-39
1.6315794 -0.081713356 2.50214 7.9896882e-39
1.6282362 -0.072677277 2.5044503 7.8060172e-39
1.6248932 -0.063641228 2.5067606 7.8060172e-39
1.62155 -0.05460522 2.5090709 8.0815237e-39
1.6081773 -0.018461017 2.518312 7.8060172e-39
1.490261 0.34988695 2.6213658 7.1631687e-39
1.4868917 0.3589938 2.6236942 7.4386752e-39
1.8353404 -0.91386938 2.2390554 7.1912465e-39
1.8321469 -0.90523803 2.2412622 7.0068623e-39
1.8433431 -0.89056933 2.253047 7.3752776e-39
1.8544441 -0.87564462 2.2648969 7.2841582e-39
1.827257 -0.84709185 2.264163 7.2848617e-39
1.8240399 -0.83839637 2.2663863 7.6522205e-39
1.8208227 -0.82970089 2.2686093 7.1919654e-39
1.8043202 -0.69287372 2.3200839 4.2244384e-39
1.7606031 -0.5250541 2.371871 6.5203202e-39
1.7408507 -0.47166738 2.3855207 7.1631687e-39
1.7375587 -0.46276948 2.3877954 7.3468397e-39
1.7342666 -0.45387179 2.3900704 7.3468397e-39
1.7283087 -0.39047429 2.4147367 7.7141817e-39
1.7117238 -0.34564808 2.4261975 7.6223462e-39
1.6894155 -0.23569308 2.4631901 7.8060172e-39
1.6860722 -0.22665702 2.4655004 7.8060172e-39
1.682729 -0.21762098 2.4678106 7.8060172e-39
1.6793859 -0.20858493 2.4701209 7.8060172e-39
1.6726996 -0.19051284 2.4747415 7.7141817e-39
1.6693563 -0.18147683 2.4770517 7.6223462e-39
1.666013 -0.17244084 2.479362 8.1733592e-39
1.66267 -0.16340476 2.4816723 7.8060172e-39
1.6593268 -0.1543687 2.4839826 7.8060172e-39
1.6559836 -0.14533266 2.4862931 8.0815237e-39
1.6526403 -0.13629666 2.4886031 8.0815237e-39
1.6496315 -0.0785046 2.5122592 7.7141817e-39
1.6462622 -0.069397628 2.5145874 7.8060172e-39
1.6428926 -0.060290817 2.516916 7.8978527e-39
1.6395234 -0.051183954 2.5192442 7.8978527e-39
1.6361539 -0.042077146 2.5215726 7.8978527e-39
1.6327846 -0.032970246 2.5239012 8.0815237e-39
1.6294152 -0.023863411 2.5262294 8.1733592e-39
1.6260458 -0.014756602 2.528558 7.8060172e-39
1.6159376 0.012563969 2.535543 8.0815237e-39
1.8507415 -0.90831351 2.248913 7.3752776e-39
1.8475244 -0.89961815 2.2511363 7.3749245e-39
1.8443072 -0.89092255 2.2533596 7.3749245e-39
1.84109 -0.88222706 2.2555826 7.4671201e-39
1.8378726 -0.87353152 2.2578058 7.4674733e-39
1.8346556 -0.86483604 2.2600291 7.8344579e-39
1.8282211 -0.84744501 2.2644756 7.5596689e-39
1.825004 -0.83874953 2.2666988 7.8348139e-39
1.8262473 -0.79716432 2.285368 7.5596661e-39
1.8230064 -0.78840464 2.2876079 7.7444175e-39
1.7624727 -0.48049074 2.3921371 6.5203202e-39
1.7392539 -0.41773403 2.4081824 7.5305107e-39
1.7359368 -0.4087688 2.4104745 7.7141817e-39
1.7004468 -0.26316816 2.456584 8.0815237e-39
1.6670151 -0.17280783 2.4796867 8.0815237e-39
1.6636719 -0.1637717 2.481997 7.6223462e-39
1.6775963 -0.15172906 2.4939592 7.8060172e-39
1.6742269 -0.14262232 2.4962878 8.4488656e-39
1.6708574 -0.13351539 2.4986162 7.8060172e-39
1.6641186 -0.11530184 2.503273 7.8060172e-39
1.6607494 -0.1061949 2.5056012 8.0815237e-39
1.65738 -0.097088121 2.5079298 7.8978527e-39
1.6540105 -0.087981194 2.510258 8.0815237e-39
1.6073685 0.090126999 2.5651019 7.8978527e-39
1.6039717 0.099308051 2.5674491 7.8060172e-39
1.6005749 0.1084891 2.5697966 7.8060172e-39
1.6034168 0.15048553 2.5894175 7.8060172e-39
1.5999938 0.1597373 2.5917828 7.7141817e-39
1.5965707 0.16898917 2.5941482 7.6223462e-39
1.8531457 -0.86759651 2.2677662 8.0188562e-39
1.8401822 -0.83255821 2.2767246 7.6518645e-39
1.8415848 -0.73932427 2.3179121 8.0217232e-39
1.8284168 -0.70373291 2.3270118 8.0210198e-39
1.8251247 -0.69483519 2.3292868 7.8366285e-39
1.7224078 -0.27048802 2.4640179 8.0815237e-39
1.7190385 -0.26138118 2.4663463 8.0815237e-39
1.715669 -0.25227436 2.4686744 8.0815237e-39
1.7122998 -0.24316756 2.4710028 7.8978527e-39
1.7089303 -0.23406079 2.4733315 7.8978527e-39
1.6920834 -0.18852647 2.4849732 7.8978527e-39
1.688714 -0.17941967 2.4873016 7.8978527e-39
1.6853447 -0.17031275 2.48963 8.0815237e-39
1.6819752 -0.16120602 2.4919584 7.8060172e-39
1.6786059 -0.15209912 2.4942868 7.8978527e-39
1.6491481 -0.020418169 2.5372639 7.6223462e-39
1.6318268 0.076095097 2.5708263 7.8060172e-39
1.6284038 0.085346833 2.5731916 8.0815237e-39
1.6249807 0.094598733 2.575557 7.4386752e-39
1.6215577 0.10385051 2.5779226 7.6223462e-39
1.6181346 0.11310254 2.5802879 7.7141817e-39
1.6147116 0.12235428 2.5826535 7.8060172e-39
1.5982831 0.22118665 2.6176553 7.8060172e-39
1.5948313 0.2305159 2.6200404 7.5305107e-39
1.8425715 -0.73968565 2.3182321 8.2050383e-39
1.8392794 -0.73078787 2.3205068 8.2968808e-39
1.8507022 -0.71431524 2.333185 8.2979542e-39
1.8294033 -0.70409441 2.3273318 8.2972339e-39
1.8407514 -0.68741953 2.3400614 8.4827042e-39
1.7860301 -0.48980325 2.3994768 5.2346233e-39
1.7826868 -0.48076722 2.401787 5.3268175e-39
1.7793436 -0.47173113 2.4040971 5.4193705e-39
1.7113088 -0.18604945 2.4953415 8.0815237e-39
1.7079122 -0.17686832 2.4976888 7.7141817e-39
1.7045152 -0.16768739 2.5000362 8.1733592e-39
1.7011185 -0.15850635 2.5023835 7.9896882e-39
1.6372863 0.11818457 2.5917525 7.8060172e-39
1.6338346 0.12751396 2.5941379 7.7141817e-39
1.6303829 0.1368434 2.596523 7.8060172e-39
1.6269311 0.14617266 2.5989084 7.7141817e-39
1.6234795 0.15550208 2.6012936 7.8060172e-39
1.6200277 0.1648314 2.6036789 7.7141817e-39
1.6165761 0.17416082 2.6060641 7.8060172e-39
1.6131243 0.18349023 2.6084495 7.8060172e-39
1.6096725 0.19281961 2.6108348 7.8060172e-39
1.606221 0.20214896 2.61322 8.1733592e-39
1.6027691 0.21147834 2.6156054 7.8978527e-39
1.5954783 0.28326559 2.6432724 7.8978527e-39
1.5919992 0.29266909 2.6456769 7.5305107e-39
1.8435581 -0.74004704 2.3185518 8.2046852e-39
1.8417453 -0.68778372 2.3403838 8.3898023e-39
1.8338364 -0.61667484 2.3674576 8.9433236e-39
1.6624825 0.052499872 2.5753908 7.8978527e-39
1.6590309 0.06182934 2.5777762 8.1733592e-39
1.6555792 0.071158715 2.5801613 7.8978527e-39
1.6521275 0.080488048 2.5825465 8.0815237e-39
1.6486757 0.089817502 2.5849319 8.0815237e-39
1.645224 0.099146873 2.5873172 7.8060172e-39
1.6417724 0.10847625 2.5897024 7.6223462e-39
1.6347916 0.17944461 2.6171637 7.3468397e-39
1.6313125 0.18884805 2.6195679 7.8060172e-39
1.6278332 0.19825161 2.6219723 7.8060172e-39
1.624354 0.2076551 2.6243765 8.0815237e-39
1.620875 0.21705873 2.6267805 7.7141817e-39
1.6173958 0.22646232 2.6291852 7.8978527e-39
1.6104375 0.2452693 2.6339934 7.7141817e-39
1.6069584 0.2546728 2.6363978 7.8060172e-39
1.6034791 0.26407641 2.6388021 7.4386752e-39
1.6000001 0.27348009 2.641206 7.4386752e-39
1.5965209 0.28288361 2.6436105 7.8978527e-39
1.5895625 0.30169073 2.6484189 7.7141817e-39
1.5861048 0.3655054 2.6744747 7.4386752e-39
1.8548974 -0.67125809 2.3539207 9.3092419e-39
1.8515542 -0.66222221 2.3562307 8.9426202e-39
1.8501039 -0.60855108 2.3788495 9.0355249e-39
1.8467346 -0.59944421 2.3811779 8.576346e-39
1.8332571 -0.56301683 2.3904915 3.3197433e-39
1.8029326 -0.48105508 2.411447 2.390234e-39
1.7995633 -0.47194824 2.4137752 2.5735463e-39
1.6741048 0.07562343 2.5910552 7.8060172e-39
1.6706258 0.085027069 2.5934591 8.0815237e-39
1.6671466 0.094430551 2.5958636 7.9896882e-39
1.6636673 0.10383406 2.5982678 8.0815237e-39
1.6601883 0.11323769 2.600672 8.0815237e-39
1.6292502 0.25134701 2.6457267 7.8978527e-39
1.6257423 0.26082814 2.6481507 7.8060172e-39
1.6187266 0.27979046 2.6529989 7.4386752e-39
1.8443749 -0.59070736 2.3838336 8.2032404e-39
1.8342668 -0.5633868 2.3908188 7.287398e-39
1.8320677 -0.45313796 2.4376583 4.414561e-39
1.8536316 -0.50902462 2.4237981 3.3125463e-39
1.8644018 -0.48116896 2.4411066 3.4054608e-39
1.670519 -0.92286634 2.1554852 5.6938008e-39
1.6675487 -0.91483849 2.1575377 5.7856363e-39
1.6684388 -0.91516453 2.1578262 5.3264588e-39
1.6731614 -0.88584167 2.1728494 5.7856363e-39
1.6701699 -0.87775648 2.1749165 6.1529782e-39
1.6671785 -0.86967123 2.1769836 6.0611427e-39
1.6641871 -0.86158597 2.1790509 5.6019653e-39
1.6677865 -0.83130682 2.1939466 6.1529782e-39
1.6710664 -0.87808496 2.1752069 5.6019653e-39
1.6656767 -0.82349497 2.196321 6.3366492e-39
1.6626642 -0.81535244 2.1984029 6.3366492e-39
1.6569561 -0.75990272 2.2197366 6.5203202e-39
1.6539223 -0.75170279 2.2218332 6.6121557e-39
1.6487908 -0.6954574 2.2437913 6.7039912e-39
1.652763 -0.70405352 2.241976 6.8876622e-39
1.6497067 -0.69579297 2.2440882 7.0713332e-39
1.6473809 -0.64731538 2.2640274 7.1631687e-39
1.6443037 -0.63899773 2.2661538 6.7039912e-39
1.6452258 -0.63933539 2.2664528 6.7039912e-39
1.6394948 -0.58142179 2.288846 6.7961854e-39
1.6365718 -0.53109753 2.3092988 7.2550042e-39
1.4827877 0.021131039 2.4749117 7.4386752e-39
1.5020066 0.016235307 2.4820733 7.4386752e-39
1.5029708 0.015882105 2.4823859 7.8060172e-39
1.6226764 -0.0056497357 2.5308862 7.4386752e-39
1.6447334 -0.010864128 2.5392811 7.8060172e-39
1.6236861 -0.0060196132 2.5312135 8.1733592e-39
1.6457514 -0.011237044 2.5396111 7.8060172e-39
1.6298358 -0.46370611 2.3353243 7.1631687e-39
1.6249694 -0.40351948 2.359123 7.5305107e-39
1.6220217 -0.3507221 2.3806381 7.4386752e-39
1.6187896 -0.29715592 2.4023502 7.8060172e-39
1.6162442 -0.24317689 2.4245734 7.4386752e-39
1.6130031 -0.23441733 2.4268131 7.3468397e-39
1.6097623 -0.22565784 2.4290526 7.4386752e-39
1.6172152 -0.24353275 2.4248884 7.4386752e-39
1.6139743 -0.23477307 2.4271278 7.5305107e-39
1.6107335 -0.22601357 2.4293675 7.4386752e-39
1.607721 -0.17064659 2.451968 7.5305107e-39
1.6152312 -0.18865912 2.4477715 7.6223462e-39
1.6119654 -0.17983219 2.4500284 7.6223462e-39
1.6086996 -0.17100504 2.4522853 7.8060172e-39
1.6054336 -0.16217813 2.4545422 7.8060172e-39
1.6029177 -0.10577322 2.4778335 7.8060172e-39
1.5996257 -0.09687537 2.4801085 7.8060172e-39
1.6092323 -0.075598545 2.4939961 7.7141817e-39
1.6059153 -0.066633239 2.4962883 7.8060172e-39
1.604834 -0.00942514 2.5206223 7.6223462e-39
1.592352 0.076311678 2.5518417 7.8060172e-39
1.5889827 0.085418679 2.5541699 7.6223462e-39
1.5856133 0.094525456 2.5564983 7.6223462e-39
1.582244 0.10363241 2.5588267 7.6223462e-39
1.5859696 0.14558609 2.578856 7.4386752e-39
1.5825728 0.15476723 2.5812032 7.7141817e-39
1.597178 0.11767011 2.5721438 7.8060172e-39
1.5767971 0.17275631 2.5862279 7.4386752e-39
1.5794556 0.21524827 2.6059754 7.7141817e-39
1.5760328 0.22449997 2.6083407 7.7141817e-39
1.5726097 0.23375182 2.6107063 7.7141817e-39
1.5941736 0.17786518 2.5968461 7.8060172e-39
1.5907506 0.18711711 2.5992115 7.7141817e-39
1.5873275 0.1963689 2.601577 7.8978527e-39
1.5839045 0.20562075 2.6039424 7.6223462e-39
1.5913798 0.23984529 2.6224258 7.5305107e-39
1.5879279 0.24917459 2.6248109 7.5305107e-39
1.5844762 0.25850412 2.6271963 7.5305107e-39
1.5810244 0.26783341 2.6295817 7.5305107e-39
1.5775728 0.27716285 2.6319668 7.7141817e-39
1.5741211 0.28649226 2.634352 7.5305107e-39
1.5706693 0.29582164 2.6367376 7.8060172e-39
1.5672177 0.30515102 2.6391227 7.5305107e-39
1.5596442 0.37768289 2.6669767 7.4386752e-39
1.582059 0.26745462 2.6299169 7.5305107e-39
1.5717037 0.29544267 2.6370728 7.5305107e-39
1.5682521 0.30477205 2.6394579 7.5305107e-39
1.5648003 0.31410149 2.6418433 7.5305107e-39
1.5746033 0.33968687 2.6576979 7.4386752e-39
1.5711242 0.3490904 2.6601021 7.4386752e-39
1.567645 0.35849392 2.6625066 7.4386752e-39
1.5860834 0.31109422 2.6508231 7.4386752e-39
1.5826043 0.32049781 2.6532273 7.4386752e-39
1.5791252 0.32990134 2.6556315 7.4386752e-39
1.5756459 0.33930492 2.6580358 7.4386752e-39
1.5721668 0.34870851 2.6604402 7.4386752e-39
1.5825969 0.37498659 2.6768987 7.6223462e-39
1.5615498 0.43187317 2.6914432 7.3468397e-39
1.5545342 0.45083535 2.6962914 7.3468397e-39
1.5504738 0.51627868 2.7227635 7.0713332e-39
1.5469372 0.52583724 2.7252076 6.8876622e-39
1.5586066 0.49677309 2.7182193 7.0713332e-39
1.5550702 0.50633174 2.7206633 7.4386752e-39
1.5515336 0.51589048 2.7231073 7.3468397e-39
1.5479971 0.5254491 2.7255509 7.0713332e-39
1.4795943 0.029762417 2.4771183 7.7141817e-39
1.4987894 0.02493079 2.4842966 7.4386752e-39
1.4997536 0.024577631 2.4846091 7.4386752e-39
1.5157765 0.028369587 2.4940004 7.5305107e-39
1.619307 0.0034571029 2.5332146 7.8060172e-39
1.6203167 0.0030872123 2.5335419 7.8060172e-39
1.6423546 -0.0020560352 2.5419583 8.0815237e-39
1.6389577 0.0071250624 2.5443058 7.8978527e-39
1.4976295 0.072878905 2.5045691 7.7141817e-39
1.4943888 0.081638597 2.5068085 7.4386752e-39
1.4762691 0.085799344 2.4998589 7.7141817e-39
1.4986007 0.07252311 2.504884 7.7141817e-39
1.49536 0.081282802 2.5071235 7.5305107e-39
1.5125356 0.037129086 2.4962404 7.4386752e-39
1.6345429 0.016678942 2.5463231 8.0815237e-39
1.6243526 0.044221886 2.553365 7.8978527e-39
1.6355609 0.016306028 2.5466533 7.8060172e-39
1.6420958 0.048339609 2.5637298 7.8060172e-39
1.6659342 0.043170597 2.5730057 7.8978527e-39
1.5980812 0.058467973 2.5468576 7.8060172e-39
1.4891379 0.051017236 2.4909661 7.4386752e-39
1.4859208 0.059712764 2.4931893 7.4386752e-39
1.5018417 0.063763551 2.5026443 7.4386752e-39
1.6311462 0.025860025 2.5486705 7.8978527e-39
1.6277493 0.035040855 2.5510178 8.1733592e-39
1.6321641 0.02548708 2.5490005 7.8978527e-39
1.6728376 0.024511872 2.5682352 7.9896882e-39
1.669386 0.033841282 2.5706203 7.8978527e-39
1.5708814 -0.85375136 2.1373587 5.7856363e-39
1.5680109 -0.84599322 2.1393421 6.0611427e-39
1.5719969 -0.81720078 2.1537788 6.1529782e-39
1.5633259 -0.79376429 2.159771 6.3366492e-39
1.5902052 -0.86439067 2.1420755 5.6019653e-39
1.5786438 -0.83314216 2.1500649 6.0611427e-39
1.5757533 -0.82533002 2.1520624 6.1529782e-39
1.5767072 -0.78830045 2.1686125 6.3366492e-39
1.573797 -0.78043443 2.1706235 6.3366492e-39
1.5824561 -0.76625407 2.1809697 6.4284847e-39
1.5795257 -0.75833392 2.1829948 6.6121557e-39
1.5765955 -0.75041407 2.1850195 6.6121557e-39
1.5707349 -0.73457396 2.1890695 6.6121557e-39
1.5560834 -0.69497377 2.1991944 6.7039912e-39
1.5833342 -0.76657581 2.1812544 6.4284847e-39
1.5712674 -0.6963641 2.2059288 6.7039912e-39
1.5683172 -0.68838996 2.2079675 6.7039912e-39
1.565367 -0.68041605 2.2100065 6.3366492e-39
1.5624167 -0.6724422 2.212045 6.4284847e-39
1.5594665 -0.66446805 2.2140839 6.7039912e-39
1.5565163 -0.65649426 2.2161226 6.5203202e-39
1.5535661 -0.64852017 2.2181613 6.7039912e-39
1.5627021 -0.63353533 2.2290876 7.1631687e-39
1.5567615 -0.61747944 2.2331927 6.7039912e-39
1.5537913 -0.60945147 2.2352452 6.7039912e-39
1.5508212 -0.60142356 2.2372978 6.7039912e-39
1.5597903 -0.58570284 2.2484632 6.7039912e-39
1.5538075 -0.56953239 2.2525976 6.5203202e-39
1.5725026 -0.65794516 2.2232184 6.7039912e-39
1.5695324 -0.64991724 2.2252712 6.3373667e-39
1.5696609 -0.61028707 2.2425523 6.7958267e-39
1.5666695 -0.6022017 2.2446194 6.7039912e-39
1.5636781 -0.59411645 2.2466867 6.7039912e-39
1.5606867 -0.58603126 2.2487538 7.1631687e-39
1.5576953 -0.57794601 2.2508211 6.7039912e-39
1.5547038 -0.56986082 2.2528882 6.7961854e-39
1.5517124 -0.56177568 2.2549555 6.7961854e-39
1.548721 -0.55369025 2.2570226 6.7039912e-39
1.5644552 -0.55412924 2.2644365 6.7961854e-39
1.5614425 -0.54598677 2.2665184 7.4386752e-39
1.55843 -0.53784424 2.2686 6.5203202e-39
1.5554172 -0.52970165 2.2706819 7.1631687e-39
1.5524048 -0.52155906 2.2727637 6.7039912e-39
1.5463794 -0.50527382 2.2769275 7.0713332e-39
1.5619987 -0.5053736 2.2844331 7.1631687e-39
1.558965 -0.49717385 2.2865298 7.1631687e-39
1.5498636 -0.47257411 2.292819 7.1631687e-39
1.5468297 -0.46437421 2.2949157 7.1631687e-39
1.5430577 -0.37181202 2.3333104 7.4386752e-39
1.5571029 -0.4476406 2.3071513 7.1631687e-39
1.5540465 -0.43938005 2.3092635 7.1631687e-39
1.5509902 -0.43111956 2.3113754 7.1631687e-39
1.5479339 -0.42285895 2.3134875 7.1631687e-39
1.54398 -0.37214974 2.3336093 7.4386752e-39
1.5409026 -0.36383191 2.3357358 7.1631687e-39
1.5510572 -0.38912332 2.3296547 7.6223462e-39
1.5479796 -0.38080555 2.3317814 7.4386752e-39
1.5418248 -0.36416975 2.3360348 7.1631687e-39
1.547739 -0.33776259 2.3503668 7.4386752e-39
1.5446391 -0.329384 2.352509 7.4386752e-39
1.5415392 -0.32100546 2.3546512 7.6223462e-39
1.5384392 -0.3126269 2.3567934 7.2550042e-39
1.545568 -0.32972443 2.3528101 7.5305107e-39
1.5424682 -0.32134578 2.3549523 7.4386752e-39
1.5393682 -0.31296724 2.3570945 7.4386752e-39
1.5362684 -0.30458871 2.3592367 7.4386752e-39
1.5366553 -0.2610414 2.378345 7.4386752e-39
1.536714 -0.21641904 2.3977613 7.4386752e-39
1.5335679 -0.20791575 2.3999352 7.4386752e-39
1.5311458 -0.1543695 2.4220302 7.6223462e-39
1.7118409 -0.078490213 2.5423324 8.0815237e-39
1.5407362 0.60193247 2.7552733 6.5203202e-39
1.5895118 0.5912661 2.7742128 7.0713332e-39
1.5979517 -0.84368241 2.1548171 6.0611427e-39
1.5959135 -0.83613586 2.1571109 5.9693073e-39
1.6076545 -0.83025748 2.1653397 6.1529782e-39
1.6381611 -0.78914738 2.1979461 6.1529782e-39
1.5446849 0.41567919 2.6762559 7.4386752e-39
1.5412058 0.42508265 2.6786602 7.4386752e-39
1.5950414 -0.83581638 2.1568282 5.7856363e-39
1.592131 -0.8279503 2.1588392 6.1529782e-39
1.5735487 -0.61870062 2.2407758 7.3468397e-39
1.5834194 -0.64328468 2.2348647 7.2550042e-39
1.5804279 -0.63519943 2.236932 6.7961854e-39
1.5774364 -0.62711424 2.2389991 6.7039912e-39
1.5683706 -0.56260252 2.2626472 7.2550042e-39
1.521835 0.65052181 2.7672496 5.7856363e-39
1.52718 0.40853187 2.6646903 7.4386752e-39
1.5157872 0.13855846 2.5418823 1.019374e-38
1.6029 -0.85909516 2.150512 6.0611427e-39
1.5999899 -0.85122901 2.1525233 5.7856363e-39
1.5970794 -0.84336305 2.1545343 5.9693073e-39
1.6029679 -0.8216942 2.1667953 6.1529782e-39
1.6038461 -0.82201588 2.1670797 5.8774718e-39
1.6009158 -0.81409585 2.1691048 5.7856363e-39
1.5979854 -0.80617601 2.1711297 6.1529782e-39
1.5950552 -0.79825586 2.1731546 6.5203202e-39
1.5919189 -0.75218177 2.1916578 6.7039912e-39
1.5987036 -0.76845366 2.1878667 6.1529782e-39
1.5957533 -0.76047957 2.1899056 6.4284847e-39
1.5928031 -0.7525056 2.1919444 6.3366492e-39
1.5983442 -0.7298702 2.2044575 6.7039912e-39
1.5953741 -0.72184241 2.2065098 6.7039912e-39
1.5924039 -0.71381438 2.2085624 6.7039912e-39
1.5894337 -0.70578653 2.2106149 6.7039912e-39
1.5965835 -0.68305415 2.2239478 6.7039912e-39
1.5944885 -0.67529714 2.2263055 6.7958267e-39
1.5914972 -0.66721207 2.2283726 6.6121557e-39
1.5885057 -0.65912676 2.2304397 6.7039912e-39
1.5855434 -0.61112708 2.2498636 6.7958267e-39
1.6492301 -0.82115984 2.1893868 6.3366492e-39
1.5894588 -0.61960042 2.2480743 7.2550042e-39
1.5864462 -0.61145777 2.2501562 6.5203202e-39
1.589303 -0.57917243 2.2655647 6.7039912e-39
1.5862693 -0.57097262 2.2676613 6.7961854e-39
1.647601 -0.77463973 2.208812 6.6121557e-39
1.5871783 -0.57130575 2.2679558 7.2550042e-39
1.5841446 -0.56310576 2.2700524 7.1631687e-39
1.5876656 -0.53024626 2.2860315 6.5203202e-39
1.5846093 -0.52198577 2.2881434 6.7039912e-39
1.581553 -0.51372516 2.2902553 7.2550042e-39
1.5885813 -0.53058177 2.2863281 6.7039912e-39
1.5855252 -0.52232128 2.2884402 6.7039912e-39
1.5824689 -0.51406056 2.2905521 7.1631687e-39
1.5849093 -0.48062003 2.3062615 7.1631687e-39
1.5818319 -0.47230208 2.3083882 7.1631687e-39
1.5787544 -0.46398422 2.3105149 7.1631687e-39
1.5858316 -0.48095784 2.3065605 7.1631687e-39
1.5827671 -0.43026716 2.3271041 7.4386752e-39
1.5796672 -0.42188859 2.3292463 7.2550042e-39
1.5772463 -0.37075171 2.3502948 7.5305107e-39
1.574124 -0.36231244 2.3524525 7.4386752e-39
1.577613 -0.32696229 2.3694983 7.4386752e-39
1.5744671 -0.318459 2.3716724 7.4386752e-39
1.5722637 -0.31030101 2.3741519 7.4386752e-39
1.572353 -0.2657454 2.3935542 7.4386752e-39
1.5691833 -0.25717813 2.3957448 7.4386752e-39
1.573303 -0.2660934 2.3938622 7.4386752e-39
1.5699688 -0.21226849 2.4156375 7.4386752e-39
1.5667753 -0.20363691 2.4178443 7.3468397e-39
1.5695676 -0.16637029 2.4353859 7.7141817e-39
1.5663505 -0.1576748 2.437609 7.4386752e-39
1.5673145 -0.15802793 2.4379215 7.5305107e-39
1.5640974 -0.14933234 2.4401448 7.5305107e-39
1.5666596 -0.11142766 2.4578524 7.4386752e-39
1.5643897 -0.10302398 2.460407 7.5305107e-39
1.5130397 0.18439321 2.5604694 7.8060172e-39
1.5097228 0.19335857 2.5627613 7.3468397e-39
1.5064058 0.20232359 2.5650535 7.4386752e-39
1.5030888 0.21128891 2.5673456 7.7141817e-39
1.5538377 0.076446213 2.5332854 7.5305107e-39
1.5536845 0.12648261 2.5549519 7.8060172e-39
1.510223 0.24395114 2.5849853 7.4386752e-39
1.5068799 0.25298721 2.5872955 7.4386752e-39
1.5035368 0.26202318 2.5896058 7.7141817e-39
1.5001936 0.2710593 2.5919161 7.3468397e-39
1.5060983 0.30472285 2.6093965 7.3468397e-39
1.5027287 0.31382954 2.6117251 7.4386752e-39
1.5548316 0.076082118 2.5336075 7.7141817e-39
1.507108 0.30435291 2.6097238 7.4386752e-39
1.5037385 0.31345972 2.6120522 7.4386752e-39
1.5003692 0.3225666 2.6143806 7.4386752e-39
1.4969997 0.33167341 2.616709 7.3468397e-39
1.4936304 0.34078026 2.6190374 7.2550042e-39
1.500031 0.37548435 2.6372097 7.1631687e-39
1.4966342 0.38466558 2.6395571 7.1631687e-39
1.4932375 0.39384663 2.6419044 7.0713332e-39
1.5485501 0.19470087 2.5821104 7.5305107e-39
1.5044459 0.3659305 2.6351922 7.0713332e-39
1.4962773 0.43766791 2.6624138 7.3468397e-39
1.4928544 0.44691977 2.6647792 7.0713332e-39
1.497149 0.49211746 2.6864929 6.7039912e-39
1.4936973 0.5014469 2.6888783 6.8876622e-39
1.4902457 0.51077604 2.6912637 7.0713332e-39
1.486794 0.52010542 2.6936488 7.0713332e-39
1.4833424 0.52943486 2.696034 7.1631687e-39
1.4970194 0.54694694 2.7102532 7.1631687e-39
1.4935402 0.55635053 2.7126575 6.5203202e-39
1.4945828 0.55596858 2.7129955 6.5203202e-39
1.4903417 0.62188035 2.739584 5.9693073e-39
1.6645786 -0.90681052 2.1595902 5.7856363e-39
1.6611958 -0.85350078 2.181118 6.1529782e-39
1.6582043 -0.84541565 2.1831851 6.0611427e-39
1.6426783 -0.67893624 2.2480152 6.7039912e-39
1.6517977 -0.74383605 2.2242243 6.1529782e-39
1.6466504 -0.68753242 2.2462001 6.7039912e-39
1.6412262 -0.63067973 2.2682805 6.7039912e-39
1.6421484 -0.63101757 2.2685795 6.7039912e-39
1.6390707 -0.62269956 2.2707062 6.7958267e-39
1.6334492 -0.52265823 2.3114564 7.2550042e-39
1.6058983 -0.82961422 2.1647701 6.1529782e-39
1.6243579 -0.87745607 2.1529052 6.1529782e-39
1.6214277 -0.86953598 2.1549304 6.0611427e-39
1.6184974 -0.86161602 2.1569552 6.3366492e-39
1.6155671 -0.85369593 2.1589801 5.234982e-39
1.6311562 -0.85616726 2.1654408 5.2346233e-39
1.613515 -0.84609765 2.1612897 6.1529782e-39
1.6047242 -0.82233751 2.1673646 5.6019653e-39
1.616405 -0.81629747 2.1756344 6.0611427e-39
1.6134548 -0.80832344 2.1776733 6.1529782e-39
1.6105046 -0.80034947 2.1797118 6.3366492e-39
1.6075543 -0.79237556 2.1817508 6.3366492e-39
1.604604 -0.78440154 2.1837893 5.6019653e-39
1.6013144 -0.73789823 2.2024047 6.6121557e-39
1.6497276 -0.86667097 2.169853 6.3366492e-39
1.6437871 -0.85061514 2.1739578 6.1529782e-39
1.6408169 -0.84258717 2.1760106 5.8774718e-39
1.6378469 -0.83455926 2.1780629 5.7856363e-39
1.6348766 -0.82653135 2.1801155 6.1529782e-39
1.6319065 -0.81850344 2.182168 6.4284847e-39
1.6143389 -0.80864727 2.1779599 6.4284847e-39
1.625966 -0.80244762 2.1862731 5.6019653e-39
1.6229959 -0.79441965 2.1883256 6.3366492e-39
1.6140853 -0.77033591 2.1944833 6.7039912e-39
1.6111151 -0.76230794 2.1965358 6.3366492e-39
1.6081449 -0.75428003 2.1985884 6.1529782e-39
1.6051748 -0.74625212 2.2006407 6.5203202e-39
1.6175232 -0.73965073 2.2094774 6.1529782e-39
1.614532 -0.73156554 2.2115445 6.7039912e-39
1.6115404 -0.72348022 2.2136118 6.2448137e-39
1.6085491 -0.71539497 2.2156789 6.7039912e-39
1.6055577 -0.70730972 2.2177463 6.7039912e-39
1.6476474 -0.85896903 2.172194 6.0611427e-39
1.6446773 -0.85094112 2.1742465 6.1529782e-39
1.6417071 -0.84291315 2.1762991 5.5101298e-39
1.6387368 -0.83488524 2.1783516 5.7856363e-39
1.6357666 -0.82685727 2.1804042 6.1529782e-39
1.6327965 -0.81882942 2.1824565 5.7856363e-39
1.6298263 -0.81080163 2.184509 6.3366492e-39
1.6268562 -0.80277359 2.1865616 6.1529782e-39
1.623886 -0.79474562 2.1886141 6.3366492e-39
1.6209158 -0.78671777 2.1906667 6.3366492e-39
1.6179454 -0.77868992 2.1927192 6.0611427e-39
1.6149753 -0.77066195 2.1947718 6.4284847e-39
1.6120052 -0.76263404 2.1968243 6.6121557e-39
1.6244025 -0.75614959 2.2056336 6.5203202e-39
1.6214112 -0.7480644 2.2077007 6.5203202e-39
1.6277199 -0.72512305 2.2207177 6.4284847e-39
1.6094455 -0.71572345 2.2159696 6.7039912e-39
1.6064541 -0.70763814 2.2180367 6.7039912e-39
1.6034627 -0.69955301 2.2201037 7.2550042e-39
1.6004713 -0.69146788 2.2221711 6.7039912e-39
1.5974799 -0.68338257 2.2242382 6.7039912e-39
1.6462388 -0.81307471 2.1914539 6.3366492e-39
1.6432472 -0.8049894 2.193521 6.3366492e-39
1.6402558 -0.79690421 2.1955884 6.3366492e-39
1.6372646 -0.78881896 2.1976554 6.3366492e-39
1.6342732 -0.78073376 2.1997225 6.4284847e-39
1.6312817 -0.77264833 2.2017899 6.6121557e-39
1.6282904 -0.76456326 2.2038569 7.1631687e-39
1.6252989 -0.75647801 2.2059243 6.6121557e-39
1.6376605 -0.74988121 2.2147651 6.7039912e-39
1.6286227 -0.72545373 2.2210104 6.2448137e-39
1.6256101 -0.71731108 2.2230923 6.7039912e-39
1.6225973 -0.70916849 2.2251742 6.7039912e-39
1.6195848 -0.7010259 2.2272561 7.1631687e-39
1.6165721 -0.69288343 2.2293379 6.7039912e-39
1.6135596 -0.6847409 2.2314196 6.7039912e-39
1.6105469 -0.67659831 2.2335014 6.7039912e-39
1.6226749 -0.66937107 2.2425034 6.1529782e-39
1.6196412 -0.66117126 2.2445998 6.7039912e-39
1.6015092 -0.65217066 2.2397468 7.2550042e-39
1.5984045 -0.6037721 2.2592752 6.7039912e-39
1.5953707 -0.59557217 2.2613719 7.0713332e-39
1.5923369 -0.58737236 2.2634683 6.7039912e-39
1.6441437 -0.80531788 2.1938117 6.3366492e-39
1.6411524 -0.79723257 2.1958787 6.4284847e-39
1.6351696 -0.78106207 2.2000132 6.4284847e-39
1.6445886 -0.76649702 2.2108939 7.1631687e-39
1.6417871 -0.71890336 2.2302191 6.7039912e-39
1.6387533 -0.71070343 2.2323155 6.7039912e-39
1.6357194 -0.70250362 2.2344122 7.0713332e-39
1.639622 -0.67067575 2.2501273 6.7039912e-39
1.6365657 -0.66241527 2.2522392 6.7039912e-39
1.6175166 -0.65330422 2.2469909 6.5203202e-39
1.6144826 -0.64510453 2.2490876 7.1631687e-39
1.6114489 -0.63690466 2.251184 6.3373667e-39
1.6084151 -0.62870479 2.2532804 6.7039912e-39
1.6053814 -0.6205048 2.2553771 6.7961854e-39
1.6023475 -0.61230505 2.2574735 6.7958267e-39
1.615172 -0.60459125 2.2670233 6.5203202e-39
1.6121157 -0.59633064 2.2691352 6.5203202e-39
1.6090593 -0.58807015 2.2712474 7.2550042e-39
1.6060032 -0.57980961 2.2733593 6.7961854e-39
1.5968343 -0.5550279 2.2796953 7.1631687e-39
1.593778 -0.54676735 2.2818074 7.4386752e-39
1.5907218 -0.53850687 2.2839193 7.2550042e-39
1.6396624 -0.7110365 2.2326102 6.7039912e-39
1.6374816 -0.66275072 2.2525363 6.7039912e-39
1.6344254 -0.65449017 2.2546482 6.7039912e-39
1.6313691 -0.64622957 2.2567601 7.2550042e-39
1.6283128 -0.63796896 2.2588723 6.3373667e-39
1.6093243 -0.62903786 2.2535751 6.7039912e-39
1.6222004 -0.62144792 2.2630961 6.7039912e-39
1.6191441 -0.61318737 2.2652082 6.5203202e-39
1.6279939 -0.5970704 2.2764883 6.7961854e-39
1.6099752 -0.58840573 2.2715442 7.1631687e-39
1.6069189 -0.58014518 2.2736561 7.1631687e-39
1.6038626 -0.57188463 2.2757683 7.3468397e-39
1.6008065 -0.56362391 2.2778804 7.1631687e-39
1.5977502 -0.55536348 2.2799921 7.1631687e-39
1.6064516 -0.53884518 2.2913749 6.7039912e-39
1.5879868 -0.48893791 2.3041348 7.1631687e-39
1.6258388 -0.58909017 2.278914 6.5203202e-39
1.6227612 -0.58077246 2.2810404 7.2550042e-39
1.6196839 -0.57245457 2.2831671 7.1631687e-39
1.6166064 -0.56413668 2.2852938 6.9794977e-39
1.613529 -0.55581874 2.2874205 7.0713332e-39
1.6104513 -0.54750097 2.2895472 7.1631687e-39
1.607374 -0.53918308 2.2916737 6.7039912e-39
1.6042964 -0.53086507 2.2938006 7.3468397e-39
1.6012189 -0.52254725 2.295927 7.2550042e-39
1.5981414 -0.51422936 2.2980537 7.1631687e-39
1.5950639 -0.50591153 2.3001804 7.3468397e-39
1.5919865 -0.49759367 2.3023071 7.1631687e-39
1.588909 -0.48927563 2.3044338 7.1631687e-39
1.5951668 -0.46378148 2.3185356 7.0713332e-39
1.5920669 -0.45540288 2.3206775 6.9794977e-39
1.588967 -0.44702438 2.3228197 7.0713332e-39
1.585867 -0.43864575 2.3249619 7.2550042e-39
1.6239952 -0.53952891 2.2995567 7.2550042e-39
1.6178373 -0.48046204 2.3222449 7.0713332e-39
1.614715 -0.47202271 2.3244026 7.1631687e-39
1.6115925 -0.46358359 2.3265603 7.1631687e-39
1.6084702 -0.45514429 2.3287179 7.1631687e-39
1.6053479 -0.44670504 2.3308756 7.2550042e-39
1.6022254 -0.43826577 2.3330333 7.5305107e-39
1.5991031 -0.4298265 2.335191 7.7141817e-39
1.5959808 -0.42138731 2.3373487 7.4386752e-39
1.5897359 -0.40450865 2.3416641 7.6223462e-39
1.6027817 -0.39498881 2.3521056 7.4386752e-39
1.5996355 -0.38648555 2.3542798 7.5305107e-39
1.5964895 -0.37798217 2.3564539 7.4386752e-39
1.580759 -0.33546561 2.3673244 7.4386752e-39
1.618773 -0.4808048 2.3225482 7.2550042e-39
1.6156505 -0.47236553 2.3247058 7.0713332e-39
1.6125282 -0.46392632 2.3268635 7.1631687e-39
1.6094059 -0.45548707 2.3290212 7.1631687e-39
1.6131628 -0.42084411 2.3458891 7.4386752e-39
1.6100168 -0.41234076 2.3480632 7.1631687e-39
1.6068705 -0.40383753 2.3502371 7.1631687e-39
1.6037245 -0.39533421 2.3524113 7.1631687e-39
1.6005784 -0.3868309 2.3545854 7.4386752e-39
1.5974324 -0.37832758 2.3567595 7.4386752e-39
1.5942863 -0.36982417 2.3589334 7.5305107e-39
1.5911402 -0.361321 2.3611073 7.4386752e-39
1.587994 -0.35281757 2.3632817 7.4386752e-39
1.5848479 -0.34431425 2.3654559 7.5305107e-39
1.5977113 -0.33428451 2.3760307 7.4386752e-39
1.5945415 -0.32571718 2.3782213 7.4386752e-39
1.5913718 -0.31714976 2.3804116 7.3468397e-39
1.5786927 -0.28288013 2.3891733 7.8060172e-39
1.5755228 -0.27431285 2.3913636 7.7141817e-39
1.6109594 -0.41268623 2.3483689 7.4386752e-39
1.6240195 -0.40317148 2.358815 7.2550042e-39
1.6050009 -0.35176727 2.3719578 7.5305107e-39
1.6018311 -0.34319985 2.3741481 7.5305107e-39
1.5986612 -0.33463252 2.3763387 7.6223462e-39
1.5954914 -0.32606518 2.3785291 7.5305107e-39
1.5923216 -0.31749782 2.3807194 7.8978527e-39
1.589152 -0.30893037 2.3829098 7.4386752e-39
1.5987104 -0.28995141 2.3957758 7.4386752e-39
1.5955167 -0.28131998 2.3979826 7.7141817e-39
1.5764726 -0.27466086 2.3916719 7.8060172e-39
1.5859363 -0.25542572 2.4046032 7.4386752e-39
1.5827428 -0.24679425 2.40681 7.8978527e-39
1.5795494 -0.23816288 2.4090168 7.5305107e-39
1.5763558 -0.22953144 2.4112236 7.7141817e-39
1.5731623 -0.22089982 2.4134307 7.8978527e-39
1.5727848 -0.17506582 2.4331627 7.7141817e-39
1.6188283 -0.34209061 2.3828449 7.5305107e-39
1.5964738 -0.28167054 2.398293 7.7141817e-39
1.5932803 -0.27303913 2.4004998 7.7141817e-39
1.5900868 -0.26440769 2.4027066 7.4386752e-39
1.5930521 -0.22759202 2.4201357 7.6223462e-39
1.5898348 -0.21889642 2.4223592 7.7141817e-39
1.5866176 -0.21020094 2.4245822 7.7141817e-39
1.5834004 -0.20150541 2.4268055 7.6223462e-39
1.5801833 -0.19281 2.4290287 7.8060172e-39
1.5769662 -0.18411438 2.4312518 7.6223462e-39
1.5705317 -0.16672346 2.4356983 7.6223462e-39
1.5763822 -0.13770628 2.4511337 7.4386752e-39
1.5731412 -0.12894678 2.4533734 7.5305107e-39
1.5699004 -0.12018716 2.4556129 7.8060172e-39
1.6065215 -0.21689822 2.4312921 7.4386752e-39
1.5875818 -0.21055403 2.4248948 7.5305107e-39
1.5838351 -0.15558122 2.4469693 7.4386752e-39
1.5805943 -0.14682153 2.449209 7.5305107e-39
1.5773534 -0.13806212 2.4514484 7.5305107e-39
1.5708179 -0.07319098 2.476476 7.6223462e-39
1.5642862 -0.055537086 2.4809897 7.6223462e-39
1.6074926 -0.21725398 2.4316072 7.4386752e-39
1.6042517 -0.20849444 2.4338465 7.5305107e-39
1.5848063 -0.15593708 2.4472842 7.4386752e-39
1.5815654 -0.14717749 2.4495237 7.7141817e-39
1.5783281 -0.091203667 2.4722795 7.7141817e-39
1.5750624 -0.082376547 2.4745364 7.5305107e-39
1.5717967 -0.073549516 2.4767931 7.8060172e-39
1.5690107 -0.016433766 2.500263 7.7141817e-39
1.5657188 -0.0075358292 2.502538 7.8060172e-39
1.602168 -0.15335098 2.4567988 7.6223462e-39
1.598902 -0.14452405 2.4590557 7.8978527e-39
1.5956362 -0.13569699 2.4613125 7.6223462e-39
1.5963336 -0.087977566 2.4823833 7.8060172e-39
1.5903245 -0.022171266 2.5080714 7.8978527e-39
1.5870075 -0.013206073 2.5103636 7.8060172e-39
1.5546864 0.12611565 2.5552764 7.9896882e-39
1.5677567 0.14042963 2.5678129 7.4386752e-39
1.5788745 0.11273928 2.5611551 7.8060172e-39
1.5755051 0.12184606 2.5634835 7.8060172e-39
1.5721358 0.13095292 2.5658119 8.0815237e-39
1.5621918 0.20985329 2.5952876 7.4386752e-39
1.558795 0.21903415 2.5976348 7.6223462e-39
1.5734001 0.18193731 2.5885754 7.3468397e-39
1.5700034 0.19111836 2.5909226 7.8060172e-39
1.5666064 0.20029928 2.5932701 7.4386752e-39
1.5691868 0.24300373 2.6130717 7.6223462e-39
1.5657636 0.25225565 2.6154373 7.4386752e-39
1.5623405 0.26150745 2.6178026 7.5305107e-39
1.5589175 0.27075934 2.620168 7.8060172e-39
1.5554945 0.28001115 2.6225336 7.4386752e-39
1.5520716 0.28926295 2.6248991 7.4386752e-39
1.5489248 0.35217687 2.6507137 7.4386752e-39
1.545473 0.36150625 2.6530991 7.4386752e-39
1.5637659 0.31448036 2.6415081 7.6223462e-39
1.5603142 0.32380974 2.6438932 7.7141817e-39
1.5568625 0.33313912 2.6462784 7.7141817e-39
1.5534109 0.34246856 2.6486638 7.7141817e-39
1.556165 0.38708639 2.6693811 7.4386752e-39
1.5526859 0.39648995 2.6717854 7.4386752e-39
1.5457275 0.41529727 2.6765938 7.0713332e-39
1.5422484 0.42470068 2.678998 7.3468397e-39
1.5387692 0.43410432 2.6814022 7.0713332e-39
1.5613486 0.32343081 2.6442287 7.5305107e-39
1.5398118 0.43372241 2.6817403 7.1631687e-39
1.5429593 0.47966373 2.703223 7.0713332e-39
1.5394516 0.48914489 2.7056468 7.1631687e-39
1.5359437 0.49862593 2.708071 7.0713332e-39
1.5434008 0.5353958 2.7276514 7.4386752e-39
1.5398642 0.54495442 2.7300954 7.2550042e-39
1.5444605 0.5350076 2.7279949 7.0713332e-39
1.5336033 0.62121165 2.7602022 6.3366492e-39
1.6381487 -0.62236178 2.2704074 6.7039912e-39
1.6350712 -0.61404383 2.2725339 6.7039912e-39
1.6332949 -0.5646646 2.2931304 7.2550042e-39
1.6301951 -0.55628604 2.2952726 7.1631687e-39
1.6270951 -0.54790747 2.2974148 7.0713332e-39
1.6303269 -0.51421899 2.3136141 7.2550042e-39
1.6272045 -0.50577968 2.3157718 7.4386752e-39
1.6240821 -0.49734056 2.3179295 7.1631687e-39
1.6209596 -0.48890132 2.3200872 7.1631687e-39
1.6226009 -0.44635418 2.3393669 7.2550042e-39
1.6194549 -0.43785083 2.3415408 7.4386752e-39
1.6163088 -0.42934752 2.343715 7.4386752e-39
1.6266899 -0.45520276 2.3374982 7.4386752e-39
1.6235439 -0.4466995 2.3396726 7.1631687e-39
1.6203977 -0.43819621 2.3418465 7.4386752e-39
1.6172516 -0.42969286 2.3440206 7.5305107e-39
1.6141056 -0.42118952 2.3461947 7.4386752e-39
1.6208496 -0.39460418 2.3610053 7.5305107e-39
1.61768 -0.38603681 2.3631959 7.5305107e-39
1.6145102 -0.37746948 2.3653862 7.4386752e-39
1.6113404 -0.36890206 2.3675768 7.6223462e-39
1.6081706 -0.36033472 2.3697672 7.5305107e-39
1.6019038 -0.29858288 2.393569 7.7141817e-39
1.6217996 -0.39495212 2.3613133 7.4386752e-39
1.61546 -0.37781736 2.3656943 7.5305107e-39
1.6122903 -0.36924997 2.3678846 7.4386752e-39
1.6156347 -0.33345911 2.385052 7.8060172e-39
1.6124412 -0.32482773 2.3872588 7.4386752e-39
1.6092477 -0.31619635 2.3894656 7.6223462e-39
1.5996672 -0.29030204 2.396086 7.6223462e-39
1.6027037 -0.25367844 2.4134662 7.4386752e-39
1.5994864 -0.24498291 2.4156895 7.4386752e-39
1.5962691 -0.23628744 2.4179127 7.4386752e-39
1.5893457 -0.17274463 2.4421754 7.4386752e-39
1.606885 -0.26272708 2.4115555 7.7141817e-39
1.6000397 -0.19937904 2.4357715 7.7141817e-39
1.590317 -0.17310044 2.4424901 7.3468397e-39
1.5870761 -0.16434081 2.4447298 7.3468397e-39
1.590413 -0.12615292 2.4629347 7.5305107e-39
1.5871472 -0.11732601 2.4651918 7.7141817e-39
1.5838813 -0.10849904 2.4674485 7.5305107e-39
1.6010108 -0.19973476 2.4360862 7.7141817e-39
1.59777 -0.19097532 2.4383259 7.8060172e-39
1.594529 -0.18221579 2.4405653 7.7141817e-39
1.5880473 -0.16469662 2.4450445 7.7141817e-39
1.5946575 -0.1353385 2.4609952 7.5305107e-39
1.5913918 -0.12651138 2.4632521 7.4386752e-39
1.5881258 -0.11768456 2.4655089 7.5305107e-39
1.58486 -0.10885754 2.4677658 7.7141817e-39
1.5815942 -0.10003054 2.4700227 7.6223462e-39
1.585471 -0.060922761 2.4888883 7.6223462e-39
1.5923704 -0.12686998 2.4635694 7.6223462e-39
1.5891045 -0.11804311 2.4658263 7.4386752e-39
1.5637139 0.09937451 2.5480208 7.4386752e-39
1.5680591 0.089971349 2.5460353 7.7141817e-39
1.5647159 0.099007443 2.5483456 7.5305107e-39
1.5613726 0.10804347 2.5506558 7.8060172e-39
1.5580294 0.11707947 2.5529664 7.6223462e-39
1.5643873 0.14953649 2.5701413 7.5305107e-39
1.5610179 0.15864332 2.5724697 7.9896882e-39
1.5576487 0.16775022 2.5747981 7.4386752e-39
1.5542792 0.17685714 2.5771265 7.5305107e-39
1.5509099 0.18596393 2.5794549 7.7141817e-39
1.5620276 0.15827352 2.5727971 7.8978527e-39
1.5586582 0.16738024 2.5751255 7.7141817e-39
1.5552889 0.17648721 2.5774536 7.4386752e-39
1.5519196 0.18559402 2.579782 7.8060172e-39
1.5486485 0.29851478 2.6272643 7.7141817e-39
1.5452255 0.30776662 2.6296299 7.4386752e-39
1.5420215 0.37083545 2.6554842 7.1631687e-39
1.5624266 0.0013619316 2.504813 7.8060172e-39
1.5190173 0.019610029 2.4917612 7.5305107e-39
1.5669606 0.0099353688 2.5107293 1.0010069e-38
1.5185646 0.06804084 2.5125854 7.4386752e-39
1.5152987 0.076867878 2.514842 7.0713332e-39
1.5561607 0.067845181 2.5306709 7.5305107e-39
1.5594776 0.058879945 2.5283787 7.8060172e-39
1.5804298 0.054194108 2.5364695 7.7141817e-39
1.5604717 0.058515761 2.5287011 7.8060172e-39
1.5571547 0.067481004 2.530993 7.7141817e-39
1.5780885 0.062863179 2.5391045 7.8060172e-39
1.5581487 0.067116909 2.5313153 7.8060172e-39
1.4898405 0.40302756 2.6442518 7.6223462e-39
1.5492066 0.40589368 2.6741893 7.1631687e-39
1.5959859 -0.88001502 2.1380808 5.6019653e-39
1.5930955 -0.87220293 2.1400781 5.7856363e-39
1.5941691 -0.8354969 2.1565456 5.9693073e-39
1.5921248 -0.79033571 2.1751797 6.3366492e-39
1.5891948 -0.78241581 2.1772046 5.8778305e-39
1.5862644 -0.77449572 2.1792295 6.3366492e-39
1.5889688 -0.74420792 2.1936965 6.1529782e-39
1.5860186 -0.73623377 2.1957355 6.6121557e-39
1.5898529 -0.74453175 2.1939831 6.5203202e-39
1.5864633 -0.69775862 2.2126675 6.7039912e-39
1.5834932 -0.6897307 2.21472 6.7039912e-39
1.5784429 -0.67400086 2.2191136 6.7039912e-39
1.578635 -0.6345427 2.2363508 6.7039912e-39
1.5756437 -0.62645745 2.2384179 6.7958267e-39
1.5726523 -0.6183722 2.2404852 6.7039912e-39
1.5855143 -0.65104157 2.232507 6.7039912e-39
1.582523 -0.64295638 2.2345741 6.7961854e-39
1.5795316 -0.63487107 2.2366414 6.7039912e-39
1.5765401 -0.62678581 2.2387085 6.5203202e-39
1.5825307 -0.60298461 2.2519455 6.7039912e-39
1.5795182 -0.59484208 2.2540271 7.2550042e-39
1.5765054 -0.58669955 2.256109 6.7958267e-39
1.5734929 -0.57855695 2.2581909 6.5203202e-39
1.5802016 -0.55457288 2.2718542 6.7961854e-39
1.5771677 -0.54637301 2.2739506 7.1631687e-39
1.574134 -0.53817314 2.2760472 6.7039912e-39
1.5711002 -0.52997321 2.2781436 7.2550042e-39
1.5680664 -0.52177334 2.2802403 7.1631687e-39
1.5650326 -0.51357341 2.2823367 7.3468397e-39
1.5784968 -0.50546455 2.2923675 7.1631687e-39
1.5754405 -0.49720395 2.2944794 7.1631687e-39
1.5723842 -0.4889434 2.2965913 7.1631687e-39
1.569328 -0.48068279 2.2987034 7.1631687e-39
1.5662717 -0.47242218 2.3008153 7.1631687e-39
1.5632154 -0.46416169 2.3029275 7.1631687e-39
1.5601591 -0.45590118 2.3050394 7.1631687e-39
1.5794127 -0.50580007 2.2926643 7.1631687e-39
1.5763564 -0.49753943 2.2947762 6.4284847e-39
1.5756769 -0.45566642 2.3126414 7.1631687e-39
1.5725994 -0.44734856 2.3147681 7.1631687e-39
1.5695219 -0.43903068 2.3168948 7.1631687e-39
1.5664446 -0.43071282 2.3190215 7.0713332e-39
1.563367 -0.42239493 2.3211482 7.1631687e-39
1.5602896 -0.41407695 2.3232749 7.1631687e-39
1.5572121 -0.4057591 2.3254015 7.4386752e-39
1.5541346 -0.39744121 2.3275282 7.1631687e-39
1.5601387 -0.37127686 2.3417983 7.4386752e-39
1.5539389 -0.3545197 2.3460827 7.4386752e-39
1.5508388 -0.34614113 2.3482246 7.4386752e-39
1.5734674 -0.40513137 2.3335307 7.4386752e-39
1.5703673 -0.39675286 2.3356729 6.8876622e-39
1.5672675 -0.38837436 2.337815 7.3468397e-39
1.5641676 -0.37999582 2.339957 7.3468397e-39
1.5610676 -0.37161723 2.3420994 7.4386752e-39
1.5579677 -0.36323857 2.3442416 7.4386752e-39
1.570066 -0.35353035 2.3543069 7.4386752e-39
1.5669435 -0.34509107 2.3564646 7.4386752e-39
1.5638213 -0.33665177 2.3586223 7.4386752e-39
1.5482093 -0.29445562 2.3694108 7.0713332e-39
1.5450867 -0.28601629 2.3715684 7.6223462e-39
1.5710018 -0.35387304 2.3546102 7.4386752e-39
1.5678792 -0.34543383 2.3567679 7.4386752e-39
1.5553898 -0.31167689 2.3653986 7.8978527e-39
1.5522673 -0.30323762 2.3675563 7.4386752e-39
1.5650287 -0.29294902 2.3781946 7.2550042e-39
1.5618826 -0.28444561 2.3803687 8.0815237e-39
1.5587366 -0.27594227 2.3825428 7.4386752e-39
1.5555905 -0.26743901 2.3847167 7.4386752e-39
1.5691175 -0.30179772 2.3763261 7.4386752e-39
1.5659715 -0.29329443 2.3785002 7.4386752e-39
1.5660136 -0.24861078 2.3979352 7.7141817e-39
1.5628438 -0.2400433 2.4001257 7.4386752e-39
1.5596739 -0.23147602 2.4023161 7.7141817e-39
1.540803 -0.22526781 2.3958929 7.7141817e-39
1.5533344 -0.21434107 2.406697 7.4386752e-39
1.5501646 -0.20577382 2.4088874 7.4386752e-39
1.5469948 -0.19720642 2.411078 7.5305107e-39
1.5594314 -0.18602359 2.4219477 7.7141817e-39
1.5562381 -0.1773921 2.4241545 7.4386752e-39
1.5530444 -0.16876067 2.4263613 7.5305107e-39
1.5343156 -0.1629369 2.4198399 7.2550042e-39
1.5338835 -0.11697197 2.4396024 7.5305107e-39
1.5306901 -0.10834055 2.4418092 7.4386752e-39
1.5635819 -0.19500561 2.4200511 7.5305107e-39
1.5603884 -0.18637413 2.4222579 7.7141817e-39
1.5631332 -0.14897913 2.4398324 7.6223462e-39
1.5599161 -0.14028369 2.4420555 7.4386752e-39
1.5566989 -0.13158812 2.4442787 7.4386752e-39
1.5534817 -0.12289278 2.446502 7.5305107e-39
1.5502645 -0.11419716 2.4487252 7.5305107e-39
1.5470474 -0.10550168 2.4509485 7.5305107e-39
1.5438302 -0.096806243 2.4531715 7.4386752e-39
1.5406129 -0.088110596 2.4553947 7.3468397e-39
1.5309613 -0.06202428 2.4620645 7.5305107e-39
1.5277442 -0.053328715 2.4642875 7.7141817e-39
1.5480113 -0.1058549 2.451261 7.5305107e-39
1.5447942 -0.097159415 2.4534841 7.4386752e-39
1.5569369 -0.085148945 2.4645712 7.5305107e-39
1.5383598 -0.079768389 2.4579306 7.4386752e-39
1.5351425 -0.071072817 2.4601538 7.4386752e-39
1.5439733 -0.050110757 2.4735296 7.7141817e-39
1.5310097 -0.015072449 2.4824879 7.0713332e-39
1.5277689 -0.0063127745 2.4847274 7.5305107e-39
1.5245279 0.0024467395 2.4869673 7.4386752e-39
1.5611489 -0.094264358 2.4626465 7.7141817e-39
1.5577545 -0.037883066 2.4855032 7.7141817e-39
1.5544888 -0.029056078 2.4877601 7.4386752e-39
1.5512229 -0.020229047 2.4900169 7.8060172e-39
1.5254991 0.0020909607 2.487282 7.4386752e-39
1.5525507 0.028055182 2.5116377 7.7141817e-39
1.5327984 0.081441954 2.5252874 7.4386752e-39
1.5295063 0.090339892 2.5275621 7.4386752e-39
1.5262144 0.09923774 2.5298371 7.4386752e-39
1.5229223 0.10813541 2.5321124 7.4386752e-39
1.5196302 0.1170332 2.5343871 7.4386752e-39
1.5528436 0.076810382 2.532963 7.4386752e-39
1.5495267 0.085775629 2.5352552 7.7141817e-39
1.5462097 0.094740972 2.5375476 7.5305107e-39
1.5428926 0.10370616 2.5398397 7.8060172e-39
1.5395757 0.11267141 2.5421319 7.4386752e-39
1.5362587 0.12163669 2.5444238 7.5305107e-39
1.5329417 0.13060191 2.5467162 7.4386752e-39
1.5296247 0.13956717 2.5490084 7.4386752e-39
1.5263077 0.14853232 2.5513005 7.6223462e-39
1.5163567 0.17542796 2.558177 7.5305107e-39
1.5505207 0.085411489 2.5355775 7.8060172e-39
1.5503412 0.13551855 2.5572619 7.7141817e-39
1.5469981 0.14455464 2.5595722 7.4386752e-39
1.5336252 0.18069878 2.5688133 7.5305107e-39
1.5302823 0.18973482 2.5711236 7.8978527e-39
1.526939 0.19877091 2.5734339 7.4386752e-39
1.5235959 0.20780684 2.5757442 7.4386752e-39
1.5202527 0.21684287 2.5780544 7.6223462e-39
1.5169095 0.22587895 2.5803647 7.7141817e-39
1.5135663 0.23491512 2.5826752 7.6223462e-39
1.5094676 0.29561597 2.6070683 7.1631687e-39
1.5475404 0.19507082 2.5817833 7.3468397e-39
1.5441711 0.20417759 2.5841117 7.4386752e-39
1.5408016 0.21328428 2.5864398 7.8060172e-39
1.5374323 0.22239114 2.5887682 7.7141817e-39
1.534063 0.23149802 2.5910969 7.3468397e-39
1.5306935 0.24060503 2.593425 7.4386752e-39
1.5273242 0.24971181 2.5957537 7.4386752e-39
1.5239547 0.25881866 2.5980818 7.4386752e-39
1.5205853 0.26792544 2.6004105 7.7141817e-39
1.5172158 0.27703229 2.6027386 7.3468397e-39
1.5138468 0.28613922 2.605067 7.3468397e-39
1.5104773 0.29524603 2.6073954 7.0713332e-39
1.5384421 0.22202133 2.5890956 7.6223462e-39
1.5350727 0.23112807 2.591424 7.7141817e-39
1.5317032 0.24023503 2.5937524 7.4386752e-39
1.5384141 0.27412048 2.6117189 7.4386752e-39
1.5350173 0.28330144 2.6140661 7.4386752e-39
1.5316205 0.29248247 2.6164134 7.7141817e-39
1.511487 0.29487625 2.6077225 7.4386752e-39
1.5248268 0.31084442 2.6211083 7.6223462e-39
1.5214299 0.32002544 2.6234555 7.6223462e-39
1.5180331 0.32920659 2.625803 7.5305107e-39
1.5146363 0.33838758 2.6281502 7.4386752e-39
1.5112394 0.34756854 2.6304977 7.4386752e-39
1.5078427 0.3567495 2.6328449 7.3468397e-39
