# .PCD v0.7 - Point Cloud Data file format
VERSION 0.7
FIELDS x y z rgb
SIZE 4 4 4 4
TYPE F F F F
COUNT 1 1 1 1
WIDTH 1060
HEIGHT 1
VIEWPOINT 0 0 0 1 0 0 0
POINTS 1060
DATA ascii
-1.9883785 0.80657727 0.024544926 6.5430157e-39
-1.9889294 0.8143605 0.027920326 1.6815582e-44
-1.9887707 0.81679589 0.028181469 4.2038954e-45
-1.9917966 0.82656896 0.038028229 9.8090893e-45
-1.9937261 0.83687317 0.045380067 1.1210388e-44
-2.0053101 0.9476878 0.10242841 2.8025969e-45
-2.0064459 0.95485562 0.10704716 0
-2.0068698 0.96289104 0.11018435 2.488891e-39
-2.0068593 0.96990561 0.11200872 7.1869305e-39
-2.0083165 0.97274059 0.11625743 6.6341015e-39
-1.9919739 0.78350413 0.027099583 2.2867037e-38
-1.9898958 0.79071087 0.024006676 5.8958638e-39
-1.9914799 0.79802728 0.029741842 7.8341188e-39
-1.9907792 0.80341768 0.029479399 5.8983651e-39
-1.9912039 0.8084572 0.03182815 4.5992157e-40
-1.9917325 0.81454378 0.034703098 9.8090893e-45
-1.9937474 0.8241201 0.042069335 0
-2.0067079 0.93548018 0.10256859 4.5953902e-40
-2.0036325 0.93537629 0.095152482 0
-2.0063317 0.94335294 0.10374033 2.8025969e-45
-2.0079699 0.95912868 0.11183529 4.5161369e-39
-2.0084515 0.9624567 0.1138702 4.2392011e-39
-2.0104585 0.97212148 0.12124017 5.8961931e-39
-1.9921044 0.7758956 0.025406845 2.3509886e-38
-1.9924874 0.78195137 0.027923862 7.6651026e-43
-1.9933857 0.78966975 0.032116916 6.0813256e-39
-1.9938837 0.79424465 0.034519795 7.0976356e-39
-1.9948965 0.80368209 0.039441187 5.4373786e-39
-1.9940197 0.80617422 0.037991982 8.2941034e-40
-1.9946846 0.8140806 0.041673761 1.821688e-44
-1.9958154 0.82322717 0.046802253 5.6051939e-45
-1.9959776 0.82986516 0.04894216 3.629363e-43
-2.0082431 0.93724597 0.10672249 2.8025969e-45
-2.0087252 0.94342428 0.10950921 0
-2.0109036 0.95236236 0.11709999 0
-2.0133364 0.96273869 0.1256806 5.8983567e-39
-2.0153496 0.97396559 0.13347711 6.1724143e-39
-1.9949204 0.77361262 0.031570543 2.3509886e-38
-1.9969242 0.78596783 0.039642096 6.1745961e-39
-1.9969133 0.79276198 0.041407447 8.1107043e-39
-1.9969025 0.79955626 0.043172821 7.2798632e-39
-1.997806 0.80552387 0.046916928 1.7520827e-39
-1.9955599 0.80675143 0.041844133 2.8025969e-45
-1.9976021 0.81600267 0.049189806 0
-2.0017872 0.8240357 0.061362628 1.0916115e-42
-2.0130341 0.94670582 0.12072717 0
-2.016216 0.95335227 0.1301242 0
-2.016305 0.96138984 0.13245694 7.0958153e-39
-2.0172234 0.97260636 0.13762105 6.8170494e-39
-2.0184693 0.97168738 0.14037193 7.1847655e-39
-1.9990525 0.77429599 0.041678175 2.3509886e-38
-1.9981908 0.77976197 0.041048989 1.2633043e-38
-1.9986974 0.78322655 0.043179389 7.7419218e-39
-1.999716 0.79035807 0.047507264 7.9273906e-39
-2.0006237 0.79632246 0.051260434 6.9110765e-39
-2.0006108 0.80311936 0.053021841 9.2304791e-40
-2.0011923 0.81111056 0.056525756 7.300765e-43
-1.9987409 0.81050289 0.050475895 0
-1.9991219 0.81652439 0.052978657 0
-2.0184753 0.95303452 0.13546805 0
-2.0171514 0.95540375 0.13291229 3.6863861e-39
-2.0175459 0.96163988 0.13550429 4.052642e-39
-2.0179405 0.96787602 0.13809635 4.2352354e-39
-2.0028222 0.77384692 0.050616246 2.3509886e-38
-2.0013165 0.7821992 0.049201325 7.6497248e-39
-2.0013099 0.78763491 0.050618257 7.9255956e-39
-2.0003984 0.79016823 0.049096432 4.3331946e-39
-2.0040183 0.80189598 0.060885567 3.684378e-40
-2.0026383 0.80562824 0.058554105 4.2038954e-45
-2.0015411 0.80823278 0.056604836 0
-2.00616 0.82107949 0.071089387 3.657389e-43
-2.0060213 0.82680166 0.072264284 4.2038954e-45
-2.0209286 0.94022101 0.13798407 0
-2.023283 0.95487493 0.14750415 0
-2.0230007 0.95631373 0.14720532 5.8065058e-39
-2.0216742 0.96065319 0.14516254 7.1862117e-39
-2.0208099 0.96591038 0.14447229 6.3550062e-39
-2.0056491 0.77142787 0.056770179 2.3509886e-38
-2.0043654 0.78028971 0.05602257 8.0185087e-39
-2.0043492 0.78709787 0.057779126 7.9263186e-39
-2.0040891 0.79339331 0.058814272 6.4504627e-39
-2.0020297 0.79108095 0.0532564 2.7658689e-40
-2.0039604 0.79994118 0.06023097 0
-2.0075653 0.80901223 0.071283653 1.8404234e-40
-2.0076897 0.81543946 0.073277168 5.6051939e-45
-2.0051031 0.8180058 0.06773942 2.8025969e-45
-2.0231466 0.94258589 0.1439366 0
-2.024307 0.94830674 0.14823247 0
-2.0229514 0.95070177 0.14560698 3.4094404e-39
-2.0214317 0.95267302 0.1424762 4.052642e-39
-2.0248587 0.96597654 0.15421681 7.1851144e-39
-2.0066147 0.77255464 0.059387311 4.9851249e-39
-2.0036786 0.77085143 0.051884089 4.5147314e-39
-2.0072629 0.7792818 0.062718332 8.2940166e-39
-2.0072455 0.78609174 0.064472325 7.7426406e-39
-2.0071313 0.79297107 0.066011578 3.7771552e-39
-2.0072107 0.79971218 0.067979932 5.6051939e-45
-2.0086067 0.80497032 0.07272011 3.6807627e-40
-2.0075223 0.80971414 0.071365416 0
-2.0079031 0.8157357 0.073868223 2.8025969e-45
-2.0246677 0.92964244 0.14417829 0
-2.0250623 0.93587852 0.14677039 0
-2.0254569 0.94211465 0.14936242 0
-2.0250649 0.94709831 0.14973518 5.4352107e-39
-2.0283132 0.95830321 0.16049336 7.0932873e-39
-2.008363 0.77198565 0.063437663 1.6710596e-39
-2.0100708 0.77687353 0.068829492 8.0181541e-39
-2.0100522 0.78368556 0.070580922 7.5578907e-39
-2.0100336 0.79049772 0.072332077 4.423235e-39
-2.0100148 0.79731005 0.074083336 3.7274539e-43
-2.0096927 0.80209619 0.074570894 5.6051939e-45
-2.0098493 0.80870593 0.076690137 5.6051939e-45
-2.0287175 0.93249804 0.15466087 0
-2.0260208 0.92940271 0.14736557 0
-2.0302665 0.9450205 0.16168417 1.4725965e-39
-2.0250399 0.93667573 0.14692685 3.8703962e-39
-2.0292912 0.94966614 0.16056539 6.5426429e-39
-2.0103638 0.76703256 0.066938534 8.196538e-39
-2.0110183 0.76970506 0.069215968 4.429e-39
-2.0132787 0.77541775 0.076152876 7.0965538e-39
-2.0128577 0.78127939 0.076686837 7.2813066e-39
-2.0128379 0.78809363 0.078435607 3.962624e-39
-2.0124781 0.79302138 0.078870535 1.4012985e-45
-2.0126343 0.79963237 0.08098907 5.6051939e-45
-2.0133703 0.80729365 0.084777065 5.6051939e-45
-2.0141804 0.81416667 0.088535473 9.3999101e-41
-2.0308621 0.9311766 0.15946494 0
-2.0304999 0.93684918 0.16009045 0
-2.0311015 0.93933117 0.16219036 3.2242883e-39
-2.0309343 0.94626015 0.16361532 7.370963e-39
-2.0321455 0.95261276 0.16819996 6.4482837e-39
-2.0154302 0.77049375 0.080023088 6.4537025e-39
-2.0136178 0.77414125 0.07663095 7.9263158e-39
-2.0151093 0.77733076 0.081055366 7.0043581e-39
-2.0152652 0.78394264 0.08317329 4.1470237e-39
-2.0135515 0.78803802 0.080135256 4.2038954e-45
-2.0155771 0.79716742 0.087408997 5.6051939e-45
-2.016315 0.80482137 0.091200069 2.8025969e-45
-2.0355737 0.93258089 0.17115486 0
-2.0318196 0.93101346 0.1617222 2.8025969e-45
-2.0352135 0.9410432 0.17252037 5.896528e-39
-2.0352154 0.94991553 0.17486458 7.3706015e-39
-2.0350852 0.9550578 0.17590727 7.1847571e-39
-2.0337465 0.95572299 0.17286682 3.4101411e-39
-2.0167038 0.76533985 0.081724286 5.0675633e-39
-2.0166817 0.77216452 0.083471037 8.2933005e-39
-2.0155792 0.77379876 0.081252798 4.5172327e-39
-2.0169637 0.78188169 0.086710259 5.6214223e-39
-2.017961 0.78859085 0.090875447 5.6051939e-45
-2.018342 0.79461235 0.093378313 0
-2.0206327 0.80455548 0.10150346 3.685415e-43
-2.0360024 0.93160331 0.17192723 0
-2.0373292 0.93854642 0.1769454 5.6199621e-39
-2.0381289 0.94741338 0.18120433 7.0940188e-39
-2.036237 0.94718719 0.17659962 3.5945408e-39
-2.0193901 0.75548017 0.085579053 2.1480874e-38
-2.019489 0.76840895 0.089224994 7.2802276e-39
-2.0196438 0.77503514 0.091344163 6.9121639e-39
-2.020262 0.7819773 0.094659716 4.9760557e-39
-2.0207613 0.78632069 0.097004443 9.8090893e-45
-2.0243335 0.79718757 0.10845227 9.2202636e-41
-2.0244963 0.80423248 0.11070054 7.272739e-43
-2.0396264 0.92915916 0.17998925 0
-2.0403512 0.93659592 0.18369117 1.1038294e-39
-2.0415633 0.94004434 0.18751299 6.819227e-39
-2.0229092 0.75425237 0.093709759 2.2126611e-38
-2.021693 0.75835353 0.091869138 1.8370743e-40
-2.0217824 0.76614648 0.094138265 8.2025468e-39
-2.0234461 0.77335113 0.10003524 8.2940124e-39
-2.0227425 0.77918607 0.099883176 3.5020018e-39
-2.0237591 0.78768086 0.10456569 1.4012985e-45
-2.0239425 0.7900722 0.10563616 0
-2.0261459 0.79922867 0.11334425 0
-2.0269051 0.80378091 0.1163687 1.0930128e-42
-2.0447404 0.92926222 0.1923029 9.18397e-41
-2.0428064 0.92804492 0.18733582 2.7586662e-40
-2.0429685 0.93565154 0.1897303 5.898714e-39
-2.0444114 0.94357365 0.19528583 7.5535564e-39
-2.0278759 0.74968821 0.10443895 2.3509886e-38
-2.0259366 0.75346625 0.10077586 2.0653648e-38
-2.0252621 0.75928873 0.10069051 1.4045215e-41
-2.0270185 0.76530778 0.10649741 8.2025412e-39
-2.0269902 0.77218276 0.10824204 7.8341132e-39
-2.0262353 0.77779436 0.10790791 3.3179567e-39
-2.0265739 0.78526294 0.1106905 1.5414283e-44
-2.0271895 0.79277694 0.11415078 1.8403813e-40
-2.0289619 0.79694575 0.119508 0
-2.0466168 0.92163438 0.19479997 4.2038954e-45
-2.045912 0.92945534 0.1951689 2.3016271e-39
-2.0461497 0.93220598 0.19646512 6.4511661e-39
-2.0288897 0.75297862 0.10774219 2.0650783e-38
-2.029846 0.76289153 0.11265293 8.1110658e-39
-2.026722 0.76476538 0.10564198 4.4250371e-39
-2.0298986 0.77107608 0.11493836 6.8199641e-39
-2.0281923 0.7798878 0.11316139 4.2038954e-45
-2.031291 0.78800172 0.12274558 3.7134409e-43
-2.0301766 0.79232365 0.12120771 9.1848108e-41
-2.046591 0.91924316 0.19410758 0
-2.0475068 0.92585087 0.19804963 2.6711313e-39
-2.050164 0.938658 0.20781049 7.6468143e-39
-2.04984 0.94201523 0.20791723 3.5945408e-39
-2.0308535 0.75610125 0.11328329 4.1480929e-39
-2.0308192 0.7591759 0.11401174 5.2544475e-39
-2.0312002 0.7651974 0.11651455 4.6097815e-39
-2.0315595 0.76723617 0.11791557 5.9902048e-39
-2.0330594 0.77612674 0.12386304 8.2941175e-40
-2.0330284 0.78301275 0.12560433 1.0832037e-42
-2.0329974 0.78989899 0.1273455 7.272739e-43
-2.0486894 0.90450865 0.19526395 0
-2.0524647 0.916587 0.2075192 0
-2.0498304 0.92050821 0.20222396 0
-2.0522094 0.92743349 0.20976548 2.949177e-39
-2.0492036 0.9264406 0.20228218 5.5284938e-39
-2.051682 0.93416923 0.21027403 7.3709504e-39
-2.0333235 0.74657381 0.11670586 1.7067028e-38
-2.0321007 0.75105882 0.11495084 3.685684e-39
-2.0352731 0.75752473 0.12427696 8.0188702e-39
-2.032866 0.75974709 0.11907996 7.9270361e-39
-2.0337694 0.76800126 0.12342677 6.3611397e-39
-2.0347621 0.77497035 0.12764908 4.2038954e-45
-2.0362906 0.78033429 0.13273568 5.6051939e-45
-2.0356212 0.78572226 0.13254772 4.2038954e-45
-2.0539138 0.91144085 0.20964397 2.7550649e-40
-2.0548635 0.91556799 0.21301338 2.7550649e-40
-2.0542142 0.91615617 0.21160892 0
-2.0528862 0.92086691 0.20965998 1.4012985e-45
-2.0567415 0.93438828 0.2224877 5.9898279e-39
-2.0558674 0.93606633 0.22082986 7.0947181e-39
-2.0376244 0.74155855 0.12571613 2.0837314e-38
-2.0350451 0.74857748 0.12137031 4.6087095e-39
-2.0332897 0.74958503 0.11741856 5.9005287e-39
-2.0357492 0.75786346 0.12551033 7.8355593e-39
-2.0347681 0.76268804 0.12442484 6.2671448e-39
-2.0350752 0.76975149 0.12702519 1.109237e-39
-2.0370362 0.77469456 0.13304009 3.629363e-43
-2.0390291 0.78379935 0.1402287 3.685415e-43
-2.0557976 0.90263706 0.2118478 9.2911693e-41
-2.0571201 0.90819538 0.21649095 2.8025969e-45
-2.0573564 0.91625386 0.21918327 0
-2.0584524 0.92388237 0.22382818 0
-2.0569623 0.92816406 0.22137637 7.003607e-39
-2.0542905 0.92669541 0.21457082 3.4097908e-39
-1.9260392 0.85270464 -0.11306502 0
-1.9274032 0.86340213 -0.10696743 0
-1.9274322 0.87032276 -0.10507334 0
-1.9278411 0.88288224 -0.10077918 7.286752e-43
-1.9336312 1.0425034 -0.044782422 4.5114524e-39
-1.934075 0.99599963 -0.055977616 1.3825687e-39
-1.9367151 1.0398587 -0.038070865 3.1259942e-39
-1.9323871 0.85358262 -0.097582132 7.3738693e-39
-1.9372046 0.98714358 -0.050793637 7.6475682e-39
-1.9370855 0.99415034 -0.049232397 5.9898433e-39
-1.9376798 1.0109696 -0.043370057 5.4345171e-39
-1.9386456 1.0169963 -0.039460603 8.2947214e-39
-1.9344182 0.83157432 -0.098505579 2.3509886e-38
-1.941204 0.98714602 -0.041184723 7.1876438e-39
-1.9400253 0.98861641 -0.043628152 9.0304914e-39
-1.9412626 1.0012488 -0.037324838 7.1898102e-39
-1.9412922 1.0083003 -0.035394989 7.5586025e-39
-1.9413215 1.0153517 -0.033465002 7.8359097e-39
-1.9381359 0.83888918 -0.08764521 7.7433651e-39
-1.937883 0.84875786 -0.085650437 7.283103e-39
-1.9458183 0.99643898 -0.027648315 9.2160738e-40
-1.9429433 1.0010663 -0.033335242 1.2889396e-39
-1.9406444 0.8501808 -0.078640893 6.4504753e-39
-1.9396973 0.87037027 -0.075593621 1.5414283e-44
-1.9473611 0.98894233 -0.025918106 1.4012985e-45
-1.9459594 0.99144578 -0.028625434 0
-1.94742 1.0030452 -0.022058312 0
-1.9504249 0.98631483 -0.019249825 4.2038954e-45
-1.9504545 0.9933663 -0.017319979 0
-1.9500625 0.88387495 -0.047130175 4.2038954e-45
-1.9541134 0.98024738 -0.011988313 1.4012985e-45
-1.9566801 1.0004661 -0.00049052201 1.2611686e-44
-1.9581237 0.97876352 -0.0027444791 1.4012985e-45
-1.9581532 0.98586076 -0.00080201594 4.2038954e-45
-1.9597837 0.99780464 0.0062642945 1.4012985e-45
-1.9628875 0.99514294 0.013019198 1.2611686e-44
-1.9634383 1.0044191 0.016788313 1.4733154e-39
-1.9644097 1.0018632 0.018448578 6.3586118e-39
-1.9660805 1.0139104 0.025639033 8.0141632e-39
-1.9674639 0.99212146 0.023217754 0
-1.9665524 0.84371942 -0.018099878 1.5414283e-44
-1.9833095 0.99827808 0.062910616 7.4642503e-39
-1.9864331 0.99559933 0.069708772 7.556799e-39
-1.9907906 0.96404523 0.071858108 0
-1.9926803 0.99024194 0.083305053 7.464602e-39
-1.9845947 0.82824683 0.021167632 1.5414283e-44
-1.9957138 0.96599686 0.084200874 7.0064923e-45
-1.9875729 0.81874746 0.025818061 0
-1.989336 0.83621877 0.034660451 5.6051939e-45
-1.990551 0.80924809 0.030468503 2.8562723e-39
-1.99058 0.81616867 0.032362603 5.6051939e-45
-2.0037899 0.95798397 0.10149137 1.4012985e-45
-2.0035765 0.96655816 0.10323928 5.6051939e-45
-1.993558 0.80666935 0.037013061 2.5811273e-39
-1.996594 0.8110112 0.045451675 8.4077908e-45
-2.0082979 0.97684848 0.11729597 7.0035888e-39
-2.0113316 0.9526034 0.11819177 0
-2.0132809 0.96436584 0.12597592 0
-2.0113916 0.96698099 0.12212675 7.3720533e-39
-2.0164242 0.9616701 0.13281733 0
-2.0175188 0.93286842 0.12785314 0
-2.0155902 0.93560904 0.12394243 0
-2.0175788 0.94724596 0.13178818 0
-2.0165968 0.90012759 0.11700594 1.4733196e-39
-2.0186045 0.91151845 0.12483231 1.0119841e-39
-2.0186343 0.91866148 0.12678728 3.6734198e-40
-2.0184894 0.92655212 0.1285198 1.8367099e-40
-2.0207324 0.95175606 0.14055377 5.5317378e-40
-2.0197103 0.90458035 0.1256599 1.011631e-39
-2.0197399 0.9116776 0.12760229 3.6734198e-40
-2.0222654 0.92973369 0.13843073 1.8367099e-40
-2.0238559 0.94907743 0.14735191 8.3370392e-40
-2.0258849 0.96081746 0.15532184 7.556799e-39
-2.0164783 0.79197788 0.088206284 0
-2.023689 0.89770132 0.1334051 1.841742e-39
-2.0227942 0.90193582 0.1323716 4.6097815e-40
-2.0228238 0.90903294 0.13431413 0
-2.026921 0.93512213 0.15103656 9.1836897e-41
-2.0278189 0.94472551 0.15572557 0
-2.0279932 0.94867188 0.15718518 5.1618567e-39
-2.0255539 0.94843704 0.15126264 7.3738399e-39
-2.0215387 0.7929846 0.1006294 0
-2.0215681 0.79999352 0.10254773 7.0064923e-45
-2.0295358 0.9268263 0.1551315 0
-2.030103 0.94371998 0.16094834 2.2141244e-39
-2.0332267 0.94104129 0.1677466 4.1448377e-39
-2.025584 0.79115725 0.10986626 8.4077908e-45
-2.0377908 0.92823213 0.17533447 1.8367239e-40
-2.0416021 0.94733864 0.18952931 7.6453821e-39
-2.0316641 0.79293114 0.12494165 1.4012985e-45
-2.031693 0.79989433 0.12684728 3.657389e-43
-2.0346897 0.79033649 0.13152641 1.5414283e-44
-2.0347185 0.79729968 0.13343206 1.821688e-44
-2.0521653 0.91448003 0.20624378 0
-2.0501261 0.9159925 0.20174339 1.8367099e-40
-2.040204 0.73806113 0.13099232 2.3509886e-38
-2.0414805 0.75271541 0.13792241 8.3865681e-39
-2.0389545 0.7563017 0.13279927 8.5727629e-39
-2.0402086 0.76546741 0.13822879 6.0795348e-39
-2.0391445 0.77058959 0.13702281 1.8727793e-40
-2.0383022 0.79609752 0.14172494 1.8512414e-40
-2.0501344 0.87716395 0.1915262 1.6584409e-39
-2.0443509 0.87632644 0.17741035 1.8404094e-40
-2.0545373 0.90078962 0.20833318 7.3827129e-40
-2.0553498 0.91174901 0.21317488 1.4012985e-45
-2.0530994 0.92182493 0.21042489 0
-2.0484972 0.93472689 0.20276976 7.5542697e-39
-2.0441022 0.73765969 0.14025158 2.3509886e-38
-2.0406566 0.7368595 0.1317627 1.1991986e-38
-2.0452774 0.75910264 0.14872849 8.5720384e-39
-2.0448165 0.76383328 0.14886887 7.6446787e-39
-2.0448461 0.77088475 0.15079881 4.6422496e-40
-2.0448754 0.77793616 0.15272868 4.2038954e-45
-2.0449047 0.78498757 0.15465865 0
-2.0545709 0.86965334 0.20020455 2.7659109e-40
-2.0533497 0.8750264 0.19868736 2.7658969e-40
-2.0542655 0.88441688 0.20336339 2.7658969e-40
-2.0585039 0.90168846 0.21810018 0
-2.0562932 0.9263925 0.21930228 0
-2.0475061 0.73141593 0.14678319 2.1948323e-38
-2.0477922 0.74005163 0.14974739 8.0171536e-39
-2.0484414 0.74575299 0.15281034 8.3869311e-39
-2.0481293 0.75661564 0.15492496 8.2954529e-39
-2.0479803 0.76381147 0.15646411 5.0660737e-39
-2.0455847 0.76398909 0.15075523 3.7166639e-40
-2.045902 0.77209133 0.15365386 4.2038954e-45
-2.0459311 0.77910024 0.1555721 0
-2.043766 0.78255272 0.15128055 0
-2.0573668 0.87448382 0.20819558 2.7658689e-40
-2.0571902 0.88185614 0.20971501 9.2197031e-41
-2.0604279 0.8955763 0.22111081 7.1746481e-43
-2.0587566 0.91564411 0.22238675 0
-2.061065 0.92399961 0.23013598 1.5658726e-39
-2.0594869 0.93096006 0.22817956 7.2787856e-39
-2.0512934 0.74325424 0.15900345 8.8475491e-39
-2.0511439 0.75045091 0.16054176 9.2148911e-39
-2.0509944 0.75764757 0.16208015 7.46353e-39
-2.0489182 0.76247072 0.15836373 0
-2.0489473 0.76947963 0.16028203 0
-2.0489767 0.77648854 0.16220032 5.6051939e-45
-2.0467916 0.77995807 0.15786542 4.2038954e-45
-2.059068 0.86575091 0.20997998 2.7658829e-40
-2.0591753 0.8699075 0.21133384 9.2197031e-41
-2.0558186 0.87243575 0.20393594 1.4012985e-45
-2.0599599 0.88667893 0.21764071 9.219563e-41
-2.060312 0.89499104 0.22067815 0
-2.0603421 0.90222567 0.22265807 0
-2.0617206 0.91306305 0.22882758 4.2038954e-45
-2.0640147 0.9214074 0.23653896 2.9502251e-39
-2.0638599 0.92886049 0.23813203 8.2000006e-39
-2.0542941 0.73355901 0.16365671 2.6827285e-39
-2.0541439 0.74075615 0.16519372 9.124129e-39
-2.055032 0.7494843 0.1696285 8.8471889e-39
-2.0496604 0.74818128 0.15637928 7.0961978e-39
-2.0540376 0.76300222 0.1708037 0
-2.0540671 0.77005363 0.17273356 7.0064923e-45
-2.0631509 0.86170799 0.21872316 9.2557165e-41
-2.064307 0.87134081 0.22404087 1.8439126e-40
-2.0611587 0.87380016 0.21712522 0
-2.0628967 0.88410199 0.22401705 9.219563e-41
-2.0638444 0.89356041 0.22878788 0
-2.0634856 0.89952993 0.22949962 0
-2.0635362 0.90837336 0.2319528 9.8090893e-45
-2.0635459 0.91399908 0.23345971 1.1985432e-39
-2.0640724 0.92084301 0.23652868 7.1880165e-39
-2.0570154 0.72651547 0.16833773 2.3509886e-38
-2.0581877 0.73253649 0.17274171 2.5894384e-39
-2.0580373 0.73975569 0.17428356 9.4914737e-39
-2.0578868 0.74697495 0.17582539 9.1226898e-39
-2.0570722 0.75332326 0.17554207 6.5408703e-39
-2.0571015 0.76037472 0.17747195 0
-2.0536094 0.76090789 0.16922264 7.300765e-43
-2.0640264 0.85548085 0.21918477 3.5873241e-43
-2.063036 0.86978722 0.2205774 4.2038954e-45
-2.0649872 0.87840456 0.22753702 1.4012985e-45
-2.0656471 0.88894629 0.23190208 1.4012985e-45
-2.0654922 0.89633048 0.23347686 0
-2.0653374 0.90371448 0.23505183 4.2038954e-45
-2.0688126 0.91732782 0.24699049 4.7916476e-39
-2.0685229 0.92455357 0.24819927 7.9237683e-39
-2.05845 0.72103506 0.17033918 2.2405702e-38
-2.0608912 0.73724651 0.18047878 9.4918297e-39
-2.0607402 0.74446613 0.18201946 9.1234045e-39
-2.0591416 0.74917215 0.1794197 4.2399144e-39
-2.0589144 0.75627995 0.18074779 2.3822074e-44
-2.0580835 0.7616446 0.18016641 0
-2.0565591 0.76493007 0.17736958 7.272739e-43
-2.056999 0.77278548 0.18049793 7.2166871e-43
-2.0667741 0.86027598 0.22705056 4.2038954e-45
-2.0666196 0.86761373 0.22861405 0
-2.067595 0.87695575 0.23342051 1.4012985e-45
-2.0677471 0.88556916 0.23605715 5.6051939e-45
-2.0675099 0.89285886 0.23740937 9.18397e-41
-2.0673344 0.89755702 0.23822647 1.9357439e-39
-2.0706959 0.91030955 0.24966435 6.6341099e-39
-2.0717032 0.91894907 0.25436282 7.7390113e-39
-2.0650346 0.72911745 0.18829016 6.5426723e-39
-2.0626664 0.73176891 0.18329912 9.3081587e-39
-2.0635922 0.7419582 0.18821038 8.1110546e-39
-2.0634406 0.74917835 0.18974976 5.5285022e-39
-2.0632892 0.75639856 0.19128937 7.3691666e-39
-2.0611291 0.75903296 0.18679425 1.0230488e-38
-2.0619648 0.76616842 0.19068339 4.2384766e-39
-2.0602262 0.77155697 0.18792731 1.1052784e-39
-2.0684183 0.8625865 0.23161004 3.4079971e-39
-2.0705006 0.87440062 0.23972765 3.8696969e-39
-2.0714827 0.88383335 0.24457435 3.6860273e-39
-2.0702248 0.88788128 0.24261947 6.9089325e-39
-2.0699868 0.89516348 0.2439675 7.5542767e-39
-2.0758898 0.91126037 0.26239389 6.907087e-39
-2.0754595 0.91687256 0.26284009 7.645015e-39
-2.0643277 0.71650594 0.18326665 1.669001e-38
-2.0678988 0.72660637 0.19450918 7.5553795e-39
-2.0677454 0.73385125 0.19605102 9.1234101e-39
-2.0675921 0.7410962 0.19759291 7.373505e-39
-2.0674388 0.74834102 0.19913466 7.7418839e-39
-2.0661387 0.75389224 0.19747481 1.4468971e-38
-2.0645638 0.75891882 0.19501598 1.2257312e-38
-2.0636694 0.76336479 0.19404012 6.913589e-39
-2.0727444 0.85137677 0.2390478 8.8457414e-39
-2.0710526 0.86021549 0.23731385 9.1226786e-39
-2.0717149 0.86900753 0.24122323 9.1219583e-39
-2.073112 0.87820983 0.24700616 9.1215968e-39
-2.0728729 0.88549161 0.24835159 8.8446344e-39
-2.0752325 0.89816821 0.25736284 7.7372176e-39
-2.0784366 0.90740275 0.26749566 5.5277721e-39
-2.0697932 0.72233397 0.19793399 7.4642657e-39
-2.0695407 0.72989488 0.19932105 9.2145351e-39
-2.0693867 0.73711932 0.20085584 6.7263489e-39
-2.0702999 0.74583244 0.20534723 8.4758995e-39
-2.0689869 0.75138688 0.20365721 1.4194188e-38
-2.0676765 0.75579172 0.20167045 1.2904517e-38
-2.0741699 0.84613144 0.24108995 8.4769575e-39
-2.0752168 0.85556489 0.2460923 8.5691489e-39
-2.0758922 0.86441427 0.25004828 8.9379244e-39
-2.0756528 0.87169635 0.2513929 8.8453687e-39
-2.0761917 0.87936521 0.25470951 9.0276047e-39
-2.0794802 0.89376557 0.26640743 8.4740582e-39
-2.0804708 0.90324885 0.27128768 6.4472075e-39
-2.0712178 0.71416748 0.19920327 7.5802414e-39
-2.0701189 0.71615344 0.19708723 5.7103865e-39
-2.069329 0.71995008 0.1961899 8.0188674e-39
-2.0724096 0.73083955 0.20646285 8.6606285e-39
-2.0731599 0.74332446 0.21155688 9.3066971e-39
-2.0724208 0.74723709 0.21081336 9.0326536e-39
-2.0724778 0.75665581 0.21343298 1.1430818e-38
-2.0796831 0.84090674 0.25295755 8.4773148e-39
-2.0794411 0.84819567 0.2542986 8.5691489e-39
-2.0791998 0.85548466 0.25564003 8.6609858e-39
-2.080694 0.86474216 0.2616708 8.6624193e-39
-2.0804508 0.87205762 0.26301557 8.6620522e-39
-2.0811267 0.88099122 0.26699471 8.9368398e-39
-2.0836682 0.89342618 0.27637947 7.9226851e-39
-2.0847213 0.90192342 0.28115004 6.9074668e-39
-2.0756323 0.71183145 0.20919396 6.8347744e-39
-2.0743527 0.71920919 0.20806475 8.4791281e-39
-2.0731936 0.72055066 0.20563354 7.5571676e-39
-2.074702 0.72661769 0.21085732 7.5560956e-39
-2.0760183 0.74081713 0.21776344 7.3716917e-39
-2.0748258 0.74650359 0.2163974 8.7560737e-39
-2.0847576 0.8407715 0.26511398 7.7415462e-39
-2.0853217 0.8484503 0.26849371 8.7535318e-39
-2.0850756 0.85579336 0.26983833 8.2025132e-39
-2.0847082 0.86467868 0.27129871 7.8326531e-39
-2.0856597 0.87373465 0.2759724 7.1880095e-39
-2.0846524 0.88014138 0.27524114 8.2025118e-39
-2.0866787 0.89041179 0.28281757 7.0951076e-39
-2.0874007 0.89948815 0.28694546 7.8304979e-39
-2.0891054 0.90638846 0.29286021 7.9237697e-39
-2.0808768 0.70205504 0.219216 2.3509886e-38
-2.0783727 0.70648426 0.21436754 9.5848913e-39
-2.0753186 0.70941877 0.20780365 8.2029083e-39
-2.0761099 0.71847659 0.21209319 9.1237758e-39
-2.0762682 0.72494799 0.21417995 6.5397745e-39
-2.0785191 0.73493069 0.22221994 5.6221412e-39
-2.0781047 0.74032897 0.22264749 5.1636783e-39
-2.0878537 0.8390922 0.27210927 6.7266516e-39
-2.0890689 0.84884745 0.27760148 8.6602543e-39
-2.0889091 0.85628307 0.27917773 6.7281188e-39
-2.0887492 0.86371857 0.280754 7.4649649e-39
-2.0876837 0.86883712 0.27954361 6.5426317e-39
-2.0884295 0.87858951 0.28390673 7.6489638e-39
-2.0899606 0.88728189 0.28987685 6.9099947e-39
-2.0895865 0.89625907 0.29134569 8.0148863e-39
-2.0805774 0.69347525 0.21623449 2.3509886e-38
-2.081064 0.70428199 0.22025299 8.7511425e-39
-2.0798812 0.71023518 0.21898085 9.2159659e-39
-2.0815191 0.71664625 0.22460644 8.8479106e-39
-2.0792632 0.7235207 0.22099917 7.0032805e-39
-2.0810368 0.73097664 0.22722566 6.8199627e-39
-2.0793722 0.73635405 0.2246445 0
-2.080343 0.74366522 0.22890477 6.1738674e-39
-2.091831 0.83783692 0.28133407 8.1085253e-39
-2.0925922 0.84683025 0.2855342 7.5557271e-39
-2.0913994 0.85263568 0.28419912 8.569509e-39
-2.0901406 0.85832345 0.28267452 9.1230359e-39
-2.0909023 0.8673628 0.28688768 8.108884e-39
-2.0911014 0.87550396 0.28951257 7.9216145e-39
-2.0926342 0.88486266 0.29566318 6.6312358e-39
-2.0923836 0.89226079 0.29701108 8.1056428e-39
-2.0869017 0.69026083 0.23058119 2.3509886e-38
-2.0844734 0.69383997 0.22569072 2.3509886e-38
-2.0827155 0.70074981 0.2232894 7.2770508e-39
-2.0824747 0.70790666 0.22459814 9.123773e-39
-2.0837903 0.71222103 0.22889639 8.8486309e-39
-2.0842838 0.72203165 0.23266821 7.0943902e-39
-2.0844123 0.7288326 0.23477048 5.6207118e-39
-2.0851204 0.7372914 0.23870172 1.3789772e-39
-2.0946014 0.83564121 0.28741133 8.7535402e-39
-2.0943491 0.84300375 0.28874648 7.6479031e-39
-2.0950103 0.85181177 0.29265684 9.5847386e-39
-2.0951478 0.8587938 0.2948285 9.6740615e-39
-2.0948954 0.86617392 0.29616779 8.5691405e-39
-2.0956578 0.87526274 0.30039594 8.0145332e-39
-2.0963171 0.88417625 0.30433017 6.8142005e-39
-2.0975401 0.89410841 0.30988735 8.2907599e-39
-2.0852873 0.6890772 0.22639106 2.3509886e-38
-2.0882268 0.70093095 0.23657802 3.6882288e-39
-2.0860016 0.70427561 0.23211405 9.1244933e-39
-2.0877988 0.7116968 0.23838869 8.3883674e-39
-2.0883398 0.71903926 0.24162413 7.1880165e-39
-2.088094 0.72623146 0.24293013 5.0661073e-39
-2.0899239 0.73750061 0.25029731 1.7509925e-39
-2.0969043 0.827775 0.29086998 8.384043e-39
-2.0973918 0.83164829 0.29306224 8.4773106e-39
-2.0971384 0.83901173 0.29439503 8.2010937e-39
-2.0981932 0.84739488 0.29913941 7.7404672e-39
-2.0988362 0.85805839 0.30349585 8.3847492e-39
-2.098582 0.86545897 0.30483663 8.4765791e-39
-2.0998573 0.87542349 0.31052762 8.1996475e-39
-2.0994942 0.88262796 0.3115547 7.3698826e-39
-2.1020992 0.89381683 0.32076344 8.4769435e-39
-2.101042 0.89691067 0.3190397 7.8312209e-39
-2.0852294 0.68307596 0.22466898 2.3509886e-38
-2.0899763 0.70367998 0.24150605 9.2159743e-39
-2.0932813 0.71308094 0.25192505 7.741926e-39
-2.0931213 0.72038054 0.25346518 7.0029218e-39
-2.0920181 0.72559088 0.25218853 3.9611835e-39
-2.0922756 0.73348391 0.25488856 2.7655088e-39
-2.0988092 0.82329202 0.29426473 8.2932893e-39
-2.0977952 0.82532716 0.2923651 7.7422707e-39
-2.0999341 0.83354741 0.29967105 9.4910982e-39
-2.102025 0.84353524 0.30732813 9.214161e-39
-2.1022859 0.85177308 0.31012654 9.121594e-39
-2.1020293 0.85918319 0.31146422 8.3854611e-39
-2.1017733 0.86659348 0.31280246 9.3070615e-39
-2.1040137 0.87808579 0.32121542 7.1858613e-39
-2.1040289 0.88490576 0.32305032 8.4783812e-39
-2.1047997 0.89409709 0.32732517 8.8439197e-39
-2.0936832 0.69516933 0.24816801 5.3452152e-39
-2.0934362 0.70237738 0.2494753 9.3074454e-39
-2.0951211 0.70881349 0.25522012 7.7419246e-39
-2.0948725 0.71602994 0.2565257 6.819248e-39
-2.094624 0.72324628 0.25783175 8.2947326e-39
-2.094887 0.73114204 0.26054525 8.5713111e-39
-2.1006024 0.82027286 0.29777643 8.1096071e-39
-2.1010542 0.83152407 0.30182856 7.6507981e-39
-2.1041701 0.84034765 0.31164113 9.0304802e-39
-2.104955 0.84936672 0.31590462 9.1226758e-39
-2.1046975 0.85677683 0.31724 8.937923e-39
-2.1044405 0.86418694 0.31857598 8.6620508e-39
-2.1055777 0.87386155 0.32385951 7.0936685e-39
-2.1067061 0.88247138 0.32884032 8.9375629e-39
-2.0967546 0.69340998 0.25508341 7.1876704e-39
-2.0965056 0.70062631 0.2563881 9.3989208e-39
-2.0968635 0.70544165 0.25851738 7.9255942e-39
-2.0968733 0.71211421 0.26029992 5.7099956e-39
-2.0974855 0.71629184 0.26287255 6.9103548e-39
-2.0988638 0.72967184 0.26971158 7.6497248e-39
-2.1040666 0.81927824 0.30583736 6.4479418e-39
-2.103745 0.82734329 0.30719087 7.5560718e-39
-2.1074035 0.84008551 0.31934035 4.8849264e-39
-2.1064892 0.84371334 0.31810024 4.9778451e-39
-2.1060653 0.85372037 0.31971979 5.8065282e-39
-2.1074941 0.86178929 0.32528046 4.7923749e-39
-2.1114831 0.88351691 0.34059292 8.0199296e-39
-2.0989981 0.68891186 0.25928733 8.4769687e-39
-2.0982378 0.69728512 0.25966862 9.2152456e-39
-2.0967898 0.69693625 0.256098 8.0181485e-39
-2.1004755 0.71459264 0.26960787 7.0007498e-39
-2.0999959 0.72358954 0.27082792 5.7107242e-39
-2.1107163 0.84604275 0.32887033 7.7368603e-39
-2.1166744 0.8589744 0.34659413 8.6617005e-39
-2.1106377 0.85909355 0.33212194 9.402162e-39
-2.1132412 0.87205374 0.34179437 1.0045362e-38
-2.1020727 0.68714273 0.26620805 9.2141596e-39
-2.100955 0.6933645 0.26516312 8.9382986e-39
-2.1009541 0.70139086 0.2672773 8.2918459e-39
-2.1014545 0.71560204 0.27222621 7.0929496e-39
-1.9295241 0.85373789 -0.10441993 0
-1.9303862 0.85467517 -0.10210171 1.0876901e-38
-1.9301403 0.89272404 -0.092660718 0
-1.933131 0.84563279 -0.097891293 9.406024e-39
-1.9298015 1.0160762 -0.060951289 5.706753e-39
-1.9378083 0.82644749 -0.091712609 2.3509886e-38
-1.9349619 0.85707408 -0.090475798 6.5455394e-39
-1.9343526 0.8707298 -0.08833912 7.0061616e-39
-1.9325945 1.006875 -0.05666687 4.1455467e-39
-1.9367929 0.86851531 -0.083060361 4.6076305e-39
-1.9360577 1.0161377 -0.045904264 2.666458e-39
-1.9430245 0.81512272 -0.082166135 2.3509886e-38
-1.9391047 0.83537978 -0.08624278 8.1121392e-39
-1.9445773 0.86438727 -0.065446451 1.460153e-42
-1.9447228 0.848216 -0.069360659 1.5414283e-44
-1.9479089 0.98339874 -0.026063688 0
-1.945938 0.9931429 -0.028229892 2.7623797e-40
-1.9483817 0.81869 -0.068355247 7.7440826e-39
-1.948077 0.82551795 -0.067286864 8.6638753e-39
-1.9488569 0.84278411 -0.060860489 3.3175951e-39
-1.9519248 0.82681841 -0.057699583 8.5716754e-39
-1.9529068 0.83694708 -0.052669391 7.6490101e-39
-1.9525987 0.84385371 -0.051588632 1.7470731e-39
-1.9522907 0.85076046 -0.050508067 3.0828566e-44
-1.955067 0.84161365 -0.04624892 1.8404094e-40
-1.9580388 0.86378753 -0.033262845 1.44614e-42
-1.9641548 0.85513514 -0.020850465 1.460153e-42
-1.9652854 0.86580789 -0.015320376 1.098618e-42
-1.9635272 0.86920196 -0.018649457 9.219563e-40
-1.9637514 1.0142229 0.020125866 7.7426182e-39
-1.9650859 0.84897017 -0.02023896 2.7589044e-40
-1.9678137 0.86351335 -0.0098508149 8.4077908e-45
-1.9666479 1.0046813 0.024568744 6.3589075e-39
-1.9663264 1.0118861 0.025696067 8.2921963e-39
-1.9644639 1.0142717 0.021850776 8.0155898e-39
-1.9641446 1.021432 0.022971097 8.1077854e-39
-1.9773508 0.82966232 0.0041369954 1.5414283e-44
-1.9748069 0.96499217 0.03370674 3.6734198e-40
-1.982751 0.84165877 0.020274233 2.7589044e-40
-1.9824333 0.84877777 0.021388112 2.5265411e-42
-1.9852953 0.83934981 0.025778117 2.7589044e-40
-1.9849777 0.84646887 0.026891995 2.5265411e-42
-1.9861436 0.83330274 0.026221823 2.7589044e-40
-1.9886719 0.83100826 0.031691268 1.460153e-42
-1.9986228 0.97339785 0.093140811 0
-2.0002799 0.81688184 0.055855364 3.7835059e-43
-2.0012465 0.97101671 0.098816901 3.6734198e-40
-2.0041981 0.96129376 0.10334434 0
-2.005398 0.81223732 0.066926844 1.8202867e-42
-2.0098999 0.9337312 0.10977596 1.7495464e-39
-2.0070517 0.91850048 0.098917283 1.4733196e-39
-2.0096424 0.91614926 0.10452189 1.3811226e-39
-2.0111165 0.92760003 0.1110826 4.5918589e-40
-2.014374 0.91064698 0.114439 2.026492e-39
-2.0140486 0.91794062 0.11558029 1.1038294e-39
-2.015676 0.92974359 0.12260234 3.6734198e-40
-2.0171602 0.94131696 0.12921895 3.6734198e-40
-2.0186276 0.92002058 0.12712981 8.2724394e-40
-2.0197999 0.93892133 0.13492957 3.6734198e-40
-2.0213537 0.77529699 0.095521353 1.0227604e-38
-2.0212517 0.91763943 0.13280591 7.3504691e-40
-2.0221944 0.90355009 0.13135615 1.4733196e-39
-2.027745 0.92377192 0.15002361 6.4284847e-40
-2.0260866 0.9609434 0.15583983 9.0268704e-39
-2.027482 0.89085186 0.14071186 2.7647773e-39
-2.0326147 0.78211784 0.12437407 1.5666265e-39
-2.0320067 0.89240736 0.15199299 2.6718614e-39
-2.0337224 0.90408117 0.15919234 2.026492e-39
-2.0354335 0.91585082 0.16640694 1.011631e-39
-2.0371404 0.92771643 0.17363645 3.6734198e-40
-2.0346465 0.89001173 0.15770362 2.4871114e-39
-2.0405037 0.91021383 0.17710188 1.841742e-39
-2.0381076 0.91342407 0.17219172 7.3504691e-40
-2.0398316 0.92527407 0.17945828 3.6734198e-40
-2.0326209 0.79963696 0.12900855 5.5571433e-40
-2.0431948 0.90777153 0.18292363 1.7502554e-39
-2.0425229 0.92283177 0.18528011 4.5917748e-40
-2.0476444 0.91714823 0.19608611 7.3504691e-40
-2.0452142 0.92038953 0.19110185 4.5917748e-40
-2.0498195 0.77702087 0.16436546 1.821688e-44
-2.0540755 0.889498 0.20424652 2.3030677e-39
-2.0527887 0.76723897 0.16892029 6.4286249e-40
-2.0557582 0.75745702 0.17347521 6.9107262e-39
-2.0554287 0.76484329 0.17463088 4.2038954e-45
-2.0580683 0.76244766 0.18034133 0
-2.0577388 0.76983404 0.1814971 9.1845305e-41
-2.0622005 0.88212448 0.22182316 2.7658689e-40
-2.0611861 0.90485895 0.22538027 0
-2.0603786 0.76743835 0.18720764 1.821688e-44
-2.064909 0.87966657 0.22768208 2.7658689e-40
-2.0616972 0.89820564 0.22485428 0
-2.0630183 0.76504278 0.19291809 0
-2.0735693 0.7537874 0.21529971 1.5115064e-38
-2.0795467 0.73409653 0.22446853 8.1103217e-39
-2.0842276 0.74234277 0.2378888 0
-2.0893638 0.68798393 0.2358959 2.3509886e-38
-2.0912905 0.6979425 0.24315074 2.3509886e-38
-2.0939817 0.69550025 0.24897255 2.3509886e-38
-2.099431 0.68836844 0.26018435 2.3509886e-38
-2.0971491 0.68753541 0.2544826 7.4679063e-39
-2.0384963 0.71294427 0.12026653 2.3509886e-38
-2.0379694 0.71957129 0.12074814 2.3509886e-38
-2.0435314 0.71643251 0.13328354 2.3509886e-38
-2.0413051 0.72055149 0.12902066 2.3509886e-38
-2.0324562 0.73631597 0.1119176 2.8685364e-39
-2.0451908 0.71481645 0.13684419 2.3509886e-38
-2.0446584 0.72151458 0.13733096 2.3509886e-38
-2.0407262 0.72300035 0.1282755 2.1305834e-38
-2.0297492 0.90906215 0.15096006 7.1746481e-43
-2.0487359 0.7159794 0.14566809 2.3509886e-38
-2.0463178 0.71989852 0.14089158 2.3509886e-38
-2.0401354 0.72539532 0.12748744 2.3509886e-38
-2.050405 0.71435392 0.14924954 2.3509886e-38
-2.0462568 0.71572906 0.13964596 2.3509886e-38
-2.0417683 0.72380501 0.13099135 2.0754821e-38
-2.0543444 0.70846486 0.15716156 2.3509886e-38
-2.0520742 0.71272838 0.15283109 2.3509886e-38
-2.0479076 0.71412152 0.14318778 2.1397669e-38
-2.0439253 0.71562326 0.13401625 2.2590806e-38
-2.0560224 0.70683068 0.16076198 2.3509886e-38
-2.0518284 0.70835215 0.1510869 2.3509886e-38
-2.0472934 0.71660471 0.14236689 2.3509886e-38
-2.053488 0.70673609 0.15464753 2.3509886e-38
-2.0489352 0.71500582 0.14588986 2.3050708e-38
-2.0457742 0.75476772 0.14877927 1.6815582e-44
-2.0505767 0.71340698 0.14941253 1.974463e-38
-2.065495 0.70044398 0.18183577 2.3509886e-38
-2.0610561 0.70192844 0.1715631 2.3509886e-38
-2.0568068 0.70350391 0.16176893 1.9101782e-38
-2.0545099 0.70769155 0.15735477 2.3509886e-38
-2.0652325 0.69615632 0.18007459 2.3509886e-38
-2.0627341 0.70029432 0.17516352 2.3509886e-38
-2.0561604 0.70608401 0.16089658 2.3509886e-38
-2.0568116 0.77479535 0.18057756 2.5265411e-42
-2.0712273 0.69263804 0.19355018 2.3509886e-38
-2.0688896 0.69713807 0.1891198 2.3509886e-38
-2.0644121 0.69866025 0.17876382 2.3509886e-38
-2.062089 0.70297521 0.17432 1.9731345e-38
-2.0729337 0.69097644 0.19721118 2.3509886e-38
-2.0705867 0.69548506 0.19276178 2.3509886e-38
-2.0680659 0.69968116 0.187812 2.0846656e-38
-2.0637579 0.70134974 0.17790134 2.3234378e-38
-2.0717394 0.70068312 0.19690169 2.3142544e-38
-2.0672295 0.70216477 0.18645686 2.3509886e-38
-2.0656142 0.72248328 0.18793337 8.5756425e-39
-2.0650756 0.72925609 0.18842556 7.6551282e-39
-2.0689075 0.70053071 0.19005732 2.1856847e-38
-2.0683689 0.70730352 0.19054936 3.2376679e-39
-2.0667539 0.72762203 0.19202591 8.2965305e-39
-2.0666821 0.86721319 0.2286586 3.671402e-43
-2.0655742 0.88115013 0.22967145 1.44614e-42
-2.0612798 0.90491033 0.22561876 1.9324929e-39
-2.0756788 0.69052613 0.20368776 2.3509886e-38
-2.075134 0.69737715 0.20418556 2.3509886e-38
-2.0704212 0.72881025 0.20115055 6.7299307e-39
-2.066299 0.86168468 0.22628066 1.2611686e-44
-2.0817792 0.68686914 0.21737994 2.3509886e-38
-2.0792105 0.69121689 0.21235514 2.3509886e-38
-2.0715675 0.73397863 0.20526688 7.2834548e-39
-2.0768948 0.71462435 0.21296315 8.4834497e-39
-2.0763502 0.72147548 0.21346109 7.9284738e-39
-2.082468 0.68391424 0.21825573 2.3509886e-38
-2.0810442 0.72755194 0.22634058 6.0870822e-39
-2.0865824 0.67768395 0.22649831 2.3509886e-38
-2.0836205 0.68911225 0.22239555 5.2566727e-39
-2.0832977 0.71900374 0.22950101 7.0983446e-39
-2.0903583 0.67851412 0.23578846 2.3509886e-38
-2.0877411 0.68290901 0.23065963 2.3509886e-38
-2.0920739 0.67684305 0.2394702 2.3509886e-38
-2.0867369 0.83249682 0.26768747 7.3720533e-39
-2.0907559 0.85394835 0.28299931 8.8497043e-39
-2.0930758 0.8451485 0.28625274 1.0227954e-38
-2.1001399 0.68676269 0.26146412 9.6747804e-39
-2.099586 0.69373113 0.26197046 8.9397391e-39
-2.1149735 0.83272439 0.33558664 8.1110252e-39
-2.1096396 0.8326897 0.32276258 8.2896585e-39
-2.1179104 0.84912235 0.34696615 1.1885989e-38
-2.1127188 0.88208228 0.34318361 7.8344579e-39
-2.0135131 0.90277219 0.11029441 1.4726133e-39
-2.0196807 0.89748305 0.12371747 1.1066951e-39
-2.0491941 0.86777943 0.18679258 1.7506366e-39
-2.0421648 0.86518079 0.16921927 2.7623797e-40
-2.0495219 0.85632998 0.18456136 1.4012985e-45
-2.0564847 0.85355496 0.20055792 2.8025969e-45
-2.0563331 0.86093634 0.2021396 1.8403673e-40
-2.0548515 0.86477995 0.19959369 0
-2.0594013 0.8509832 0.20688698 2.8025969e-45
-2.0594654 0.85519081 0.20815016 9.219563e-41
-2.0622954 0.84842765 0.21316688 1.4012985e-45
-2.0646155 0.85652775 0.22087631 0
-2.0620105 0.83280617 0.20836335 8.4077908e-45
-2.0640905 0.84396303 0.21630196 2.8025969e-45
-2.0641804 0.84814352 0.21762015 2.8025969e-45
-2.0630229 0.86046255 0.21808757 3.643376e-43
-2.0632553 0.83479321 0.21187826 1.4012985e-45
-2.0639453 0.83983749 0.2148656 1.4012985e-45
-2.064606 0.84859556 0.21876201 1.4012985e-45
-2.0677063 0.83920789 0.22373562 5.6203349e-39
-2.0663359 0.84467381 0.22188415 4.2377536e-39
-2.0682435 0.85461396 0.22908783 4.0533525e-39
-2.0724337 0.8242932 0.23116055 8.8450155e-39
-2.0709822 0.82929885 0.22899289 8.6617103e-39
-2.0744085 0.83889449 0.23975495 8.3858408e-39
-2.0761971 0.8219111 0.23957431 8.4766015e-39
-2.0758421 0.83062881 0.24101993 8.3844059e-39
-2.0817237 0.81650293 0.25142634 8.4769547e-39
-2.0814812 0.82379222 0.25276557 8.2007237e-39
-2.0812387 0.83108169 0.25410524 8.4769561e-39
-2.0859454 0.81671679 0.2616252 8.5694978e-39
-2.0845976 0.82217753 0.25982714 7.7400931e-39
-2.0851681 0.82981217 0.26321039 8.4776637e-39
-2.0890145 0.80676347 0.26637474 7.3716917e-39
-2.0884244 0.81395388 0.26685253 8.3854751e-39
-2.0880597 0.82012498 0.2676037 8.2007209e-39
-2.0897446 0.83085066 0.27447942 8.844647e-39
-2.0919237 0.80419928 0.27268803 8.3858296e-39
-2.0929866 0.81345761 0.27768251 8.7528227e-39
-2.0928257 0.82087183 0.2792505 8.7528213e-39
-2.0928674 0.8288641 0.28145826 8.568786e-39
-2.0960679 0.80347747 0.28245428 8.3847632e-39
-2.0961523 0.81017983 0.28442395 8.2936382e-39
-2.0970671 0.82033354 0.28929907 8.2014384e-39
-2.0981622 0.79586148 0.28547773 8.1106917e-39
-2.098825 0.80832779 0.29035717 8.3854807e-39
-2.0990632 0.81592882 0.29293317 8.2943655e-39
-2.1008863 0.7926861 0.29118526 8.9389936e-39
-2.1019197 0.80179518 0.29606947 8.8475295e-39
-2.1000214 0.80596429 0.2926082 8.7546122e-39
-2.101728 0.81620139 0.29940736 9.0301299e-39
-2.1019928 0.79495704 0.29444262 6.4515361e-39
-2.1023614 0.80985653 0.29925638 7.3688135e-39
-2.0081644 0.90478766 0.097975112 2.118689e-39
-2.0228894 0.88093066 0.12706219 2.7647773e-39
-2.0251856 0.88589126 0.1338869 2.7644045e-39
-2.0278096 0.88351005 0.1395631 2.7640584e-39
-2.0434523 0.85113949 0.16861048 1.1974866e-39
-2.0431185 0.85862166 0.16978124 1.105291e-39
-2.0509291 0.8501755 0.18631962 4.6422496e-40
-2.0539563 0.84020311 0.19096297 2.7623797e-40
-2.0620298 0.83287621 0.20842826 5.6051939e-45
-2.0647211 0.83043385 0.21425016 1.4012985e-45
-2.0546656 0.8563658 0.19692874 3.2369995e-42
-2.0563629 0.85471278 0.20057073 3.2369995e-42
-2.0575156 0.85991102 0.20471063 1.0860063e-42
-2.0632067 0.85293281 0.21654384 5.6051939e-45
-2.1063342 0.79199958 0.30409321 8.1096225e-39
-1.9330512 0.96870524 -0.065633535 7.3648184e-40
-1.9355942 0.96499801 -0.06050152 2.7623797e-40
-1.9346282 0.96706647 -0.062276687 2.7589044e-40
-1.9350274 0.97337413 -0.059654925 1.8369341e-40
-1.9347563 0.97573745 -0.059683003 9.1835496e-41
-1.9358253 0.98598957 -0.054411355 0
-1.9372936 0.96911842 -0.055331845 8.6635334e-39
-1.9369113 0.97455746 -0.054816473 8.2943823e-39
-1.937475 0.98004544 -0.052015703 7.1876508e-39
-1.9387797 0.96675014 -0.052386515 7.8333929e-39
-1.9394672 0.97541088 -0.048451457 8.8457274e-39
-1.9424052 0.96196872 -0.044936437 3.6823952e-39
-1.9442259 0.97254807 -0.037772663 3.4979997e-39
-1.9443407 0.96002138 -0.040799934 9.18397e-41
-1.9475582 0.9764778 -0.028730705 1.4012985e-45
-1.9484552 0.96028298 -0.030845607 9.219563e-41
-1.9522277 0.95279884 -0.023755759 0
-1.9526266 0.9591065 -0.021133907 0
-1.9519132 0.96076769 -0.022410125 1.8403673e-40
-1.9551609 0.95042086 -0.017335583 0
-1.9555598 0.95672852 -0.01471382 0
-1.9559174 0.94399905 -0.017211514 2.7658689e-40
-1.9584931 0.95435059 -0.0082935821 0
-1.9740829 0.92969567 0.022661358 0
-1.9744797 0.93596601 0.025267564 1.8367099e-40
-1.9755069 0.92360514 0.024476351 0
-1.9759014 0.92984128 0.027068451 9.1835496e-41
-1.9811608 0.92271161 0.037824251 0
-1.9784069 0.92125422 0.030823745 3.6734198e-40
-1.989861 0.93265051 0.061346948 0
-1.9350172 0.97829807 -0.058380928 0
-1.9334364 0.98360103 -0.060780909 1.9346579e-39
-1.9397223 0.96162456 -0.051473055 6.4504319e-39
-1.9411449 0.97304308 -0.045044508 6.5422744e-39
-1.9412766 0.96129 -0.047827091 1.1056385e-39
-1.9413056 0.96825314 -0.045921382 1.1981929e-39
-1.9443312 0.96565849 -0.039336622 1.4012985e-45
-1.9488689 0.96794671 -0.027831146 1.8367379e-40
-1.9487442 0.97495824 -0.02628232 1.8367239e-40
-1.9527493 0.96864426 -0.018324554 0
-1.9415936 0.96537584 -0.045987871 5.0671429e-39
-1.9468793 0.97204256 -0.031531438 0
-1.9560409 0.94786823 -0.015894299 2.7623797e-40
-1.9575616 0.94885087 -0.011981572 2.7658689e-40
-1.9643416 0.94133335 0.0023254799 1.1960251e-39
-2.0176206 1.009413 0.14827962 7.5495333e-39
-2.0299923 0.99831635 0.17507717 7.6428135e-39
-2.056622 0.97431576 0.23272763 7.1800361e-39
-2.0580604 0.97407407 0.23611997 5.7999982e-39
-2.060885 0.97167748 0.24227415 5.7999982e-39
-2.0697596 0.9633022 0.26138741 5.6112923e-39
-2.0696034 0.97083044 0.26299697 7.9165208e-39
-2.0739238 0.96310347 0.27133983 6.0719047e-39
-2.0725734 0.96820891 0.26944175 8.0094283e-39
-2.0769062 0.96048117 0.27781326 6.6236394e-39
-2.0755424 0.96558815 0.27588338 8.3778548e-39
-2.0798872 0.95785969 0.28428385 7.0853252e-39
-2.0772924 0.9605962 0.27877173 8.5625992e-39
-2.0801907 0.95330673 0.28381279 8.1030686e-39
-2.0889969 0.94605488 0.30305791 6.9027318e-39
-2.0863402 0.94887149 0.29741764 8.8388246e-39
-2.0949469 0.94079506 0.31596655 8.100898e-39
-2.1232352 0.91512901 0.37716222 1.7515021e-38
-2.1360245 0.90173489 0.40435734 1.7698341e-38
-2.1428707 0.9003045 0.42042848 1.7328834e-38
-2.1441331 0.89357054 0.42168608 1.7329544e-38
-2.1516953 0.89019269 0.4389638 1.8342973e-38
-2.1468561 0.89108247 0.42757189 1.8250786e-38
-2.1443918 0.89544702 0.4228023 1.8527734e-38
-2.1485837 0.88968194 0.43135342 1.8527367e-38
-1.9419519 1.0790148 -0.015165115 9.3987891e-41
-1.9443661 1.081549 -0.0086965086 1.0132499e-38
-1.9745582 1.049431 0.055372585 6.8126969e-39
-1.9901057 1.0416046 0.090662256 7.2693535e-39
-1.9289711 0.90852398 -0.091303706 3.61535e-43
-1.9325321 0.9519673 -0.071293801 1.1052658e-39
-1.930778 0.90886503 -0.086872615 0
-1.9311702 0.9150638 -0.084296137 0
-1.9367634 0.95207334 -0.061100006 2.7589044e-40
-1.9334881 0.90701669 -0.080848619 9.3092279e-39
-1.9335145 0.91372812 -0.079015791 4.976378e-39
-1.9374058 0.94812375 -0.060598258 9.4010816e-39
-1.9380921 0.95148611 -0.058062784 6.4518948e-39
-1.936675 0.9027915 -0.074306428 6.1742275e-39
-1.9366986 0.90949446 -0.072482333 5.2533544e-39
-1.9398731 0.9015035 -0.066962242 1.8424665e-39
-1.9406779 0.91052604 -0.062649891 2.027571e-39
-1.9407341 0.9410255 -0.054473471 9.18397e-41
-1.9422766 0.89800471 -0.062110499 1.4012985e-44
-1.9433035 0.9076224 -0.057107475 1.2611686e-44
-1.9427829 0.91263604 -0.057036258 1.8404374e-40
-1.9442511 0.894674 -0.058244795 1.5414283e-44
-1.9441259 0.89941108 -0.057296619 0
-1.9469897 0.90923148 -0.047827162 5.6051939e-45
-1.9469126 0.89239734 -0.052450605 7.2307001e-43
-1.9469912 0.89708823 -0.05102529 0
-1.9503651 0.90827256 -0.039970413 3.657389e-43
-1.9515622 0.9182623 -0.03446053 1.8403533e-40
-1.9502406 0.88529301 -0.046328343 3.629363e-43
-1.9503218 0.89222032 -0.044306528 3.629363e-43
-1.9500141 0.89657736 -0.043897312 5.6051939e-45
-1.9525967 0.90327227 -0.035927448 1.4012985e-45
-1.9539286 0.91302884 -0.03015488 1.4012985e-45
-1.9541056 0.91971171 -0.027967483 2.8025969e-45
-1.9557946 0.93133837 -0.020844251 0
-1.9525415 0.89110976 -0.039266597 3.6994279e-43
-1.9549098 0.89791644 -0.031781975 3.657389e-43
-1.9579171 0.91643381 -0.019674573 0
-1.9569237 0.91900277 -0.021383815 0
-1.9563292 0.88163394 -0.032664794 0
-1.955197 0.88395822 -0.034772035 0
-1.9566728 0.89273322 -0.028912984 9.1848108e-41
-1.9604363 0.9077996 -0.01589858 0
-1.960833 0.91406995 -0.013292389 0
-1.9612297 0.92034024 -0.010686139 0
-1.9609913 0.89485431 -0.017978733 0
-1.9633522 0.90543568 -0.0095164441 0
-1.9637488 0.91170603 -0.0069102068 0
-1.9611727 0.91029108 -0.013472865 0
-1.9585872 0.90873301 -0.020095091 0
-1.9609276 0.87931257 -0.022229372 0
-1.965229 0.90571374 -0.0049337456 0
-1.9614365 0.90642303 -0.013858505 0
-1.9646735 0.91024029 -0.0050751911 0
-1.9706047 0.91567785 0.010608145 3.6734198e-40
-1.9698995 0.86811465 -0.0036263713 2.7839036e-40
-1.9734873 0.91334099 0.016917575 0
-1.9787248 0.90615696 0.027606998 0
-1.9780761 0.8900708 0.021806806 0
-1.9816407 0.9037931 0.033989284 0
-1.9809587 0.88773388 0.028116236 0
-1.9933041 0.89433759 0.059517868 0
-1.9891288 0.84859025 0.03742487 9.364177e-41
-1.9920969 0.87218738 0.05077723 0
-1.9946233 0.88844001 0.06113182 1.4012985e-45
-1.9908412 0.85037732 0.042009711 0
-1.992835 0.85992277 0.04931682 0
-1.9932247 0.86608422 0.051877938 0
-1.9936144 0.87224573 0.054438818 0
-1.9957637 0.88224816 0.06223958 0
-1.9961559 0.88844693 0.064816117 0
-1.9949639 0.84582597 0.050714854 1.0944141e-42
-1.9953105 0.85143846 0.053027268 5.6051939e-45
-1.9960899 0.86376143 0.058149312 0
-1.9964799 0.86992288 0.06071021 0
-1.9986464 0.87991124 0.068548977 0
-1.9973962 0.83679265 0.054176643 0
-1.9961522 0.83963019 0.051936064 0
-1.9965398 0.84575742 0.054482792 0
-1.9993449 0.86760002 0.066981673 0
-2.0006511 0.84063131 0.063009016 0
-2.0010409 0.84679276 0.065570079 5.6051939e-45
-2.0014307 0.85295421 0.068131015 0
-2.0018206 0.85911572 0.070691988 0
-2.0022104 0.86527717 0.073252968 0
-2.0018508 0.83501035 0.064409174 0
-2.0039062 0.8444699 0.071841359 0
-1.9991344 0.84022564 0.059257925 0
-2.0046859 0.85679293 0.076963373 5.6051939e-45
-2.006902 0.86670172 0.084900498 0
-2.0073271 0.83431816 0.077383786 1.8620314e-40
-2.0034041 0.83550817 0.068272248 5.6051939e-45
-2.0037897 0.84160119 0.070804775 0
-2.007551 0.85447007 0.083234735 0
-2.0079408 0.86063153 0.085795671 0
-2.0083306 0.86679298 0.088356748 0
-2.0062375 0.83321106 0.07447394 0
-2.006623 0.83930415 0.077006511 0
-2.0087125 0.84877223 0.084522635 0
-2.0108061 0.85830867 0.092067093 0
-2.0094876 0.86102676 0.089616135 0
-2.0071995 0.82732093 0.075232074 5.6051939e-45
-2.0128915 0.84366286 0.093216419 0
-2.0132816 0.84982437 0.095777541 0
-2.0136712 0.85598588 0.098338477 0
-2.0106127 0.8552863 0.090805858 0
-2.0119045 0.82861704 0.086877428 5.6051939e-45
-2.0140233 0.83802503 0.094448932 0
-2.0161467 0.84750152 0.10204888 0
-2.0165365 0.85366297 0.10460991 0
-2.011548 0.84926093 0.091464087 0
-2.0142636 0.82344562 0.091182239 3.7274539e-43
-2.0182323 0.83285576 0.10319825 0
