# .PCD v0.7 - Point Cloud Data file format
VERSION 0.7
FIELDS x y z rgb
SIZE 4 4 4 4
TYPE F F F F
COUNT 1 1 1 1
WIDTH 1052
HEIGHT 1
VIEWPOINT 0 0 0 1 0 0 0
POINTS 1052
DATA ascii
-2.9510021 0.41348645 1.2417321 7.4685523e-39
-2.9491756 0.42336541 1.2434669 7.1937632e-39
-2.9483435 0.45518225 1.2461697 7.2866637e-39
-2.9921069 0.27764377 1.2087462 5.3484157e-39
-2.9784091 0.43400732 1.2275168 8.8536265e-39
-3.0094733 0.1336336 1.1887453 1.8475097e-39
-2.9897611 0.16180345 1.2019752 3.5988568e-39
-2.9676137 0.44188881 1.2342336 9.9581818e-39
-2.9657266 0.45209616 1.2360263 9.8685253e-39
-2.9600646 0.48271829 1.2414038 8.6660165e-39
-2.9902806 0.10931772 1.1980039 0
-2.9828558 0.14947617 1.205056 4.4841551e-44
-2.9809992 0.15951568 1.2068189 5.3249342e-44
-2.9653008 0.48531958 1.2385954 1.0234402e-38
-2.9899349 0.13914229 1.2002895 0
-2.9468024 0.5344395 1.2525989 1.0326244e-38
-2.9372869 0.58590472 1.2616365 7.561115e-39
-2.9792299 0.14695752 1.2069501 0
-2.9703963 0.14465103 1.2118334 0
-2.9685252 0.15477261 1.2136109 0
-2.9640641 0.25905904 1.2234602 9.8090893e-45
-2.9602895 0.27947393 1.2270448 2.3822074e-44
-2.9615629 0.14234453 1.2167166 0
-2.9878261 0.36096644 1.2170248 6.6398846e-39
-2.9859993 0.37084541 1.2187597 6.3629404e-39
-2.9841731 0.38072434 1.2204944 6.5458897e-39
-2.9823465 0.3906033 1.2222292 6.4536941e-39
-2.9792044 0.35871527 1.2217909 7.1015676e-39
-2.9773781 0.36859426 1.2235255 6.9164645e-39
-2.9755516 0.37847319 1.2252607 6.6402377e-39
-2.9595311 0.38423812 1.2348133 6.9146652e-39
-2.970583 0.35646412 1.226557 7.562187e-39
-2.9687562 0.36634308 1.228292 7.193057e-39
-2.9669297 0.37622204 1.2300268 7.193057e-39
-2.9619613 0.35421294 1.2313231 7.8366285e-39
-2.9601347 0.3640919 1.2330581 8.0210198e-39
-2.9583082 0.37397087 1.2347929 8.0213729e-39
-2.9551661 0.34208286 1.2343549 9.3128124e-39
-2.9533398 0.35196179 1.2360892 8.757859e-39
-2.9515131 0.36184078 1.2378241 8.1132182e-39
-3.0423322 0.17553009 1.1729133 4.7077631e-39
-3.0372827 0.15316327 1.1742311 5.2573159e-39
-3.0354266 0.16320282 1.1759942 5.2573215e-39
-3.0335705 0.17324233 1.1777569 5.072217e-39
-3.0343583 0.039237436 1.1679246 4.1541983e-39
-3.032517 0.049194913 1.1696733 4.5226207e-39
-3.0306759 0.059152372 1.1714221 4.246394e-39
-3.0266647 0.16091505 1.1808376 5.4395478e-39
-3.0248086 0.17095454 1.1826007 5.4395478e-39
-3.0081024 0.26131085 1.1984679 7.1016097e-39
-3.0238266 0.04692582 1.1744776 3.2318819e-39
-3.0197592 0.14858769 1.1839185 4.8892452e-39
-3.0153883 0.2518917 1.1936474 5.1651203e-39
-3.0135167 0.26201341 1.1954248 4.520104e-39
-3.0116453 0.27213511 1.1972022 4.2438758e-39
-3.0097737 0.28225675 1.19898 3.9690938e-39
-3.0079026 0.2923786 1.200757 3.9698393e-39
-3.0060313 0.30250031 1.2025346 6.642051e-39
-3.0022881 0.32274365 1.2060895 9.5908468e-39
-3.000417 0.33286533 1.2078669 9.5922902e-39
-3.0046833 0.25970688 1.200308 5.3484157e-39
-3.0028117 0.26982859 1.2020855 5.5331671e-39
-3.0009403 0.27995026 1.203863 5.6239334e-39
-2.999069 0.29007205 1.2056406 5.2547978e-39
-3.0080774 0.32405204 1.2028749 3.6006714e-39
-3.0115166 0.09381409 1.1847905 2.3077676e-39
-3.0096605 0.10385364 1.1865536 2.768387e-39
-3.0078042 0.11389328 1.1883163 2.7709052e-39
-3.0164354 0.14606176 1.1856396 3.5088289e-39
-2.9916201 0.36255562 1.2149694 3.6006714e-39
-2.9752641 0.36873925 1.2247432 3.9687491e-39
-2.9733925 0.37886095 1.2265205 5.5353447e-39
-2.9859583 0.39317784 1.2203469 8.3919533e-39
-2.984071 0.40338516 1.2221394 9.9578315e-39
-2.9802966 0.42379993 1.2257243 8.9469208e-39
-3.0015845 0.2581557 1.2019693 4.8888921e-39
-2.9940355 0.29898533 1.209139 4.8888921e-39
-2.9921479 0.30919269 1.2109318 4.6119465e-39
-2.9837995 0.43619972 1.2245917 8.3919477e-39
-2.9964507 0.23541495 1.2033091 3.2318819e-39
-2.9870143 0.28645194 1.2122715 4.2435227e-39
-2.985127 0.29665932 1.214064 4.7941784e-39
-2.9832399 0.30686671 1.2158563 4.2435227e-39
-2.963398 0.49561265 1.2404031 1.0326964e-38
-3.0061903 0.33425945 1.2046672 4.1556431e-39
-2.9897118 0.34068048 1.2145276 5.2605627e-39
-2.9878402 0.35080221 1.216305 8.576346e-39
-2.9859691 0.36092389 1.2180823 9.8656358e-39
-2.9972818 0.33193344 1.209592 4.7966965e-39
-2.9953947 0.34214079 1.2113845 4.7037918e-39
-2.9935074 0.35234821 1.213177 4.1513271e-39
-3.0006855 0.21012793 1.1991198 8.3916002e-39
-2.9988739 0.21992482 1.2008405 7.932064e-39
-2.9970627 0.22972164 1.2025607 8.1146546e-39
-2.9952512 0.23951848 1.204281 8.1150077e-39
-2.9934399 0.24931519 1.2060015 7.9306234e-39
-2.9916286 0.25911197 1.2077219 7.9313297e-39
-2.9898171 0.26890883 1.2094424 7.6543883e-39
-2.9921355 0.20789546 1.2038467 9.7766996e-39
-2.98489 0.24708274 1.2107279 7.932064e-39
-3.0052068 0.20679189 1.1963043 4.7973999e-39
-2.9753876 0.19781466 1.2127055 0
-3.0317142 0.18328191 1.17952 4.0609405e-39
-3.0229523 0.18099414 1.1843635 5.3498647e-39
-3.0210962 0.19103374 1.1861266 5.257669e-39
-3.0192397 0.20107333 1.1878896 5.0732764e-39
-3.0123343 0.18874596 1.1909703 5.257669e-39
-3.0086215 0.20882511 1.1944964 5.6239334e-39
-3.0172594 0.24177007 1.19187 5.4395478e-39
-3.0159116 0.19897664 1.1896437 4.8892452e-39
-3.0140405 0.20909838 1.191421 5.0732764e-39
-3.0121689 0.21922015 1.1931983 5.4395422e-39
-3.0102973 0.22934183 1.1949761 5.3484157e-39
-3.008426 0.23946355 1.1967533 5.4395422e-39
-3.0070784 0.19667016 1.1945268 4.7048456e-39
-3.0033352 0.21691367 1.1980817 4.7044953e-39
-2.9963734 0.20448542 1.2011876 3.6932202e-39
-3.0091336 0.21732622 1.1947992 3.6006714e-39
-2.998338 0.2252076 1.2015163 3.3240775e-39
-2.964081 0.48939246 1.2395772 5.808675e-39
-2.9622545 0.49927133 1.2413121 5.3484157e-39
-2.9620416 0.47963527 1.2400588 6.0863395e-39
-2.961952 0.47251087 1.2396111 9.4060702e-39
-2.9780903 0.46707901 1.2300142 9.3156991e-39
-2.8884413 1.1554898 1.3294119 3.4979997e-39
-2.9172699 1.1525477 1.3127421 3.3164811e-39
-2.9115605 1.1834269 1.3181647 3.0370286e-39
-2.9015632 1.1367748 1.3206075 3.6834644e-39
-2.8923464 1.1343682 1.3257027 3.6834644e-39
-2.8903937 1.1449291 1.3275572 4.4159959e-39
-2.8831296 1.1319616 1.3307978 4.4159959e-39
-2.8811772 1.1425225 1.3326523 4.3238017e-39
-2.9153666 1.1628407 1.3145496 3.6834644e-39
-2.9180443 1.1521488 1.3122717 3.6834644e-39
-2.8996105 1.1473356 1.3224621 3.6834644e-39
-2.711447 1.2540301 1.4373914 2.1201492e-39
-2.7086139 1.2508714 1.4387883 2.1201492e-39
-2.9506085 0.51385331 1.2489841 7.0990635e-39
-2.94172 0.53142935 1.2552905 8.4798273e-39
-2.9487054 0.5241465 1.2507914 9.863468e-39
-2.9525154 0.52354795 1.2485738 7.3760035e-39
-2.9595916 0.51619881 1.244018 9.4060968e-39
-2.9576888 0.52649194 1.2458255 9.3120837e-39
-2.991806 0.1290206 1.1985122 0
-3.0504124 0.0016766475 1.1561265 4.1541983e-39
-2.9772749 0.1876073 1.2109128 0
-2.9613214 0.017562196 1.2081178 4.6422496e-40
-2.9707818 0.12171102 1.2100071 2.5265411e-42
-3.0744078 -0.047628585 1.1389707 3.5066611e-39
-2.9611771 0.56478626 1.2465146 4.1458971e-39
-2.9593208 0.57482582 1.2482774 4.7844295e-39
-2.9643362 0.57809275 1.2456421 5.4373393e-39
-2.9528069 0.4901996 1.2460723 7.8362628e-39
-2.9007525 1.1077093 1.3190354 3.6848993e-39
-2.9932301 -0.010433044 1.1879349 2.7658689e-40
-2.9914033 -0.00055411458 1.1896698 2.7658689e-40
-2.9877503 0.01920376 1.1931394 0
-2.9846082 -0.012684245 1.1927012 5.5317378e-40
-2.9379456 0.55184406 1.2588754 7.3756504e-39
-2.9686804 0.024580231 1.2044066 2.7658689e-40
-2.9668539 0.034459174 1.2061414 4.6097815e-40
-2.9717951 0.55703437 1.2399081 4.4206609e-39
-2.9411855 1.1115544 1.2962135 3.3189922e-39
-2.9392657 1.1219368 1.2980371 3.5005108e-39
-2.9277482 1.1842309 1.3089759 4.047219e-39
-2.9378834 1.0780417 1.2957532 3.4115452e-39
-2.9321246 1.1091886 1.3012226 3.7770935e-39
-2.9302051 1.1195709 1.3030459 3.5005108e-39
-2.930742 1.0652934 1.2989389 3.4115452e-39
-2.9288225 1.0756757 1.3007623 3.4115452e-39
-2.9269028 1.0860581 1.3025852 3.4115452e-39
-2.9249833 1.0964403 1.3044084 3.4111865e-39
-2.9230638 1.1068226 1.3062315 3.685258e-39
-2.921144 1.117205 1.3080548 3.5005108e-39
-2.9320414 1.093925 1.3002017 3.319351e-39
-2.9248385 1.0810671 1.3034148 3.685258e-39
-2.9229023 1.0915387 1.3052535 3.2271567e-39
-2.9209661 1.1020103 1.3070925 3.1346038e-39
-2.9195716 1.0577377 1.3047892 4.1462292e-39
-2.9156995 1.0786809 1.308467 3.8700052e-39
-2.9137635 1.0891525 1.3103057 3.7770935e-39
-2.9118276 1.0996239 1.3121443 3.6848993e-39
-2.9065609 1.0762948 1.3135188 4.1462292e-39
-2.9026887 1.0972377 1.3171966 3.685258e-39
-3.0230412 0.12162104 1.1801558 5.4406015e-39
-3.0102556 0.19077349 1.1922996 9.5004491e-39
-2.9956434 0.26980489 1.2061776 7.9306262e-39
-2.9938166 0.27968383 1.2079127 8.1132182e-39
-2.9901638 0.29944178 1.2113822 8.0210198e-39
-2.9799371 0.43211696 1.226512 6.4540444e-39
-2.9762549 0.45203197 1.230009 5.9930663e-39
-3.0007038 0.27052835 1.2033384 8.8525727e-39
-2.9988627 0.28048584 1.2050871 8.9429705e-39
-2.9797153 0.30706957 1.2178833 8.0210226e-39
-2.9778891 0.31694841 1.2196178 7.6536792e-39
-2.971247 0.42984793 1.2313159 6.6380854e-39
-2.9694057 0.43980545 1.2330645 6.6380854e-39
-2.9675648 0.44976294 1.234813 6.54624e-39
-2.9657235 0.4597204 1.2365615 6.54624e-39
-2.9988213 0.31150886 1.2072827 9.4993518e-39
-2.9828086 0.31804666 1.2168854 8.7592911e-39
-2.9809673 0.32800412 1.218634 8.3898023e-39
-2.9607158 0.43753639 1.2378685 7.1944667e-39
-2.9588745 0.44749388 1.239617 7.2841582e-39
-2.9570336 0.45745134 1.2413657 7.0068623e-39
-3.0136151 0.025957271 1.178841 2.953137e-39
-2.9704361 0.3356925 1.2251866 9.2238818e-39
-2.9752095 0.38953778 1.2262306 7.8384264e-39
-2.9593899 0.39543736 1.2356783 8.1135686e-39
-2.9575486 0.40539482 1.2374269 8.0217261e-39
-2.9557076 0.41535234 1.2391754 8.0217261e-39
-2.9538665 0.42530978 1.2409238 7.9295304e-39
-2.9520254 0.43526733 1.2426726 7.7447804e-39
-2.9501846 0.44522479 1.2444211 7.6525848e-39
-2.9603596 0.46985441 1.2403347 6.9164645e-39
-2.9547908 0.49997321 1.2456235 7.0986922e-39
-3.0022492 0.11435914 1.1915214 3.8772485e-39
-2.9683039 0.37721044 1.2293111 9.1320365e-39
-2.9664478 0.38725001 1.231074 8.758938e-39
-2.9645915 0.39728951 1.2328371 8.4816322e-39
-2.9627354 0.40732911 1.2346002 8.0210226e-39
-2.9608791 0.41736871 1.2363632 7.6540351e-39
-2.9590228 0.42740828 1.2381264 7.744077e-39
-2.9433353 0.43299833 1.2474763 7.8359097e-39
-2.9553103 0.44748753 1.2416524 7.8362628e-39
-2.953454 0.45752713 1.2434151 7.7447804e-39
-2.9616404 0.49250609 1.2411892 7.2838079e-39
-2.9509356 0.50032127 1.2478498 7.7440616e-39
-2.932745 0.54862338 1.2616202 7.3752776e-39
-2.9630718 0.37552249 1.2321811 7.8384292e-39
-2.9701602 0.36717084 1.2275481 9.6841411e-39
-3.0405352 -0.0054018912 1.1612716 5.8083247e-39
-3.0387237 0.0043948879 1.1629921 5.7161291e-39
-3.0462749 0.044840734 1.1615114 5.4420603e-39
-3.0444486 0.054719679 1.1632462 5.3498647e-39
-3.0426221 0.06459862 1.1649809 5.8079716e-39
-3.0407956 0.074477628 1.1667156 5.4420659e-39
-3.0389688 0.084356554 1.1684506 5.3498703e-39
-3.0371425 0.094235502 1.1701853 5.072217e-39
-3.035316 0.10411432 1.1719202 4.0616496e-39
-3.0334892 0.1139932 1.1736552 4.1531418e-39
-3.0316629 0.12387221 1.1753894 4.1542334e-39
-3.0298364 0.13375109 1.1771246 5.5379063e-39
-3.0280097 0.1436301 1.1788596 8.2083174e-39
-3.0261834 0.15350905 1.180594 9.8688756e-39
-3.0243568 0.16338798 1.1823289 9.9621531e-39
-3.0364947 0.17549175 1.1762445 9.6873753e-39
-3.0207038 0.18314573 1.1857984 9.2245824e-39
-3.0358269 0.052468538 1.168012 5.2573159e-39
-3.0340004 0.062347453 1.1697472 5.8083247e-39
-3.0321739 0.072226457 1.171482 5.257669e-39
-3.0303473 0.082105398 1.1732167 5.257669e-39
-3.0285208 0.091984347 1.1749516 5.7161291e-39
-3.0266943 0.10186316 1.1766864 5.257669e-39
-3.024868 0.11174206 1.178421 5.257669e-39
-3.0351689 0.13339286 1.174054 5.2551509e-39
-3.0333278 0.14335041 1.1758026 4.5197509e-39
-3.0314865 0.15330788 1.1775512 3.7861515e-39
-3.0296457 0.16326533 1.1793001 3.6060776e-39
-3.0259635 0.18318017 1.1827972 8.0239093e-39
-3.0381646 -0.0090561826 1.1623696 4.1541983e-39
-3.0235524 0.069975272 1.1762482 5.257669e-39
-3.0217259 0.079854235 1.1779828 5.1651203e-39
-3.033843 0.091293946 1.1718636 5.6239334e-39
-3.0320017 0.10125134 1.1736124 5.350215e-39
-3.0301609 0.11120882 1.1753609 5.257669e-39
-3.0283196 0.12116627 1.1771098 5.7161291e-39
-3.0264785 0.1311238 1.1788582 5.8083247e-39
-3.0246377 0.14108135 1.1806066 5.4395478e-39
-3.0025451 0.26057085 1.2015898 9.2238818e-39
-2.9970217 0.29044336 1.2068355 8.3894464e-39
-2.9951806 0.30040088 1.2085843 8.0206695e-39
-3.0214708 0.10893976 1.1801651 5.0732764e-39
-3.0196295 0.11889723 1.1819136 5.0732764e-39
-3.0177886 0.12885472 1.1836623 5.4395422e-39
-3.0159473 0.13881227 1.1854107 5.4395422e-39
-3.0141065 0.14876975 1.1871592 5.6232272e-39
-3.0025337 0.29142973 1.2037568 9.7770556e-39
-3.0006776 0.30146924 1.2055197 9.3164277e-39
-3.0090983 0.12658566 1.1884662 4.8892452e-39
-3.004776 0.22041039 1.1975037 9.2235062e-39
-3.0029495 0.2302893 1.1992387 8.9451215e-39
-3.001123 0.2401682 1.2009734 8.3916002e-39
-2.9974699 0.25992599 1.2044431 8.0246127e-39
-2.9979808 0.20828021 1.2005353 4.984343e-39
-2.9943278 0.22803812 1.2040048 9.8674351e-39
-2.9925013 0.23791704 1.2057395 9.8692484e-39
-2.9906747 0.24779589 1.2074745 9.2271034e-39
-3.010478 0.19878554 1.1927334 5.6253627e-39
-3.0154324 0.19086859 1.1893498 3.8786975e-39
-3.0135913 0.20082606 1.1910981 4.0630971e-39
-3.0099089 0.22074109 1.1945953 7.6551282e-39
-3.0173836 0.21111289 1.1896527 5.1651203e-39
-3.0155272 0.22115256 1.1914159 4.520104e-39
-3.0136712 0.23119216 1.1931788 3.8768982e-39
-3.0118151 0.24123171 1.1949418 3.5095702e-39
-3.0099587 0.25127125 1.1967046 3.3287915e-39
-3.0067654 0.21886478 1.1962596 5.7161291e-39
-2.9691215 0.47214219 1.235491 6.9153715e-39
-2.9585035 0.47989398 1.2420976 7.0994166e-39
-2.9566469 0.48993361 1.2438608 6.9146652e-39
-2.9653833 0.47226268 1.2376342 7.837332e-39
-2.9497416 0.47760621 1.2469412 7.4685523e-39
-2.9546785 0.48007789 1.2442948 7.7444329e-39
-2.9063241 1.1459863 1.3185335 3.3168398e-39
-2.894944 1.1391242 1.3245523 3.6834644e-39
-2.8910718 1.1600674 1.32823 3.4979997e-39
-2.9244461 1.150718 1.3085155 3.3168398e-39
-2.9153852 1.1483521 1.3135244 3.3168398e-39
-2.9132218 1.1438967 1.3144481 3.3164811e-39
-2.9002106 1.1624535 1.3231778 4.047219e-39
-2.893008 1.1495959 1.326391 3.4994346e-39
-2.9225266 1.1611003 1.3103387 3.6848993e-39
-2.9276273 1.1696123 1.3080215 3.7756586e-39
-2.9184885 1.1672261 1.3130738 3.6834644e-39
-2.9112856 1.1543682 1.3162869 3.3168398e-39
-2.9093494 1.1648399 1.3181256 3.4979997e-39
-2.9021468 1.1519819 1.3213389 3.6834644e-39
-2.9364879 0.52838004 1.2580652 7.5596689e-39
-2.9346163 0.53850174 1.2598428 7.6522205e-39
-3.0540924 -0.046320718 1.1506643 3.9694469e-39
-3.0491238 -0.068329759 1.1519606 2.3077676e-39
-2.9210761 1.1319615 1.3091272 3.3168398e-39
-2.9074211 1.105092 1.3150437 3.8700052e-39
-2.8870351 1.1108397 1.3270885 3.3143287e-39
-2.8850825 1.1214006 1.3289431 3.4994346e-39
-2.919173 1.1422547 1.3109347 3.3168398e-39
-2.9054685 1.1156528 1.3168982 3.685258e-39
-2.9035158 1.1262138 1.3187531 3.5012283e-39
-2.8962517 1.1132463 1.3219936 3.3168398e-39
-2.894299 1.1238072 1.3238481 3.4072404e-39
-2.9373465 1.1323192 1.2998602 3.5005108e-39
-2.9282854 1.1299534 1.3048689 3.5005108e-39
-2.9192245 1.1275874 1.309878 3.5005108e-39
-2.9190302 1.1124817 1.3089315 3.0424095e-39
-2.9098914 1.1100955 1.3139834 3.1346038e-39
-2.8988163 1.1181808 1.3208743 3.5008696e-39
-2.8968804 1.1286526 1.3227131 3.5005108e-39
-2.9263659 1.1403357 1.3066924 3.5005108e-39
-2.9173048 1.1379699 1.3117014 3.5008696e-39
-2.9082439 1.1356039 1.3167104 3.5008696e-39
-2.917094 1.1229533 1.3107703 2.950574e-39
-2.9151578 1.1334251 1.3126093 3.6848993e-39
-2.9079552 1.1205671 1.3158224 3.0424095e-39
-2.906019 1.1310388 1.3176614 3.5005108e-39
-2.7832639 1.2557625 1.3964984 2.2123448e-39
-2.9593134 0.05095749 1.211603 4.6026909e-40
-2.9556315 0.070872389 1.2150999 2.8768657e-42
-2.9537904 0.080829807 1.2168485 1.44614e-42
-3.0169778 0.034699328 1.1775328 5.8854536e-44
-3.0082877 0.032430269 1.1823368 1.44614e-42
-3.0064464 0.042387743 1.1840855 3.7835059e-43
-3.0133729 0.083774574 1.1830276 9.2414232e-40
-2.9977565 0.040118694 1.1888894 1.44614e-42
-3.0046113 0.081486829 1.1878711 1.6815582e-44
-3.0027549 0.091526337 1.1896341 2.5223372e-44
-2.9916174 0.15176395 1.2002122 3.2300644e-39
-2.9890661 0.03784962 1.1936934 1.44614e-42
-2.993993 0.089238532 1.194478 5.6051939e-45
-2.9921367 0.0992781 1.1962409 3.657389e-43
-2.9785349 0.045538016 1.2002462 2.7801762e-40
-2.9766939 0.055495612 1.2019948 2.155197e-42
-2.9833751 0.096990325 1.2010846 7.1746481e-43
-2.9880633 0.14926399 1.202067 5.6051939e-45
-2.986192 0.15938559 1.2038442 3.657389e-43
-2.9698446 0.043268956 1.2050503 2.8768657e-42
-2.9773586 0.1570791 1.2087276 7.1746481e-43
-2.9621389 0.11249401 1.2142977 7.1746481e-43
-2.976414 0.27242139 1.2173426 9.8090893e-45
-2.9726079 0.29300761 1.2209576 4.4841551e-44
-2.9596915 0.15246612 1.2184942 8.4077908e-45
-2.9655278 0.28036901 1.2241161 1.4012985e-45
-3.0554204 0.023860659 1.1548195 5.257669e-39
-3.0467305 0.021591613 1.1596235 4.6151667e-39
-3.0448892 0.031549085 1.1613722 5.0732764e-39
-3.0361991 0.029280011 1.1661763 3.8772513e-39
-3.0396585 0.090637922 1.1684965 4.8892452e-39
-3.0378025 0.10067743 1.1702595 4.8892452e-39
-3.0256679 0.036968362 1.1727288 3.3215608e-39
-3.0327528 0.078310579 1.1715771 3.9697973e-39
-3.0308967 0.088350132 1.1733402 4.062353e-39
-3.0290403 0.09838964 1.1751032 4.1545487e-39
-3.027184 0.10842919 1.1768664 4.8895956e-39
-3.0253279 0.11846882 1.1786292 4.8895956e-39
-3.0216155 0.13854802 1.1821553 4.7044953e-39
-3.0322309 0.16079645 1.1776506 5.4395422e-39
-3.0221348 0.086062394 1.1781837 3.5095296e-39
-3.0202787 0.09610188 1.1799469 3.3269362e-39
-3.0184224 0.10614145 1.1817098 3.3262327e-39
-3.0147099 0.12622069 1.1852359 4.2438758e-39
-3.0271401 0.13824655 1.1789788 4.520104e-39
-3.0252688 0.14836821 1.1807566 4.6122996e-39
-3.0233974 0.15848993 1.1825337 4.7044953e-39
-3.0215259 0.16861153 1.1843112 4.7966909e-39
-3.0183067 0.13594007 1.1838623 3.5091793e-39
-3.0145638 0.15618348 1.187417 3.6010246e-39
-3.0126925 0.16630505 1.1891946 4.1513215e-39
-3.0076017 0.14375527 1.1905228 2.6765417e-39
-3.0053589 0.23774096 1.1983844 4.520104e-39
-2.9987683 0.1414488 1.1954061 1.5414283e-44
-2.9945633 0.24562232 1.2051013 4.0591258e-39
-2.9911063 0.24388775 1.2069541 4.4841551e-44
-2.9892032 0.25418079 1.2087618 1.8328984e-42
-2.9821231 0.24154221 1.21192 1.4012985e-45
-3.0019877 0.17412031 1.1958553 3.7828879e-39
-3.0001161 0.18424198 1.1976328 3.5091793e-39
-2.9982448 0.19436368 1.1994102 3.4166305e-39
-2.993154 0.1718138 1.2007385 7.3975106e-40
-2.9912827 0.18193547 1.202516 2.3081151e-39
-2.9894297 0.22288159 1.2064407 2.3081151e-39
-2.9842958 0.20014066 1.2077806 4.2038954e-45
-2.9824088 0.21034816 1.209573 9.8090893e-45
-2.9666536 0.16489434 1.2153882 1.4349296e-42
-2.964782 0.175016 1.2171659 3.657389e-43
-2.9735003 0.20802216 1.2144979 1.4012985e-45
-2.9645922 0.20569617 1.2194223 3.657389e-43
-3.0284882 0.18103975 1.1812055 4.8892452e-39
-3.0196545 0.17873326 1.1860887 4.7966909e-39
-3.0177832 0.18885493 1.1878662 4.6119465e-39
-3.0108211 0.17642677 1.1909721 4.1513271e-39
-3.0089498 0.18654847 1.1927491 4.520104e-39
-3.0161545 0.22985964 1.191667 4.7966909e-39
-3.0072463 0.22753359 1.1965916 4.2438758e-39
-3.0039997 0.19458532 1.1961392 3.2300644e-39
-3.0021124 0.20479269 1.1979316 3.0485514e-39
-3.0002251 0.2150002 1.1997241 3.0482011e-39
-2.9969788 0.18205196 1.1992711 1.5414283e-44
-2.9950914 0.1922593 1.2010639 2.3822074e-44
-2.9932041 0.2024667 1.2028561 5.0446745e-44
-2.9913168 0.2126742 1.2046484 1.8328984e-42
-2.9716859 0.033311497 1.2033015 2.5265411e-42
-2.9764693 0.084663019 1.2041651 3.657389e-43
-2.9746132 0.094702564 1.2059282 1.4349296e-42
-2.9722679 0.13452931 1.2100561 8.4077908e-45
-2.9570894 0.090127006 1.2156155 2.5265411e-42
-3.0398812 0.0093650753 1.1626791 3.5088289e-39
-3.0364654 0.058231343 1.168051 3.5088289e-39
-3.0258472 0.065983251 1.1746578 2.953137e-39
-3.0113449 0.12351179 1.1869682 6.0255834e-44
-2.9930093 0.23359473 1.2051467 2.3822074e-44
-2.9827816 -0.0028053143 1.1944362 3.2369995e-42
-2.9809554 0.007073571 1.1961709 3.2369995e-42
-2.9791286 0.016952574 1.1979057 1.8104776e-42
-2.97416 -0.0050564697 1.1992023 3.2369995e-42
-2.9723334 0.0048224442 1.2009368 2.8866748e-42
-2.9705071 0.014701406 1.2026718 2.5265411e-42
-2.963712 0.0025712745 1.2057029 3.7202933e-40
-2.9600587 0.022329075 1.209173 9.5082305e-41
-2.9532638 0.010199109 1.212204 4.6422496e-40
-2.9514372 0.020077905 1.2139391 4.6457528e-40
-2.9496107 0.029956849 1.2156737 3.7202933e-40
-2.9428155 0.017826764 1.2187051 4.6422496e-40
-2.9409893 0.027705723 1.2204396 3.7202933e-40
-3.0190947 -0.0036795489 1.1736364 1.1294466e-42
-3.0172684 0.0061993813 1.1753714 7.3975106e-40
-3.0154417 0.016078267 1.1771063 2.6761914e-39
-3.0122998 -0.015809663 1.176668 1.44614e-42
-3.0104733 -0.0059307041 1.1784027 1.44614e-42
-3.0086467 0.0039482117 1.1801378 3.7835059e-43
-3.00682 0.013827082 1.1818726 2.9427268e-44
-3.0049937 0.023706116 1.183607 9.1867726e-41
-3.0151367 0.044656802 1.1792814 1.0163394e-39
-3.0018516 -0.0081819035 1.183169 2.155197e-42
-3.000025 0.0016970264 1.1849039 2.155197e-42
-2.9981985 0.011575911 1.1866387 1.44614e-42
-2.996372 0.021454915 1.1883734 7.258726e-43
-2.9895768 0.0093247415 1.1914051 2.8768657e-42
-3.0608873 -0.034190692 1.1476328 5.3498703e-39
-3.0590608 -0.024311703 1.1493679 5.257669e-39
-3.0572343 -0.014432802 1.1511024 5.350215e-39
-3.0517547 0.015204033 1.156307 5.3498647e-39
-3.0499282 0.025082903 1.1580418 5.8083247e-39
-3.0481019 0.034961909 1.1597766 5.4420603e-39
-3.0504394 -0.026562814 1.1541338 4.6148164e-39
-3.0486126 -0.016683942 1.1558686 4.8892452e-39
-3.0467863 -0.0068049827 1.1576033 5.0732764e-39
-3.0449595 0.0030739475 1.1593382 5.350215e-39
-3.0431333 0.012952877 1.161073 5.257669e-39
-3.03948 0.032710768 1.1645426 5.4427694e-39
-3.0517383 0.043775544 1.1583169 5.4420603e-39
-3.0399911 -0.018935127 1.1606348 3.9694469e-39
-3.0430481 0.041506499 1.1631207 5.0732764e-39
-3.0412071 0.051463958 1.1648695 5.257669e-39
-3.0393662 0.061421447 1.1666179 5.257669e-39
-3.0295429 -0.011307353 1.167136 3.5063108e-39
-3.0288348 0.069109961 1.1731707 4.3385868e-39
-3.0269938 0.079067379 1.1749194 4.7966909e-39
-2.9759867 -0.014935399 1.1974673 9.5082305e-41
-3.0522659 -0.036441818 1.1523989 4.1538452e-39
-3.0550261 -0.083776407 1.1475089 4.1538452e-39
-2.9077544 1.2040131 1.3217795 7.3468397e-40
-2.8987713 1.2016675 1.3267456 1.8424496e-39
-2.884536 1.1766115 1.3331209 1.2871319e-39
-2.7827308 1.2097361 1.3935802 5.4373393e-39
-2.8957055 1.1684573 1.3261712 3.2217757e-39
-2.9096575 1.19372 1.319972 2.2087154e-39
-2.7896929 1.2221643 1.3904746 5.2525893e-39
-2.8082523 1.202791 1.3785189 5.0681967e-39
-2.8963385 1.1833968 1.3268558 2.0236095e-39
-2.8871996 1.1810106 1.3319077 1.3778912e-39
-2.8780608 1.1786243 1.3369596 1.7502554e-39
-2.8132579 1.1869874 1.3745538 5.4373393e-39
-2.932894 1.1929417 1.3066473 3.2217757e-39
-2.930958 1.2034134 1.3084862 2.9448343e-39
-2.9148481 1.2026297 1.3176316 1.3778912e-39
-2.9237549 1.1905555 1.3116996 3.1295815e-39
-2.921819 1.201027 1.3135386 2.8526401e-39
-2.9146161 1.1881692 1.3167516 2.9448343e-39
-2.9126801 1.1986408 1.3185904 1.6559088e-39
-2.9054773 1.185783 1.3218036 2.8515639e-39
-2.9035413 1.1962546 1.3236425 1.4700854e-39
-2.8944023 1.1938684 1.3286945 1.7495464e-39
-2.8891358 1.1705389 1.3300686 3.0370286e-39
-2.879997 1.1681528 1.3351207 2.1158037e-39
-2.9348302 1.1824701 1.3048083 3.6834644e-39
-2.9256911 1.1800838 1.3098605 3.4979997e-39
-2.9165523 1.1776977 1.3149126 3.2217757e-39
-2.9074135 1.1753114 1.3199646 3.1295815e-39
-2.8982747 1.1729251 1.3250167 3.1295815e-39
-2.8968682 1.2119607 1.3285532 3.7796102e-39
-2.8825834 1.1871724 1.3349755 3.5955749e-39
-2.7934356 1.2019209 1.3869196 4.794488e-39
-2.7915642 1.2120427 1.388697 4.8866837e-39
-2.8801656 1.183035 1.3360664 4.2387821e-39
-2.8781958 1.1936886 1.3379375 4.3335071e-39
-2.7754762 1.2214242 1.3985416 4.7934287e-39
-2.7667146 1.2191364 1.4033854 4.9778255e-39
-2.7579527 1.2168486 1.408229 4.6108353e-39
-2.7631922 1.2152449 1.4051245 5.1618567e-39
-2.731667 1.2099853 1.42276 4.9781787e-39
-2.7229052 1.2076976 1.4276035 5.1622098e-39
-2.8948066 1.2082802 1.3294727 3.7796102e-39
-2.9016051 1.2067262 1.3254813 3.4115452e-39
-2.8924663 1.2043399 1.3305333 3.8725247e-39
-2.8905301 1.2148116 1.3323722 4.1491158e-39
-2.919883 1.2114986 1.3153772 8.279544e-40
-2.9107442 1.2091124 1.3204292 1.6577025e-39
-2.8996689 1.2171978 1.3273203 4.0561971e-39
-2.9610114 0.5837481 1.2479368 4.785849e-39
-2.9591701 0.59370559 1.2496855 4.785849e-39
-2.9694195 0.61955982 1.2456422 4.6936548e-39
-2.9675634 0.62959927 1.2474051 4.785849e-39
-2.9481239 0.65345043 1.2601768 4.7909105e-39
-2.9601383 0.66975766 1.2544572 5.5316972e-39
-2.958282 0.67979735 1.2562203 5.3484059e-39
-2.9564259 0.68983686 1.2579833 5.3476969e-39
-2.9527135 0.709916 1.2615092 5.345899e-39
-2.9508572 0.71995556 1.2632723 4.7956021e-39
-2.9490008 0.72999525 1.2650354 5.0714603e-39
-2.9471447 0.74003482 1.2667985 4.8877977e-39
-2.9534085 0.78744608 1.2665409 4.9789143e-39
-2.9496655 0.80768973 1.2700955 4.7030463e-39
-2.9450448 0.91750336 1.2804232 4.7934343e-39
-2.9290798 0.91902834 1.2896475 4.7008799e-39
-2.9412701 0.93791807 1.2840081 4.5182865e-39
-2.939383 0.94812542 1.2858005 4.3338939e-39
-2.9374957 0.95833296 1.2875929 4.3338939e-39
-2.9337213 0.97874767 1.291178 3.9640015e-39
-2.931834 0.98895508 1.2929704 3.6877691e-39
-2.9299467 0.9991625 1.294763 3.4111865e-39
-2.9280596 1.0093699 1.2965554 3.4115452e-39
-2.9261723 1.0195773 1.2983479 3.4111865e-39
-2.9242849 1.0297847 1.3001404 3.4111865e-39
-2.9223976 1.039992 1.3019329 3.5955749e-39
-2.9633675 0.5217343 1.2422491 5.8994217e-39
-2.9588017 0.62731153 1.2522488 4.6929373e-39
-2.9550891 0.64739072 1.2557747 4.6980114e-39
-2.9532328 0.65743035 1.2575377 6.0852213e-39
-2.9513764 0.66746992 1.2593011 5.8994217e-39
-2.9495201 0.67750949 1.2610638 6.0841675e-39
-2.947664 0.68754905 1.2628269 5.9916187e-39
-2.9439516 0.70762831 1.2663531 5.8072261e-39
-2.9408317 0.80538309 1.2749791 4.7956021e-39
-2.9342492 0.92538464 1.28714 4.5182865e-39
-2.9323621 0.935592 1.2889327 4.5182865e-39
-2.9304748 0.94579941 1.2907251 4.1509347e-39
-2.9146318 0.94708699 1.2998632 4.3338939e-39
-2.9267004 0.96621424 1.29431 4.1498627e-39
-2.924813 0.97642165 1.2961024 4.2406136e-39
-2.9229257 0.98662907 1.297895 3.7799634e-39
-2.9210384 0.99683648 1.2996875 3.4115452e-39
-2.9191511 1.0070438 1.3014801 3.4115452e-39
-2.9172637 1.0172513 1.3032725 3.6874118e-39
-2.9153767 1.0274587 1.3050649 3.8700052e-39
-2.9500396 0.62502372 1.2570925 3.9600961e-39
-2.9357412 0.78283304 1.2763072 5.530649e-39
-2.9215665 0.9434734 1.2956498 4.7934343e-39
-2.9196792 0.95368093 1.2974422 4.5182865e-39
-2.9177918 0.96388823 1.2992347 4.6108353e-39
-2.9269078 0.78052664 1.2811905 5.4406015e-39
-2.9088836 0.96156222 1.3041593 4.6104821e-39
-2.9018626 0.94902879 1.3072916 4.9792633e-39
-2.9413989 0.71645838 1.2684289 6.5447911e-39
-2.9394958 0.72675145 1.2702365 5.9937753e-39
-2.9290512 0.86894798 1.2861574 6.2700021e-39
-2.9271317 0.87933034 1.2879806 6.085971e-39
-2.9252119 0.88971269 1.289804 5.9937753e-39
-2.9232924 0.90009505 1.2916268 5.9937753e-39
-2.9213729 0.91047728 1.2934501 5.9015741e-39
-2.9201136 1.0029935 1.3006469 5.0714603e-39
-2.9581773 0.4929257 1.2431961 8.3872842e-39
-2.9438343 0.65235436 1.2625499 6.4540444e-39
-2.9419312 0.66264743 1.2643573 6.7299054e-39
-2.9400282 0.67294049 1.2661649 6.3618488e-39
-2.9381251 0.6832335 1.2679724 6.4536787e-39
-2.9343188 0.70381969 1.2715874 6.3611285e-39
-2.9324157 0.71411276 1.2733949 6.6369909e-39
-2.9305127 0.72440583 1.2752024 6.3614788e-39
-2.9199901 0.86658204 1.2911664 6.0863395e-39
-2.9180706 0.87696445 1.2929897 6.0863395e-39
-2.9123118 0.90811151 1.2984592 6.085971e-39
-2.9245276 0.92730623 1.2928267 5.9937753e-39
-2.9225914 0.93777764 1.2946655 6.2689175e-39
-2.9167831 0.96919256 1.3001821 5.3484059e-39
-2.9148469 0.97966409 1.3020213 5.2558516e-39
-2.9109747 1.0006074 1.3056989 5.07111e-39
-2.9071023 1.0215505 1.309377 5.1618567e-39
-2.9051666 1.0320221 1.3112154 4.9781787e-39
-2.9032304 1.0424937 1.3130542 4.9781478e-39
-2.9012942 1.0529653 1.3148932 4.7019197e-39
-2.934171 0.57225877 1.2624606 7.1908934e-39
-2.9322836 0.58246619 1.264253 7.0983446e-39
-2.9303966 0.59267366 1.2660457 7.0983446e-39
-2.9386575 0.62942266 1.2639006 7.0064951e-39
-2.9367542 0.63971573 1.2657081 6.9139464e-39
-2.9348514 0.6500088 1.2675158 6.9142995e-39
-2.9329481 0.6603018 1.2693233 6.8221011e-39
-2.9310451 0.67059499 1.2711308 6.8221039e-39
-2.9291418 0.680888 1.2729383 6.54624e-39
-2.9272389 0.69118106 1.2747458 6.4536941e-39
-2.9253356 0.70147413 1.2765534 6.4533255e-39
-2.9234326 0.71176732 1.2783608 6.4536787e-39
-2.9358842 0.72924584 1.2724736 6.4533255e-39
-2.9339647 0.7396282 1.2742969 6.3611285e-39
-2.932045 0.75001061 1.2761203 6.0863395e-39
-2.9301255 0.7603929 1.2779435 6.2678609e-39
-2.9282057 0.77077508 1.2797664 6.0863395e-39
-2.9109292 0.86421627 1.2961755 6.2693028e-39
-2.9192607 0.9039768 1.2942011 6.1763687e-39
-2.9173248 0.91444838 1.2960399 6.0863395e-39
-2.9153886 0.92492002 1.2978787 5.9937753e-39
-2.9134526 0.93539149 1.2997177 5.9937753e-39
-2.9115164 0.94586301 1.3015566 6.1767218e-39
-2.9095805 0.95633459 1.3033955 6.0841731e-39
-2.9076443 0.96680635 1.3052343 6.1760184e-39
-2.8898137 0.97842187 1.3162308 5.8994217e-39
-2.9018359 0.99822116 1.310751 5.8075792e-39
-2.8998997 1.0086927 1.3125898 5.6235481e-39
-2.8979635 1.0191642 1.3144287 5.4388037e-39
-2.8960276 1.0296359 1.3162677 5.3462493e-39
-2.900157 1.0921247 1.3182844 4.4228118e-39
-2.9315777 0.61678416 1.2670591 7.3745714e-39
-2.9296746 0.62707704 1.2688664 7.4674733e-39
-2.9277716 0.63737023 1.2706739 7.3752776e-39
-2.9325821 0.69573301 1.2720133 6.9142995e-39
-2.9144495 0.70942169 1.2833271 6.5455212e-39
-2.9268231 0.72687995 1.2774827 6.5455212e-39
-2.9249036 0.73726231 1.2793061 6.4533255e-39
-2.9229839 0.74764466 1.2811292 6.3611285e-39
-2.9210644 0.75802702 1.2829522 6.3611285e-39
-2.9333553 0.7759313 1.2771869 6.4533255e-39
-2.9018683 0.86185038 1.3011842 6.4525955e-39
-2.9139941 0.88064742 1.2955756 5.9937753e-39
-2.9120579 0.89111894 1.2974145 5.9015895e-39
-2.9241347 0.91018391 1.2918522 5.9015895e-39
-2.9081857 0.91206217 1.3010918 5.9937753e-39
-2.9062498 0.92253375 1.3029308 5.9937753e-39
-2.9043138 0.93300515 1.3047698 5.9937753e-39
-2.9004412 0.95394838 1.3084477 5.6253627e-39
-2.8965693 0.9748916 1.3121252 6.1767218e-39
-2.8946328 0.9853633 1.3139644 5.9916187e-39
-2.8926966 0.99583489 1.3158032 5.9916187e-39
-2.8907609 1.0063064 1.3176419 5.8997748e-39
-2.8888247 1.0167781 1.3194807 5.6231949e-39
-2.8967981 1.0580356 1.3178161 5.2540523e-39
-2.8928928 1.0791574 1.3215252 4.7934287e-39
-2.8909402 1.0897182 1.3233795 4.5150075e-39
-2.9369583 0.62069082 1.2642597 8.6642256e-39
-2.9331191 0.64145541 1.2679062 7.5593214e-39
-2.9311996 0.65183777 1.2697294 7.466767e-39
-2.9273603 0.67260247 1.2733756 7.3745714e-39
-2.9254408 0.68298483 1.2751991 7.0983446e-39
-2.9235213 0.69336712 1.2770221 7.0068623e-39
-2.9216015 0.70374948 1.2788453 7.0068623e-39
-2.919682 0.71413183 1.2806685 6.9142995e-39
-2.9177623 0.72451419 1.2824918 6.8221039e-39
-2.9261525 0.76307368 1.2803998 6.5455212e-39
-2.9087274 0.85731798 1.2969499 5.7175584e-39
-2.9168706 0.89721644 1.2950929 5.9008706e-39
-2.9149179 0.90777737 1.2969475 5.808675e-39
-2.9129651 0.91833818 1.2988021 5.808675e-39
-2.8951747 0.930619 1.309822 5.901221e-39
-2.8932385 0.94109052 1.3116608 6.0841731e-39
-2.8874302 0.97250545 1.3171775 6.1763687e-39
-2.883558 0.99344867 1.3208551 5.9916187e-39
-2.9163799 0.68061894 1.2802081 7.6522373e-39
-2.9170139 0.76068747 1.2854518 6.6384385e-39
-2.9150774 0.77115893 1.2872908 6.8221039e-39
-2.8995886 0.85493183 1.3020018 5.9015895e-39
-2.9037488 0.91593164 1.3038971 5.6253627e-39
-2.9017959 0.92649245 1.3057516 5.6242823e-39
-2.8939853 0.96873581 1.3131698 5.5331671e-39
-2.8842223 1.0215402 1.3224425 5.5331671e-39
-2.8607912 1.1482701 1.3446972 2.8515639e-39
-2.9078748 0.75830132 1.290504 7.5596661e-39
-2.9059386 0.76877272 1.2923429 7.3752776e-39
-2.8900423 0.77169394 1.3016256 7.0986922e-39
-2.9646935 0.56383318 1.2444394 4.785849e-39
-3.0118518 0.30363733 1.19929 4.7941728e-39
-2.9746346 0.45442218 1.2311019 8.0199436e-39
-2.9876058 0.41561356 1.2209766 3.4148733e-39
-2.9857028 0.42590666 1.2227843 5.8104925e-39
-2.9805725 0.43617463 1.226433 5.07111e-39
-2.9991691 0.32172605 1.2077996 5.3473465e-39
-2.9356084 0.96854025 1.2893854 4.3335071e-39
-2.9297941 0.95063537 1.2914524 5.6231949e-39
-2.9259219 0.97157872 1.2951304 5.0728924e-39
-2.9220495 0.99252194 1.2988081 5.0714603e-39
-2.9206553 0.94824922 1.2965044 5.9916187e-39
-2.9187193 0.95872074 1.2983432 5.8072261e-39
-2.904062 1.0710031 1.3145754 4.6100926e-39
-2.9021094 1.0815639 1.3164299 4.6994001e-39
-2.9342728 0.89207858 1.2847949 5.9916187e-39
-2.9211969 0.89350528 1.2923622 6.4525955e-39
-2.8010387 1.2101635 1.3831546 5.6242515e-39
-2.7733884 1.2029438 1.39844 5.8082826e-39
-2.9725728 0.47194684 1.2335063 5.7175584e-39
-2.95629 0.50313306 1.244989 7.4674971e-39
-2.9734459 0.39033642 1.2272935 5.072189e-39
-2.9883735 0.3296074 1.2145164 5.3476969e-39
-3.020479 0.27444157 1.1923188 9.1291652e-39
-3.0186074 0.28456324 1.1940966 9.7745346e-39
-3.0041597 0.31262198 1.2043122 8.5774306e-39
-3.0099647 0.31384471 1.2010825 4.0591258e-39
-3.0142672 0.24006699 1.1934597 5.3476969e-39
-3.0086055 0.2706891 1.1988369 5.3484157e-39
-3.0048311 0.29110396 1.2024223 5.3476969e-39
-3.0029438 0.30131131 1.2042145 5.3473465e-39
-3.0010564 0.31151873 1.2060071 5.3484157e-39
-2.9821837 0.41359258 1.223932 1.0050763e-38
-2.9996972 0.26836309 1.2037617 4.8895956e-39
-2.9978099 0.27857047 1.205554 5.3476969e-39
-2.9959226 0.28877795 1.2073468 5.3476969e-39
-2.9990244 0.3538551 1.2101315 5.3484157e-39
-2.9952183 0.37444139 1.2137467 5.1626021e-39
-2.9914119 0.39502749 1.2173617 3.9665771e-39
-2.9895089 0.40532053 1.2191694 3.8743815e-39
-2.9900413 0.35150954 1.2150977 5.072189e-39
-2.9881382 0.36180261 1.2169052 5.072189e-39
-2.982429 0.39268193 1.2223276 5.072189e-39
-2.9614947 0.50590569 1.2422103 9.8681694e-39
-2.9902606 0.31940004 1.2127242 5.2551509e-39
-2.9864862 0.33981478 1.2163088 5.2551509e-39
-2.9938476 0.33092344 1.2114824 5.072189e-39
-3.0191309 0.23164836 1.1900927 5.4395422e-39
-2.9515369 0.79756796 1.2683182 4.6097815e-39
-2.9477942 0.81781137 1.271873 4.6108507e-39
-2.9459226 0.82793307 1.2736506 4.8852796e-39
-2.9365654 0.87854165 1.2825377 4.7923749e-39
-2.9427032 0.79526144 1.2732016 5.0714603e-39
-2.927732 0.87623513 1.287421 4.5182865e-39
-2.9309709 0.85856563 1.2843339 6.3621991e-39
-2.9334273 0.79390568 1.2784039 5.7175584e-39
-2.9243667 0.79153979 1.2834129 5.9015895e-39
-2.9314191 0.78640294 1.2790256 6.3611285e-39
-2.9153056 0.7891739 1.2884218 5.9927159e-39
-2.9133859 0.79955637 1.2902452 6.0863395e-39
-2.9037879 0.85146803 1.2993611 6.5447911e-39
-2.9222801 0.78401667 1.2840778 6.5455212e-39
-2.9203444 0.79448831 1.2859166 6.5455212e-39
-2.9020667 0.78971583 1.2960204 7.0990453e-39
-2.9001303 0.80018765 1.2978597 6.9142995e-39
-2.9707317 0.48190433 1.235255 5.9008706e-39
-2.9688907 0.49186179 1.2370034 5.9015895e-39
-2.9670496 0.50181931 1.238752 5.6253627e-39
-2.9708602 0.47483689 1.2346867 7.4692852e-39
-2.9440513 0.83805478 1.2754281 4.4257406e-39
-2.9421799 0.84817642 1.2772053 4.7927252e-39
-2.9403083 0.85829824 1.2789826 4.7934343e-39
-2.938437 0.86841983 1.2807602 4.7005296e-39
-2.9296033 0.86611336 1.2856437 4.7934287e-39
-2.9114661 0.80993873 1.2920686 6.0863395e-39
-2.9095469 0.82032108 1.2938915 6.0863395e-39
-2.9076271 0.83070332 1.2957147 5.9930663e-39
-2.9057076 0.84108567 1.2975379 6.0863395e-39
-2.9184082 0.80496001 1.2877555 6.4536787e-39
-2.9024053 0.80757284 1.2970774 6.0863395e-39
-2.9004858 0.8179552 1.2989004 5.901221e-39
-2.9092693 0.8025738 1.2928073 6.4540444e-39
-2.9053972 0.82351702 1.2964852 5.9930663e-39
-2.8962584 0.82113087 1.3015373 6.4533255e-39
-2.8943222 0.83160239 1.3033761 6.4536787e-39
-2.9683797 0.70647264 1.2523214 5.3476969e-39
-2.969939 0.56707406 1.241671 4.785849e-39
-2.9680827 0.57711363 1.2434341 4.878402e-39
-2.9662263 0.5871532 1.2451968 4.785849e-39
-2.9558029 0.72440946 1.2607594 5.072189e-39
-2.9539318 0.73453122 1.262537 5.072189e-39
-2.9520605 0.74465287 1.2643143 5.345899e-39
-2.9501889 0.75477463 1.2660918 5.345899e-39
-2.9483175 0.76489615 1.2678694 5.345899e-39
-2.9464462 0.77501792 1.2696466 5.072189e-39
-2.9445748 0.78513956 1.2714242 4.7956021e-39
-2.9399109 0.89476252 1.2817628 4.4257406e-39
-2.9380238 0.90496993 1.2835553 4.8856299e-39
-2.9361365 0.91517735 1.2853477 4.6104821e-39
-2.9254148 1.0575644 1.3014404 3.5955749e-39
-2.9216084 1.0781505 1.3050554 3.4115452e-39
-2.9197054 1.0884436 1.3068628 3.4115452e-39
-2.9741707 0.49450913 1.2341732 6.268214e-39
-2.9723146 0.50454873 1.2359363 6.268214e-39
-2.9704583 0.5145883 1.2376993 6.085971e-39
-2.9686019 0.52462798 1.2394624 5.808675e-39
-2.9574647 0.58486551 1.2500407 4.7854903e-39
-2.9600697 0.65125114 1.2532009 5.8997748e-39
-2.9581983 0.66137278 1.2549782 6.268214e-39
-2.9563267 0.67149442 1.2567555 5.9916187e-39
-2.9544554 0.68161619 1.258533 6.1763687e-39
-2.952584 0.69173783 1.2603105 6.083464e-39
-2.9507124 0.70185965 1.2620879 6.1760184e-39
-2.9488411 0.7119813 1.2638655 6.083464e-39
-2.9469697 0.72210306 1.2656425 5.9916187e-39
-2.9450984 0.7322247 1.2674204 5.5331671e-39
-2.9432268 0.74234647 1.2691977 5.3484157e-39
-2.9555371 0.75974047 1.2633849 5.072189e-39
-2.9394841 0.76258963 1.2727525 5.3476969e-39
-2.9376128 0.7727114 1.2745298 5.072189e-39
-2.9338698 0.79295498 1.2780849 5.072189e-39
-2.9328902 0.88222921 1.2848949 4.9792633e-39
-2.9310029 0.8924365 1.2866873 4.9792633e-39
-2.9291155 0.90264392 1.2884799 4.7030463e-39
-2.9272282 0.91285133 1.2902722 4.9778255e-39
-2.9253409 0.92305863 1.2920647 4.6101318e-39
-2.9234538 0.93326598 1.2938572 4.7927252e-39
-2.9297533 0.98316735 1.2937536 4.1498627e-39
-2.9259472 1.0037535 1.2973688 3.6877691e-39
-2.9240439 1.0140467 1.2991762 3.6877691e-39
-2.9221408 1.0243397 1.3009838 3.4115452e-39
-2.920238 1.0346328 1.302791 3.4115452e-39
-2.9183347 1.0449259 1.3045989 3.4115452e-39
-2.9680789 0.55784935 1.2420872 6.2689175e-39
-2.9662075 0.56797099 1.2438645 5.8082826e-39
-2.9624648 0.5882144 1.2474194 5.067496e-39
-2.9605932 0.59833616 1.249197 4.8831062e-39
-2.9587219 0.60845792 1.2509744 4.5164872e-39
-2.9568503 0.61857957 1.2527517 5.3473059e-39
-2.9549789 0.62870121 1.2545292 5.7178849e-39
-2.9531076 0.63882285 1.2563068 5.9015741e-39
-2.951236 0.64894462 1.2580841 6.1767218e-39
-2.9493649 0.65906626 1.2598614 6.1763687e-39
-2.9474933 0.66918802 1.2616389 5.6260662e-39
-2.945622 0.67930973 1.2634164 6.268214e-39
-2.9437506 0.68943143 1.2651937 6.1760184e-39
-2.9418793 0.69955307 1.266971 6.1760184e-39
-2.9400077 0.70967489 1.2687485 6.083464e-39
-2.9522908 0.72679234 1.2629324 5.7168297e-39
-2.9485164 0.74720705 1.266517 5.5331671e-39
-2.946629 0.75741446 1.2683095 5.5331671e-39
-2.9447417 0.76762176 1.2701023 5.7168297e-39
-2.9428544 0.77782917 1.2718947 5.6242823e-39
-2.93908 0.79824406 1.2754796 5.3484157e-39
-2.9239817 0.8799032 1.2898195 5.0714603e-39
-2.9359953 0.89847726 1.2842592 5.0714603e-39
-2.9340923 0.90877032 1.2860668 4.9789143e-39
-2.932189 0.91906351 1.2878743 4.7030463e-39
-2.9164329 0.92073262 1.2969892 4.8852796e-39
-2.9145455 0.93094003 1.2987821 5.1615063e-39
-2.9126582 0.94114745 1.3005744 4.9774752e-39
-2.9107711 0.95135492 1.3023667 4.7927252e-39
-2.9207704 0.98082191 1.2987195 4.5182865e-39
-2.9188671 0.99111491 1.3005271 4.609036e-39
-2.9169643 1.0014081 1.3023345 4.0569048e-39
-2.9159222 1.0940744 1.3094176 3.2271567e-39
-2.9140027 1.1044567 1.3112408 3.1346038e-39
-2.9592454 0.55554283 1.2469704 6.3622019e-39
-2.9573741 0.56566459 1.2487477 6.5447911e-39
-2.9555027 0.57578623 1.2505252 6.4536521e-39
-2.9536312 0.58590788 1.2523026 6.2696209e-39
-2.9517598 0.59602976 1.2540801 6.2696209e-39
-2.9498885 0.6061514 1.2558577 5.9015741e-39
-2.9480171 0.61627316 1.2576349 6.1767218e-39
-2.9461458 0.62639469 1.2594125 6.1763687e-39
-2.9442742 0.63651645 1.2611897 5.9937753e-39
-2.9424028 0.6466381 1.2629672 6.2685643e-39
-2.9405313 0.65675986 1.264745 6.2685643e-39
-2.9386599 0.6668815 1.2665219 5.8090253e-39
-2.9367886 0.67700326 1.2682993 5.808675e-39
-2.934917 0.68712497 1.270077 6.083464e-39
-2.9330456 0.69724673 1.2718544 6.1760184e-39
-2.9452696 0.71425897 1.2660646 6.1753093e-39
-2.9433825 0.72446632 1.2678568 6.1760184e-39
-2.9414952 0.73467374 1.2696493 6.1760184e-39
-2.9396079 0.74488103 1.2714419 5.5331671e-39
-2.9377205 0.75508845 1.2732345 5.808675e-39
-2.9358332 0.76529574 1.2750268 6.0831137e-39
-2.9339461 0.77550316 1.2768193 6.1763687e-39
-2.9150736 0.87757707 1.2947443 5.2558516e-39
-2.9251089 0.90642482 1.2910324 4.7956021e-39
-2.9232059 0.91671789 1.29284 5.1636559e-39
-2.9213028 0.92701077 1.2946475 4.9789143e-39
-2.9193997 0.93730384 1.296455 5.2540523e-39
-2.9037499 0.93882126 1.3054992 5.0714603e-39
-2.9136903 0.96818322 1.3018777 4.7030365e-39
-2.9117873 0.97847641 1.3036853 5.1622098e-39
-2.9241376 0.99826771 1.2980176 4.7934343e-39
-2.9183788 1.0294148 1.3034872 3.6877691e-39
-2.9164593 1.0397971 1.3053104 3.4115452e-39
-2.9145398 1.0501794 1.3071338 3.8700052e-39
-2.9126201 1.0605618 1.3089567 3.319351e-39
-2.950412 0.55323631 1.2518537 6.8221011e-39
-2.9485407 0.56335807 1.253631 6.5465932e-39
-2.9466691 0.57347971 1.2554088 6.4536787e-39
-2.9590087 0.58944416 1.2494793 6.3611285e-39
-2.9571214 0.59965169 1.2512718 6.4522451e-39
-2.9552341 0.60985911 1.2530645 6.5444408e-39
-2.9533467 0.62006652 1.2548569 6.4525955e-39
-2.9373119 0.62408817 1.2642957 6.5444408e-39
-2.9495721 0.64048123 1.2584418 6.0863395e-39
-2.947685 0.65068859 1.260234 6.0863395e-39
-2.9457977 0.66089588 1.2620268 5.9937753e-39
-2.9439104 0.6711033 1.2638192 5.9008706e-39
-2.9420233 0.68131071 1.2656116 6.0863395e-39
-2.940136 0.69151813 1.2674041 6.2700021e-39
-2.9382486 0.70172554 1.2691965 5.901221e-39
-2.9363616 0.7119329 1.2709889 6.1760184e-39
-2.9465756 0.73938996 1.267078 5.9015895e-39
-2.9446726 0.74968314 1.2688856 5.9937753e-39
-2.9288123 0.75276244 1.278159 5.9005203e-39
-2.9250379 0.77317715 1.2817439 5.7175584e-39
-2.9231505 0.78338444 1.2835363 5.7175584e-39
-2.9218354 0.87320006 1.2905759 5.6242823e-39
-2.9323533 0.90246093 1.286618 5.3476969e-39
-2.9304338 0.91284317 1.2884412 5.6246327e-39
-2.9285142 0.92322552 1.2902644 5.4405959e-39
-2.9265947 0.93360776 1.2920876 5.0714603e-39
-2.9104166 0.93495834 1.301421 5.0714603e-39
-2.9085135 0.94525141 1.3032284 5.1636559e-39
-2.9066105 0.95554465 1.3050358 5.0714603e-39
-2.918916 0.97513723 1.2993805 4.9792633e-39
-2.9169965 0.98551959 1.3012035 5.1618567e-39
-2.915077 0.99590194 1.3030267 4.8852796e-39
-2.9131572 1.0062844 1.30485 4.9781787e-39
-2.9112377 1.0166665 1.3066729 4.517897e-39
-2.909318 1.0270489 1.3084964 4.0569048e-39
-2.9073982 1.0374312 1.3103197 3.8700052e-39
-2.9584215 0.45983458 1.2407398 7.744077e-39
-2.9415784 0.5509299 1.2567371 6.9139464e-39
-2.9519875 0.57691085 1.2526115 6.7299054e-39
-2.9501004 0.58711815 1.2544041 6.7295523e-39
-2.9482129 0.59732568 1.2561963 6.5455212e-39
-2.9463258 0.6075331 1.257989 6.7299054e-39
-2.9444385 0.61774051 1.2597814 6.4536787e-39
-2.9425511 0.62794781 1.261574 6.4536787e-39
-2.9406638 0.63815516 1.2633662 6.4536787e-39
-2.9387767 0.64836258 1.2651587 6.3611285e-39
-2.9368892 0.65856987 1.2669513 6.6369909e-39
-2.9350021 0.66877729 1.2687439 5.9930663e-39
-2.933115 0.6789847 1.2705363 6.3618488e-39
-2.9312277 0.68919212 1.2723287 6.2700021e-39
-2.9293406 0.69939953 1.2741212 6.268214e-39
-2.9375925 0.73704451 1.2720439 6.0863395e-39
-2.9356897 0.74733752 1.2738515 5.9927159e-39
-2.9337864 0.75763071 1.2756592 5.9927159e-39
-2.9318833 0.76792347 1.2774665 5.9927159e-39
-2.9299803 0.77821666 1.2792742 5.7175584e-39
-2.9280772 0.78850973 1.2810817 5.9015895e-39
-2.9194531 0.92085963 1.2952735 5.6242823e-39
-2.9175334 0.93124187 1.2970965 5.4406015e-39
-2.9136941 0.95200646 1.300743 5.2558516e-39
-2.9098549 0.97277135 1.3043895 5.0728924e-39
-2.9040964 1.0039184 1.3098588 4.9792633e-39
-2.9021766 1.0143006 1.3116821 5.1629104e-39
-2.9002571 1.024683 1.3135054 4.7019197e-39
-2.8983374 1.0350654 1.3153286 4.6072031e-39
-2.9084969 1.0658231 1.31168 3.9621994e-39
-2.9046247 1.0867662 1.3153578 3.8700052e-39
-2.9449666 0.56437743 1.2557436 7.1912465e-39
-2.9430792 0.57458472 1.2575362 6.9139464e-39
-2.9411919 0.58479214 1.2593284 6.9142995e-39
-2.9393046 0.59499967 1.261121 6.9139464e-39
-2.9374173 0.60520709 1.2629136 6.9142995e-39
-2.9355302 0.6154145 1.2647061 6.7299054e-39
-2.9336429 0.6256218 1.2664986 6.8221011e-39
-2.9317558 0.63582921 1.2682909 6.8221011e-39
-2.9223194 0.6868661 1.2772534 6.3621991e-39
-2.9286094 0.73469901 1.2770102 6.0863395e-39
-2.9267066 0.74499202 1.2788174 5.9930663e-39
-2.9248033 0.75528508 1.2806251 5.9015895e-39
-2.916151 0.8873468 1.2948127 6.0863395e-39
-2.9142315 0.89772916 1.2966359 5.9015895e-39
-2.8988745 0.98078775 1.3112215 5.2558516e-39
-2.8950353 1.0015525 1.3148679 5.0714603e-39
-2.9360583 0.56205148 1.2606682 7.466767e-39
-2.9266219 0.61308849 1.2696308 7.0986922e-39
-2.8917332 0.96803963 1.3144073 6.0841675e-39
-2.9611168 0.54542118 1.2451931 6.3618488e-39
-2.9343977 1.0599101 1.2964743 3.6874118e-39
-2.9324946 1.0702031 1.2982819 3.4115452e-39
-2.9305916 1.0804962 1.3000894 3.319351e-39
-2.9286888 1.0907891 1.3018967 3.4115452e-39
-2.9273179 1.0472714 1.2996325 3.5955749e-39
-2.9278502 0.99346054 1.2955611 4.056916e-39
-2.9293594 1.0213983 1.2966553 3.7799634e-39
-2.9274399 1.0317807 1.2984785 3.5955749e-39
-2.9255204 1.0421629 1.3003014 3.2271567e-39
-2.9236007 1.0525453 1.3021245 3.2271567e-39
-2.9216812 1.0629275 1.3039479 3.2271567e-39
-2.9197614 1.0733099 1.305771 3.2271567e-39
-2.9222181 1.0086501 1.2998409 4.517897e-39
-2.9202986 1.0190325 1.3016644 4.2391493e-39
-2.9176359 1.0682093 1.3066278 3.8700052e-39
-2.9414141 0.9048267 1.2816091 5.072189e-39
-2.9744139 0.46198946 1.2317575 5.9015895e-39
-2.9635527 0.50226092 1.2407801 6.5465932e-39
-2.9616966 0.51230055 1.242543 6.3618488e-39
-2.9529347 0.51001275 1.2473867 7.0064951e-39
-2.959769 0.50262779 1.2429667 7.1919654e-39
-2.9578977 0.51274943 1.2447439 7.1919626e-39
-2.9490643 0.51044303 1.2496271 7.284161e-39
-2.939707 0.56105149 1.2585143 6.9142995e-39
-2.9285092 0.60288107 1.2678381 7.1912465e-39
-2.9598403 0.52234018 1.2443061 6.2700021e-39
-2.9510784 0.52005243 1.2491497 6.6387888e-39
-2.9560263 0.5228712 1.2465216 6.9150184e-39
-2.9471927 0.52056479 1.2514048 7.1919654e-39
-2.9522834 0.54311466 1.2500762 6.7309872e-39
-2.94345 0.5408082 1.2549593 6.9146652e-39
-2.946101 0.81077737 1.2723475 4.7956021e-39
-2.9442136 0.82098478 1.2741401 5.345899e-39
-2.9347773 0.87202179 1.2831026 4.978564e-39
-2.9371927 0.80845135 1.2772722 5.8994217e-39
-2.9353054 0.81865877 1.2790645 5.8072261e-39
-2.925869 0.86969578 1.2880268 5.2558516e-39
-2.9320588 0.78571039 1.278612 5.901221e-39
-2.9301715 0.79591805 1.2804044 5.901221e-39
-2.9282842 0.8061254 1.2821968 6.1763687e-39
-2.9263971 0.81633276 1.2839891 5.3484157e-39
-2.9169607 0.86736983 1.2929516 5.4406015e-39
-2.9351571 0.80114847 1.2779231 5.9927159e-39
-2.9332538 0.81144154 1.2797308 6.268214e-39
-2.9174888 0.81400675 1.2889137 5.9008706e-39
-2.9237385 0.86290699 1.2887683 6.2689175e-39
-2.9261739 0.79880303 1.2828892 6.268214e-39
-2.9242711 0.80909604 1.2846966 6.268214e-39
-2.9171908 0.79645741 1.2878551 6.0863395e-39
-2.9152877 0.8067506 1.2896627 6.2678637e-39
-2.9133849 0.8170436 1.2914702 6.0863395e-39
-2.9082077 0.79411191 1.2928212 6.0863395e-39
-2.9063046 0.80440497 1.2946286 6.2689497e-39
-2.9044015 0.81469798 1.2964361 6.5440919e-39
-2.9672654 0.48218176 1.2372541 6.6387888e-39
-2.965409 0.49222136 1.2390169 6.7299054e-39
