# .PCD v0.7 - Point Cloud Data file format
VERSION 0.7
FIELDS x y z rgb
SIZE 4 4 4 4
TYPE F F F F
COUNT 1 1 1 1
WIDTH 1114
HEIGHT 1
VIEWPOINT 0 0 0 1 0 0 0
POINTS 1114
DATA ascii
1.0073899 0.46461686 2.541599 8.4077908e-45
1.0066139 0.47292596 2.5446224 5.6051939e-45
1.0062259 0.47708073 2.5461338 1.8587664e-40
1.0154245 0.50233942 2.5582893 1.9368691e-39
1.0150336 0.5065248 2.5598121 1.6620647e-39
1.003898 0.50200838 2.5552027 3.9376487e-43
1.0035102 0.5061633 2.5567141 1.821688e-44
1.0031222 0.51031792 2.5582254 1.8369341e-40
1.0027342 0.51447254 2.5597367 4.5992157e-40
1.0130794 0.52745211 2.5674257 5.521172e-40
1.0126885 0.53163773 2.5689483 6.4431283e-40
1.0122976 0.53582317 2.5704708 7.3722733e-40
1.0119069 0.54000866 2.5719936 7.3650846e-40
1.011516 0.5441941 2.5735161 9.2160738e-40
1.0111251 0.54837966 2.5750389 1.1981929e-39
1.0210562 0.56579143 2.5843399 1.4012985e-45
1.0291588 0.60929835 2.6032906 0
1.0122619 0.4600741 2.5410886 4.5920551e-40
1.011874 0.46422872 2.5425999 6.4287089e-40
1.0114859 0.46838349 2.5441113 9.3322274e-41
1.011098 0.47253817 2.5456226 9.4381655e-41
1.01071 0.47669277 2.5471344 1.570218e-39
1.0095462 0.48915666 2.5516686 2.1197988e-39
1.0091581 0.49331123 2.5531802 1.8428532e-39
1.0087702 0.49746585 2.5546916 1.1088881e-39
1.0083822 0.50162059 2.5562029 7.3721471e-40
1.0079943 0.50577527 2.5577145 8.4077908e-45
1.0076063 0.50992978 2.5592263 1.9618179e-44
1.0072184 0.51408446 2.5607376 4.5992157e-40
1.0175967 0.5270614 2.5684333 2.7623797e-40
1.0172058 0.53124684 2.5699561 2.1664074e-42
1.0168149 0.53543222 2.5714788 4.6026909e-40
1.0253053 0.54890668 2.5788834 7.3756784e-40
1.0160333 0.54380327 2.5745242 1.2611686e-44
1.0156424 0.54798871 2.5760472 1.4012985e-45
1.0256069 0.56539768 2.5853553 1.4012985e-45
1.0252131 0.56961387 2.5868893 0
1.0175217 0.45137694 2.5390661 6.5409095e-39
1.0171336 0.45553148 2.5405777 6.446902e-39
1.0059056 0.45129853 2.5360539 4.5920551e-40
1.0163578 0.46384084 2.5436003 1.8368781e-40
1.0159698 0.46799558 2.5451117 4.6246493e-40
1.0151938 0.4763048 2.5481348 1.662415e-39
1.0140299 0.48876861 2.5526693 1.9354076e-39
1.013642 0.49292326 2.5541806 1.7506576e-39
1.013254 0.49707788 2.555692 5.5571433e-40
1.012866 0.50123262 2.5572033 6.4501908e-40
1.012478 0.50538719 2.5587153 9.1845305e-41
1.01209 0.50954181 2.5602267 1.8369341e-40
1.0117022 0.51369655 2.561738 2.7589044e-40
1.0113142 0.51785111 2.5632493 1.8404094e-40
1.0213321 0.53504139 2.5724866 7.0064923e-45
1.0270661 0.54327583 2.5771518 2.7623376e-40
1.0301722 0.55109662 2.5809815 5.6051939e-45
1.0309372 0.55636591 2.5832214 9.1835496e-41
1.0107415 0.44678965 2.5355465 2.7651682e-39
1.0103564 0.45091352 2.5370469 2.0276032e-39
1.0189363 0.46212468 2.5435967 1.657397e-39
1.0204538 0.46760744 2.5461125 2.858831e-39
1.0200658 0.47176206 2.5476239 2.7669857e-39
1.0196779 0.47591683 2.5491352 3.133948e-39
1.0192899 0.48007149 2.5506465 2.2119931e-39
1.0189019 0.48422611 2.5521584 2.0250865e-39
1.0275475 0.49630991 2.5590632 1.8428504e-39
1.0181259 0.49253529 2.5551813 1.3818779e-39
1.0259734 0.5048784 2.5619817 1.474428e-39
1.01735 0.5008446 2.5582042 6.4431283e-40
1.0169621 0.50499934 2.5597155 9.1856516e-41
1.016574 0.50915396 2.5612268 7.0064923e-45
1.0345167 0.54224128 2.5786631 9.2198432e-41
1.0254586 0.53883612 2.5750175 1.4012985e-45
1.0250677 0.54302156 2.57654 0
1.0246768 0.54720706 2.5780628 0
1.024286 0.55139256 2.5795853 0
1.0444173 0.57114697 2.5924132 0
1.0235043 0.55976337 2.5826311 0
1.0171176 0.42578539 2.5290387 2.7626487e-39
1.0167326 0.42990935 2.5305388 2.6704531e-39
1.0264895 0.4506011 2.5410669 1.4747798e-39
1.0261016 0.45475563 2.5425785 1.9354076e-39
1.0148071 0.45052847 2.5380399 1.8428532e-39
1.0144221 0.45465213 2.5395403 1.5655727e-39
1.0249376 0.46721956 2.5471129 3.1350592e-39
1.0241617 0.47552896 2.5501356 3.133948e-39
1.0229979 0.48799267 2.5546703 1.8403379e-39
1.0226098 0.49214733 2.5561817 1.3818779e-39
1.0222219 0.49630186 2.5576932 1.105291e-39
1.0218339 0.50045663 2.5592046 7.3650846e-40
1.021446 0.50461137 2.5607159 1.8369341e-40
1.0315391 0.52170336 2.5699346 5.6051939e-45
1.0311482 0.52588874 2.5714571 1.5414283e-44
1.0307574 0.5300743 2.5729799 3.657389e-43
1.0303665 0.53425968 2.5745027 4.2038954e-45
1.0299757 0.53844529 2.5760252 4.2038954e-45
1.0187302 0.53369373 2.5712962 0
1.0377927 0.55304372 2.5836928 0
1.0288031 0.55100161 2.5805933 0
1.0498129 0.5739435 2.5948825 0
1.0388645 0.56843269 2.5899355 0
1.0384707 0.57264912 2.591469 0
1.0215682 0.42540044 2.5300314 8.3192848e-40
1.021183 0.42952421 2.531532 5.5571433e-40
1.0309734 0.45021313 2.5420673 2.0283039e-39
1.0301974 0.45852223 2.5450907 1.5655727e-39
1.0294214 0.46683159 2.5481133 3.2261436e-39
1.0290335 0.47098619 2.5496247 3.2261436e-39
1.0286455 0.47514087 2.5511363 3.0417523e-39
1.0282576 0.47929543 2.5526478 2.6704531e-39
1.0278696 0.48345026 2.5541592 1.7506604e-39
1.0274817 0.48760489 2.5556705 1.8403351e-39
1.0306373 0.49462038 2.5592012 1.7510121e-39
1.0267057 0.49591398 2.5586936 1.1981929e-39
1.0335274 0.50681967 2.5646734 1.0134457e-39
1.0259298 0.50422347 2.5617166 2.7623797e-40
1.036447 0.51712692 2.5694201 1.4012985e-45
1.0360563 0.52131265 2.5709424 5.6051939e-45
1.0247658 0.51668721 2.5662508 5.6051939e-45
1.0352745 0.52968347 2.573988 9.1845305e-41
1.0348836 0.53386885 2.5755105 1.8404094e-40
1.0421267 0.54418463 2.5813696 7.3540844e-40
1.034102 0.5422399 2.5785558 9.1835496e-41
1.022826 0.53746039 2.5738084 0
1.0333202 0.55061078 2.5816014 0
1.0329294 0.55479646 2.5831237 0
1.0325385 0.55898172 2.5846467 0
1.0321476 0.56316727 2.5861692 0
1.0317569 0.56735265 2.587692 0
1.0260189 0.42501533 2.5310247 5.6051939e-45
1.0256338 0.42913929 2.5325248 1.5414283e-44
1.0252486 0.43326309 2.5340252 1.3836982e-39
1.0248636 0.43738672 2.5355256 2.7651654e-39
1.0354575 0.44982499 2.5430682 1.5673257e-39
1.0350696 0.4539797 2.5445795 1.5666265e-39
1.0346816 0.45813444 2.5460908 1.5655727e-39
1.0342935 0.46228907 2.5476022 2.0304871e-39
1.0339056 0.46644354 2.5491142 3.0417523e-39
1.0335176 0.47059813 2.5506256 3.0417523e-39
1.0409935 0.48088771 2.5565343 3.0421069e-39
1.0327417 0.4789075 2.5536482 2.6704531e-39
1.0415255 0.49101031 2.5605958 1.7506548e-39
1.0319657 0.48721683 2.5566711 2.0250865e-39
1.0315777 0.49137148 2.5581825 1.5666265e-39
1.0311898 0.49552602 2.5596941 1.1981929e-39
1.0308018 0.49968058 2.5612059 9.2125985e-40
1.0304139 0.50383538 2.5627172 2.7623797e-40
1.0409644 0.51673615 2.5704279 0
1.0480554 0.52668649 2.5761065 7.1886611e-43
1.0401827 0.52510703 2.5734732 5.6051939e-45
1.0397918 0.52929264 2.5749958 9.1845305e-41
1.0394009 0.53347802 2.5765185 2.7623797e-40
1.0390102 0.53766358 2.5780413 6.4286249e-40
1.0386193 0.54184902 2.5795639 3.6734198e-40
1.0382284 0.54603446 2.5810869 0
1.0378376 0.55021995 2.5826092 0
1.0374467 0.55440545 2.584132 0
1.0370559 0.55859095 2.5856545 0
1.0366651 0.56277645 2.5871773 0
1.0362742 0.56696177 2.5887001 0
1.0194458 0.41644189 2.5260131 4.9786439e-39
1.0190636 0.420535 2.5275021 4.9778956e-39
1.0296993 0.43287799 2.5350182 5.346999e-39
1.0293143 0.43700168 2.5365186 3.1303761e-39
1.0395533 0.45359173 2.5455799 2.4871745e-39
1.0387774 0.46190092 2.5486031 2.674081e-39
1.0376134 0.47436494 2.5531373 2.674081e-39
1.0482175 0.48704696 2.5607769 2.4868059e-39
1.0364496 0.48682877 2.5576718 1.3818779e-39
1.0360615 0.49098343 2.5591831 1.5666265e-39
1.0381244 0.49650541 2.5618539 1.3840275e-39
1.0352856 0.4992927 2.562206 1.1056385e-39
1.0410634 0.50873584 2.5673509 3.684406e-40
1.0345097 0.5076021 2.5652289 1.2611686e-44
1.0450907 0.52053076 2.5729587 1.2611686e-44
1.0431365 0.54145813 2.5805719 3.6734899e-40
1.0427456 0.54564369 2.5820944 0
1.0423547 0.54982901 2.5836172 0
1.0419639 0.55401468 2.5851398 0
1.041573 0.55820006 2.5866625 0
1.030242 0.55330306 2.5818551 0
1.0298541 0.55745763 2.5833664 0
1.0408242 0.42936528 2.5365121 4.5165587e-39
1.0345351 0.42836905 2.5345111 8.112547e-39
1.03415 0.43249285 2.5360115 5.7154228e-39
1.0337648 0.43661657 2.5375118 2.6693993e-39
1.0440373 0.45320368 2.5465806 2.7637627e-39
1.0436493 0.45735833 2.5480921 3.4116489e-39
1.0432614 0.46151304 2.5496035 2.9510267e-39
1.0428734 0.46566778 2.5511148 2.4900401e-39
1.0535165 0.47828519 2.5587394 2.4896898e-39
1.0420974 0.47397706 2.5541377 2.858831e-39
1.0485325 0.48279572 2.5592093 2.6719062e-39
1.052344 0.49084166 2.5633078 1.3818835e-39
1.0423988 0.48773143 2.5595489 1.8432091e-39
1.0405456 0.49059546 2.5601838 1.5666265e-39
1.0401576 0.49475008 2.5616951 1.1974866e-39
1.0397696 0.49890482 2.5632064 9.2160738e-40
1.0393816 0.50305951 2.564718 2.7589044e-40
1.0389937 0.50721401 2.5662298 1.5414283e-44
1.0576781 0.5282743 2.5791922 1.6815582e-44
1.0556434 0.52859819 2.5787954 7.314778e-43
1.0598226 0.53734374 2.5832593 1.9618179e-44
1.0484354 0.53269631 2.5785344 6.4396251e-40
1.0476538 0.5410673 2.5815797 3.6734899e-40
1.0472629 0.5452528 2.5831025 1.4012985e-45
1.046872 0.54943824 2.5846252 0
1.0464811 0.5536238 2.5861478 0
1.0460904 0.55780911 2.5876708 0
1.0456995 0.56199467 2.5891931 0
1.0453087 0.56618005 2.5907161 0
1.0449178 0.57036567 2.5922384 0
1.0670333 0.59337801 2.6068389 0
1.0550978 0.58793938 2.6016665 0
1.054704 0.59215569 2.6032002 0
1.0255357 0.31812808 2.4894531 2.7589044e-40
1.0251564 0.32219028 2.4909306 2.7623797e-40
1.0247771 0.32625237 2.4924085 2.7623797e-40
1.0243977 0.33031443 2.4938865 4.6026909e-40
1.0347781 0.34609711 2.5026708 9.1845305e-41
1.0340137 0.35428298 2.5056491 1.821688e-44
1.0393708 0.42385995 2.5340042 5.2533909e-39
1.0389857 0.42798391 2.5355043 5.2508769e-39
1.0496851 0.44035193 2.5430467 4.0530498e-39
1.0492971 0.44450656 2.544558 2.7622984e-39
1.0489092 0.44866115 2.5460696 2.6704531e-39
1.0485213 0.45281568 2.5475812 3.3161882e-39
1.0481333 0.45697045 2.5490925 3.4076804e-39
1.0477452 0.46112508 2.5506039 3.1328942e-39
1.0473573 0.46527982 2.5521152 2.8573681e-39
1.0465814 0.473589 2.5551383 2.6751348e-39
1.0461934 0.47774357 2.5566497 2.4885786e-39
1.0458055 0.48189819 2.5581615 1.8428532e-39
1.0454174 0.48605284 2.5596728 1.5666265e-39
1.0560794 0.49882174 2.5673609 1.3818779e-39
1.0504007 0.49956632 2.5661922 1.2918234e-39
1.0442535 0.49851677 2.5642071 6.4431283e-40
1.0438656 0.50267148 2.5657187 7.3470078e-40
1.0599611 0.51973385 2.5764661 1.0818024e-42
1.0648322 0.52373278 2.5792675 4.6062642e-40
1.063722 0.53012878 2.5814626 2.7623236e-40
1.0533434 0.52812004 2.5780196 7.0064923e-45
1.0529525 0.53230542 2.5795424 2.1664074e-42
1.0525618 0.53649104 2.5810649 8.4077908e-45
1.0620992 0.54930955 2.588484 1.8439546e-40
1.0517801 0.54486209 2.5841103 1.4012985e-45
1.0604813 0.55798066 2.5914307 0
1.0509984 0.55323297 2.5871556 7.0064923e-45
1.0506074 0.55741835 2.5886784 7.0064923e-45
1.070194 0.57879448 2.601995 0
1.0498258 0.56578922 2.5917237 0
1.0494349 0.56997466 2.5932467 0
1.0490441 0.57416034 2.594769 0
1.0486532 0.57834566 2.596292 0
1.0482624 0.58253121 2.5978146 0
1.0913218 0.65592051 2.6373258 0
1.0909189 0.66023576 2.6388955 2.8025969e-45
1.090516 0.6645512 2.6404655 7.0064923e-45
1.090113 0.6688664 2.6420355 0
1.0245939 0.25418147 2.4644146 1.8369341e-40
1.0242174 0.2582145 2.4658818 9.1845305e-41
1.0238408 0.26224735 2.4673491 1.8404094e-40
1.0234642 0.26628035 2.468816 1.8404094e-40
1.0310576 0.30556244 2.4859977 1.4727647e-42
1.0306782 0.30962452 2.4874756 1.9618179e-44
1.0302988 0.31368664 2.4889534 4.5992157e-40
1.0299196 0.31774884 2.4904311 2.7589044e-40
1.0295402 0.32181087 2.491909 1.8404094e-40
1.0291609 0.32587305 2.493387 9.1845305e-41
1.0287815 0.32993519 2.4948645 2.7623797e-40
1.0284022 0.3339974 2.4963424 2.7623797e-40
1.0280229 0.33805937 2.4978204 9.1845305e-41
1.0388132 0.34980792 2.5051455 5.6051939e-45
1.0384309 0.35390088 2.5066345 1.9618179e-44
1.0438213 0.42347485 2.5349972 3.225087e-39
1.0434362 0.42759871 2.5364976 3.4069643e-39
1.0541689 0.43996397 2.5440471 3.3154848e-39
1.0537809 0.44411859 2.5455585 3.0385251e-39
1.0533929 0.44827309 2.5470703 3.0392342e-39
1.053005 0.45242772 2.5485816 3.5931339e-39
1.0526171 0.45658246 2.5500929 3.5924304e-39
1.0518411 0.46489176 2.5531161 2.8573681e-39
1.0514532 0.46904635 2.5546274 2.4907436e-39
1.0510652 0.47320113 2.5561388 2.4907436e-39
1.0506772 0.47735569 2.5576501 2.5807742e-39
1.0560533 0.48467866 2.5618699 2.3963801e-39
1.0499012 0.48566493 2.5606732 1.7506576e-39
1.0498568 0.48958746 2.5621829 1.6588193e-39
1.0491253 0.49397415 2.5636961 1.1056385e-39
1.0487374 0.4981288 2.5652077 6.4431283e-40
1.0483494 0.50228357 2.5667191 6.4286249e-40
1.0479614 0.50643826 2.5682304 8.4077908e-45
1.0475734 0.51059288 2.5697417 5.6051939e-45
1.0568581 0.52276045 2.5768435 4.2038954e-45
1.0467974 0.518902 2.5727651 4.2038954e-45
1.0690043 0.54261971 2.5876622 5.5354092e-40
1.0570787 0.53610021 2.582073 7.0064923e-45
1.056688 0.54028565 2.5835955 5.6051939e-45
1.0562971 0.54447109 2.5851185 4.2038954e-45
1.0559062 0.54865652 2.5866408 0
1.0555153 0.55284202 2.5881636 7.0064923e-45
1.0551245 0.55702752 2.5896864 9.8090893e-45
1.0547336 0.56121302 2.5912089 0
1.0543429 0.5653984 2.5927317 0
1.053952 0.56958395 2.5942543 0
1.0535611 0.57376945 2.595777 0
1.0531702 0.57795489 2.5972998 0
1.0527794 0.58214039 2.5988224 0
1.0959791 0.65551758 2.6383648 0
1.095576 0.65983284 2.6399348 2.8025969e-45
1.0951731 0.66414821 2.6415045 1.1210388e-44
1.0998186 0.67258412 2.6459682 0
1.0205224 0.22308785 2.4513123 1.8404094e-40
1.0293235 0.24977207 2.4639187 8.4077908e-45
1.0289468 0.25380489 2.4653857 0
1.0179052 0.25111386 2.461508 0
1.0281936 0.26187071 2.4683204 7.0064923e-45
1.0278169 0.26590362 2.4697876 0
1.0274403 0.26993659 2.4712543 0
1.0365797 0.29299676 2.4825425 6.428793e-40
1.0358211 0.30112097 2.4854982 3.0421027e-39
1.0354418 0.30518311 2.4869759 2.2152189e-39
1.0350624 0.30924529 2.4884536 6.4501628e-40
1.0343038 0.31736952 2.4914093 1.0105772e-39
1.0339245 0.32143164 2.492887 4.6026909e-40
1.0335451 0.32549381 2.494365 2.7623797e-40
1.0331658 0.32955587 2.4958427 1.8404094e-40
1.0327865 0.33361807 2.4973207 0
1.0324072 0.33768013 2.4987984 8.4077908e-45
1.0432307 0.34942573 2.5061312 9.1845305e-41
1.0428485 0.35351852 2.5076203 1.8404094e-40
1.0598168 0.42711189 2.5405135 1.8443232e-39
1.0482721 0.4230898 2.5359902 2.5818882e-39
1.0590409 0.43542132 2.5435362 3.0392706e-39
1.0586529 0.43957609 2.5450475 2.8552283e-39
1.0582649 0.44373062 2.5465591 2.8573681e-39
1.0578769 0.4478853 2.5480704 3.1335948e-39
1.057489 0.45203984 2.549582 4.0537533e-39
1.057101 0.45619452 2.5510936 3.869362e-39
1.0567131 0.46034905 2.5526052 3.0417523e-39
1.0563251 0.46450379 2.5541165 2.8580701e-39
1.063997 0.47466028 2.5600243 3.1343333e-39
1.0603334 0.4758794 2.5595565 3.3194336e-39
1.0626867 0.48334941 2.5630572 3.2265191e-39
1.0547732 0.48112234 2.5601623 2.2119931e-39
1.0543853 0.48527697 2.5616736 1.5666265e-39
1.0428809 0.48082319 2.5569935 1.0141743e-39
1.0536093 0.49358609 2.5646968 1.1056385e-39
1.0579066 0.50144553 2.5688474 8.2940614e-40
1.0528333 0.50189561 2.5677195 1.8404094e-40
1.061152 0.51394117 2.5745258 1.8439686e-40
1.0520574 0.51020479 2.5707426 5.6051939e-45
1.0627687 0.52315283 2.5785127 4.2038954e-45
1.0623779 0.52733839 2.5800354 0
1.061987 0.53152376 2.5815582 5.6051939e-45
1.0615962 0.53570932 2.583081 7.0064923e-45
1.0612054 0.53989476 2.5846035 0
1.0608145 0.5440802 2.5861266 5.6051939e-45
1.0604236 0.5482657 2.5876489 1.4012985e-45
1.0600327 0.55245125 2.5891716 9.18397e-41
1.059642 0.55663669 2.5906942 0
1.0592511 0.56082213 2.592217 0
1.0477897 0.5559057 2.5873687 0
1.0584694 0.56919312 2.5952623 0
1.0580785 0.57337856 2.5967853 0
1.0576876 0.57756406 2.5983076 0
1.0572969 0.5817495 2.5998306 0
1.1002336 0.65942979 2.6409738 0
1.0998306 0.66374516 2.642544 0
1.0052328 0.082389139 2.3928287 5.51034e-40
1.0184358 0.17679815 2.4328268 2.7623797e-40
1.0165794 0.1966787 2.4400592 1.8404094e-40
1.0162081 0.20065482 2.4415059 4.6026909e-40
1.0158368 0.2046309 2.4429524 2.7589044e-40
1.0154655 0.20860708 2.4443989 2.7589044e-40
1.0252171 0.21871044 2.4508197 2.7623797e-40
1.0244693 0.22671783 2.4537327 8.4077908e-45
1.0240954 0.2307214 2.4551892 7.0064923e-45
1.0332993 0.25342819 2.466357 0
1.0222261 0.25073996 2.4624724 1.8439126e-40
1.0218521 0.25474367 2.4639287 7.0064923e-45
1.0321695 0.26552713 2.4707584 0
1.0317929 0.26956004 2.4722257 0
1.0314163 0.27359289 2.4736929 8.4077908e-45
1.0310397 0.27762574 2.4751601 8.4077908e-45
1.0457984 0.30907023 2.4911418 2.8591421e-39
1.0394465 0.30886585 2.4894321 2.4889289e-39
1.0390673 0.31292805 2.4909096 4.5992157e-40
1.0280268 0.3098892 2.4868977 1.1949685e-39
1.0276502 0.31392205 2.4883649 6.4501908e-40
1.0272738 0.3179552 2.4898317 6.4501908e-40
1.0375497 0.32917652 2.4968209 4.6026909e-40
1.0476289 0.33956191 2.5034356 4.6098235e-40
1.046288 0.34552813 2.5054047 2.7623656e-40
1.0364118 0.34136292 2.5012546 9.1845305e-41
1.0472658 0.35313633 2.508606 9.1845305e-41
1.0569587 0.377343 2.5204806 5.6051939e-45
1.0561886 0.38559064 2.5234811 2.7589044e-40
1.0558034 0.38971433 2.5249815 2.7554292e-40
1.0646887 0.42256933 2.5400023 5.5431023e-40
1.0527227 0.42270479 2.5369833 1.8443232e-39
1.0635248 0.43503326 2.5445368 2.4864556e-39
1.0631368 0.43918803 2.5460482 2.4868059e-39
1.0623609 0.44749725 2.5490711 3.1335948e-39
1.061973 0.45165178 2.5505826 3.6853295e-39
1.0710838 0.46224079 2.5570271 3.962987e-39
1.0611969 0.45996115 2.5536053 3.0417523e-39
1.0694759 0.47084704 2.5599518 2.950986e-39
1.060421 0.46827033 2.5566285 2.213456e-39
1.0600331 0.47242501 2.55814 3.4098482e-39
1.0596451 0.47657967 2.5596514 3.1328914e-39
1.0592571 0.48073447 2.5611627 2.3963829e-39
1.0588691 0.484889 2.5626743 1.5666265e-39
1.0555657 0.48754251 2.5628555 1.1985558e-39
1.0469463 0.48456174 2.5594871 8.2941034e-40
1.0577052 0.49735287 2.5672088 5.5282345e-40
1.0573173 0.50150758 2.5687203 1.8404094e-40
1.0569292 0.5056622 2.5702317 8.4077908e-45
1.0565413 0.50981688 2.571743 5.6051939e-45
1.0672858 0.52276194 2.5795207 5.6051939e-45
1.075655 0.53366011 2.5858948 4.2038954e-45
1.0665041 0.531133 2.582566 5.6051939e-45
1.0740284 0.54233384 2.5888407 2.7659109e-40
1.0657223 0.53950387 2.5856116 0
1.0653315 0.54368943 2.5871341 1.4012985e-45
1.0649407 0.54787475 2.5886571 0
1.0534376 0.54305398 2.5838346 0
1.0641589 0.55624574 2.5917025 0
1.0637681 0.5604313 2.5932248 0
1.0633773 0.56461674 2.5947475 0
1.0629864 0.56880218 2.5962703 0
1.0736933 0.58214825 2.6041937 0
1.0622047 0.57717317 2.5993156 0
1.0618138 0.58135861 2.6008384 0
1.0098288 0.078103796 2.3923466 7.3470919e-40
1.0234697 0.16847457 2.4308913 1.8369341e-40
1.0227271 0.1764269 2.4337842 1.8404094e-40
1.0219846 0.18437907 2.4366775 1.8404094e-40
1.021242 0.19233136 2.4395702 1.9618179e-44
1.0208707 0.19630736 2.4410169 7.0064923e-45
1.0204992 0.2002835 2.4424634 9.1857917e-41
1.0201281 0.20425965 2.4439096 2.7589044e-40
1.0298848 0.2142546 2.4502902 7.3614132e-40
1.0193855 0.21221198 2.4468029 1.8404094e-40
1.0190141 0.21618797 2.4482496 4.5918589e-40
1.0287904 0.2263439 2.4546969 7.0064923e-45
1.0396453 0.23707443 2.4616444 2.7658689e-40
1.0280427 0.23435129 2.4576101 0
1.0372752 0.25708464 2.4687955 9.1845305e-41
1.0261732 0.2543698 2.4648929 9.1845305e-41
1.0353922 0.27724907 2.4761314 2.7589044e-40
1.0453479 0.292238 2.4844992 1.1038869e-39
1.0449687 0.29630014 2.4859769 9.1985015e-40
1.0335091 0.29741374 2.4834673 2.5879642e-39
1.0331326 0.30144677 2.4849343 3.0442116e-39
1.042776 0.31284708 2.4918303 1.3818611e-39
1.0323794 0.30951256 2.487869 1.2868138e-39
1.0320028 0.31354558 2.4893358 1.2871641e-39
1.0410066 0.32361135 2.4955504 1.1052742e-39
1.0312495 0.32161134 2.4922702 6.4431283e-40
1.052945 0.33911204 2.5046253 8.2905582e-40
1.0518656 0.34534213 2.5067642 8.2832714e-40
1.040796 0.3409836 2.5022328 5.5102279e-40
1.0404167 0.34504566 2.5037105 9.1856516e-41
1.0494766 0.35601676 2.5102904 5.5247733e-40
1.0509188 0.36094025 2.5125697 1.8369341e-40
1.0546328 0.36908275 2.5166805 5.5282205e-40
1.0614094 0.37695795 2.5214736 9.1856516e-41
1.0497721 0.37321895 2.5170369 1.821688e-44
1.04939 0.37731206 2.5185258 2.7589044e-40
1.0490078 0.38140494 2.5200148 2.7589044e-40
1.0582669 0.39164841 2.5263638 7.3615253e-40
1.0633774 0.40489629 2.5328128 1.8622696e-40
1.0587138 0.40582445 2.5319755 2.7841979e-40
1.0704108 0.42697203 2.5431783 2.0283417e-39
1.0571734 0.42231965 2.5379763 1.4776636e-39
1.0455679 0.41824162 2.5334163 1.5688097e-39
1.0672328 0.4429546 2.5485601 1.846456e-39
1.0664569 0.4512639 2.5515831 3.684626e-39
1.0761769 0.46186939 2.5581906 3.503462e-39
1.065681 0.45957318 2.554606 3.0406958e-39
1.0745653 0.47047731 2.5611145 2.2120085e-39
1.064905 0.46788245 2.5576289 2.0304899e-39
1.0680516 0.47527027 2.5613015 3.4112635e-39
1.0641291 0.4761917 2.5606518 3.4076678e-39
1.0664475 0.48384768 2.5642159 2.3056222e-39
1.0633532 0.48450103 2.5636747 1.5669768e-39
1.0517821 0.48005304 2.5589797 8.2906282e-40
1.051397 0.4841767 2.5604801 5.5282345e-40
1.0510119 0.48830056 2.5619805 8.2689361e-40
1.0703083 0.5072189 2.5742695 4.6098375e-40
1.0614133 0.50527424 2.5712321 3.6734899e-40
1.0610254 0.50942886 2.5727434 7.0064923e-45
1.0606374 0.51358336 2.5742552 5.6051939e-45
1.0714122 0.52655667 2.5820513 4.2038954e-45
1.0710213 0.53074199 2.5835743 5.6051939e-45
1.0706304 0.53492761 2.5850968 5.6051939e-45
1.0702397 0.53911304 2.5866196 0
1.0698488 0.5432986 2.5881422 0
1.0694579 0.54748392 2.5896649 0
1.069067 0.55166948 2.5911875 0
1.0686762 0.55585492 2.5927103 0
1.0794252 0.56910557 2.6006074 0
1.0790315 0.57332182 2.6021411 0
1.0786377 0.57753819 2.6036751 0
1.078244 0.58175451 2.6052091 0
1.0778502 0.58597082 2.6067429 0
0.98632044 -0.072324209 2.3279808 9.1835496e-40
0.98596442 -0.068511993 2.3293676 9.18397e-41
0.9856084 -0.064699858 2.3307545 6.4286249e-40
0.9928357 -0.033706754 2.3446279 9.18397e-41
0.99690902 -0.024100756 2.3493981 9.1838299e-41
1.0140587 0.077737831 2.3932903 8.2654609e-40
1.0136927 0.081657209 2.3947163 7.3470919e-40
1.0114968 0.10517313 2.4032714 2.7623797e-40
1.0281324 0.16412725 2.4304023 1.8369341e-40
1.0277611 0.16810337 2.4318488 1.9618179e-44
1.0273898 0.17207944 2.4332952 1.821688e-44
1.0270184 0.17605554 2.4347417 1.8404094e-40
1.0266472 0.18003161 2.4361885 9.1845305e-41
1.0361024 0.19394033 2.4440088 4.5918589e-40
1.0353546 0.20194764 2.4469218 5.6051939e-45
1.0244194 0.20388833 2.4448674 2.7589044e-40
1.0240481 0.20786442 2.4463141 1.8369341e-40
1.0236768 0.21184064 2.4477606 2.7623797e-40
1.0332067 0.22076465 2.4536672 1.2878746e-39
1.0331113 0.22596997 2.4556613 8.4077908e-45
1.0323637 0.23397741 2.4585743 0
1.0319897 0.23798104 2.4600308 9.1845305e-41
1.0316159 0.24198483 2.4614873 9.1845305e-41
1.0420045 0.25267506 2.4682996 8.4077908e-45
1.0416279 0.25670812 2.4697664 9.1845305e-41
1.0412513 0.26074094 2.4712338 9.1845305e-41
1.0408747 0.26477388 2.4727011 6.4286249e-40
1.0404981 0.26880682 2.4741681 1.8404094e-40
1.0401214 0.27283958 2.4756355 2.7623797e-40
1.0493528 0.29592091 2.4869549 5.5106623e-40
1.0382384 0.29300436 2.4829712 4.2438758e-39
1.0378618 0.29703718 2.4844384 4.6162681e-39
1.0467355 0.30670831 2.4904661 5.9927075e-39
1.0371087 0.30510288 2.4873731 1.8435623e-39
1.0367321 0.30913606 2.4888399 1.1024225e-39
1.0363554 0.31316891 2.4903071 1.3793611e-39
1.0359788 0.31720179 2.4917746 9.2160738e-40
1.0356022 0.3212347 2.4932415 6.4431283e-40
1.0352256 0.32526767 2.4947088 1.8404094e-40
1.0610068 0.34588352 2.5093205 8.2833555e-40
1.0536798 0.34739774 2.5080273 5.5209758e-40
1.0448009 0.34466642 2.5046887 1.8369341e-40
1.0444214 0.3487286 2.5061665 1.8369341e-40
1.0545717 0.36874393 2.5165334 1.8369341e-40
1.0657091 0.38097876 2.5241365 8.2833695e-40
1.0624986 0.38296062 2.524081 3.684378e-40
1.0644121 0.38956842 2.5271347 1.0120163e-39
1.0530429 0.38511577 2.5224895 1.8369341e-40
1.0526607 0.38920864 2.5239787 1.460153e-42
1.0712792 0.41894126 2.5402873 9.2413532e-40
1.0699019 0.42503068 2.542295 1.3851121e-39
1.0503674 0.41376644 2.5329127 1.570218e-39
1.061239 0.42605841 2.5404699 1.0156359e-39
1.0717167 0.44256663 2.5495608 2.0304871e-39
1.0804665 0.45304635 2.5558703 4.0555483e-39
1.0716009 0.4517009 2.5530729 4.9739257e-39
1.0593135 0.44667745 2.547971 3.7779077e-39
1.0589285 0.45080119 2.5494711 3.1328914e-39
1.0585433 0.45492515 2.5509713 2.4882282e-39
1.0581583 0.45904875 2.5524719 1.2010893e-39
1.0577732 0.46317261 2.5539722 2.6729698e-39
1.0573882 0.46729645 2.5554721 2.7622984e-39
1.057003 0.47142029 2.5569725 2.3963773e-39
1.0678371 0.48411298 2.5646753 1.5669768e-39
1.0562328 0.47966781 2.559973 7.3650846e-40
1.0558478 0.48379159 2.5614731 4.6026909e-40
1.0554627 0.48791543 2.5629735 8.2689361e-40
1.0662851 0.50073171 2.5707211 9.1845305e-41
1.0771021 0.51360935 2.5784914 3.6734899e-40
1.082652 0.52455503 2.5841603 1.8403953e-40
1.0651213 0.51319546 2.5752556 5.6051939e-45
1.0647333 0.5173502 2.576767 1.4012985e-45
1.0755386 0.53035122 2.5845821 5.6051939e-45
1.0751477 0.53453684 2.5861046 1.4012985e-45
1.0816109 0.54421669 2.5915174 9.2552961e-41
1.0743661 0.54290777 2.58915 0
1.0739752 0.54709315 2.5906727 0
1.0735843 0.55127865 2.5921955 0
1.0731936 0.55546415 2.5937181 0
1.0728027 0.55964953 2.5952411 0
1.0724119 0.56383502 2.5967634 0
1.072021 0.56802046 2.5982864 0
0.99079067 -0.076492384 2.3275118 1.1692652e-38
0.99007869 -0.068867981 2.3302855 0
0.98972267 -0.065055802 2.3316724 6.4287089e-40
0.98936671 -0.061243616 2.3330593 1.836766e-40
0.99626118 -0.026388768 2.3483446 0
0.99590266 -0.022550585 2.3497412 0
0.99554425 -0.018712424 2.3511376 0
1.0182886 0.077371866 2.3942342 1.0105772e-39
1.0179226 0.081291288 2.3956602 8.2654609e-40
1.0223149 0.14973333 2.4233274 4.591971e-40
1.0219463 0.15368029 2.4247634 2.6624671e-44
1.0324235 0.16375588 2.4313598 9.1866325e-41
1.0305669 0.1836365 2.4385924 5.6051939e-45
1.0298244 0.19158877 2.4414854 1.6815582e-44
1.029453 0.19556484 2.4429319 1.5414283e-44
1.0388745 0.20547134 2.4491918 3.6772454e-40
1.0287105 0.20351708 2.4458249 4.5992157e-40
1.0283391 0.20749317 2.4472713 1.0105772e-39
1.0279679 0.21146941 2.4487181 6.4431283e-40
1.0358241 0.2219146 2.4547849 7.3648604e-40
1.0272253 0.2194216 2.451611 6.4286249e-40
1.0370585 0.22959983 2.458082 6.4286249e-40
1.0366845 0.23360357 2.4595385 6.4286249e-40
1.0363107 0.23760715 2.460995 6.4287089e-40
1.045409 0.24719599 2.4670486 8.2797962e-40
1.035189 0.2496184 2.4653647 7.3470919e-40
1.0448506 0.26843014 2.4751394 2.7589044e-40
1.0440973 0.27649593 2.4780738 5.5176968e-40
1.0437207 0.28052899 2.4795408 1.1042372e-39
1.0462037 0.29502022 2.4857974 3.2286757e-39
1.0422143 0.29666051 2.4854097 5.995632e-39
1.0418377 0.30069354 2.486877 7.0987552e-39
1.0414612 0.30472657 2.4883437 2.8584751e-39
1.0501164 0.31469366 2.4944308 6.4430302e-40
1.0407078 0.31279236 2.4912782 1.472263e-39
1.0485591 0.32304132 2.497268 1.7488443e-39
1.0506802 0.32868907 2.5000021 1.3822282e-39
1.0395781 0.32489109 2.4956799 7.3470919e-40
1.0392015 0.32892391 2.4971471 4.591971e-40
1.0388249 0.33295694 2.4986143 4.591971e-40
1.0584332 0.34945622 2.5100453 4.6063483e-40
1.0488054 0.34834915 2.5071449 1.8369341e-40
1.063588 0.36247742 2.516418 5.5247313e-40
1.0593711 0.36426866 2.5160301 1.8370602e-40
1.0620114 0.37092388 2.5192883 5.5282766e-40
1.0586066 0.37245461 2.5190079 1.8369341e-40
1.0582244 0.3765476 2.5204971 6.4287089e-40
1.0578423 0.38064057 2.521986 2.7623797e-40
1.0457708 0.38084629 2.5189672 1.8104776e-42
1.0453914 0.38490838 2.5204451 2.5265411e-42
1.045012 0.38897046 2.5219231 4.6026909e-40
1.0675611 0.41084433 2.5361929 8.287111e-40
1.0651675 0.42573071 2.5413508 1.1971461e-39
1.0653043 0.42979711 2.5429633 3.6956304e-40
1.0817336 0.44746533 2.5540314 1.7510514e-39
1.0645342 0.43804479 2.5459635 4.2370683e-39
1.0528735 0.43384916 2.5413432 4.2385033e-39
1.0524913 0.43794221 2.5428324 3.8697137e-39
1.052109 0.44203508 2.5443215 3.133948e-39
1.0513446 0.45022091 2.5472996 1.2010893e-39
1.0622236 0.46278757 2.554965 1.4744322e-39
1.0688939 0.47210473 2.5602901 2.3963801e-39
1.0614533 0.47103515 2.5579655 1.5666293e-39
1.0610683 0.47515902 2.5594656 1.5666293e-39
1.0606833 0.47928289 2.5609658 8.2941034e-40
1.0602981 0.48340654 2.5624661 7.3469798e-40
1.059913 0.48753032 2.5639668 6.4286249e-40
1.070769 0.50034374 2.5717216 3.6734899e-40
1.081619 0.51321852 2.5794992 1.8367099e-40
1.069993 0.50865287 2.5747447 1.836766e-40
1.0875498 0.52664649 2.5862286 9.219563e-41
1.0861372 0.53285807 2.5882745 1.4012985e-45
1.0688291 0.52111667 2.5792792 0
1.0796648 0.53414589 2.5871129 0
1.0792739 0.53833139 2.5886352 0
1.0788831 0.54251683 2.5901582 0
1.0784923 0.54670227 2.5916805 0
1.0781015 0.55088788 2.5932033 0
1.0777105 0.55507326 2.5947261 0
1.0773197 0.55925876 2.5962486 0
1.0769289 0.56344414 2.5977714 0
1.076538 0.56762964 2.5992939 0
0.98687339 -0.099822886 2.3174596 2.4828206e-39
0.99060386 -0.093407951 2.3209045 1.5622964e-39
0.98616636 -0.092250288 2.3202143 2.2420775e-44
0.98545915 -0.084677882 2.3229692 1.0592791e-38
0.98510563 -0.08089152 2.3243465 1.2338021e-38
0.98439842 -0.073319159 2.3271015 0
0.98404485 -0.069532886 2.3284791 1.8368781e-40
0.98369133 -0.065746635 2.3298564 3.6734899e-40
0.99312514 -0.05778743 2.3353643 1.836766e-40
1.0014788 -0.038261753 2.3450801 5.6051939e-45
1.0011204 -0.034423638 2.3464766 9.18397e-41
1.0060467 -0.026587468 2.3507795 1.4012985e-45
1.0004035 -0.026747186 2.3492692 0
1.0000452 -0.022908961 2.3506656 0
1.0066937 -0.016078642 2.3550205 0
0.99932832 -0.015232638 2.3534582 3.7835059e-43
1.0269433 0.14541794 2.422842 6.4287089e-40
1.0265749 0.14936477 2.424278 4.591971e-40
1.0262063 0.15331173 2.425714 2.5223372e-44
1.0363436 0.16736075 2.4337637 1.6815582e-44
1.0359722 0.17133683 2.4352102 3.6734899e-40
1.0356009 0.17531292 2.436657 4.2038954e-45
1.0352296 0.17928916 2.4381032 4.2038954e-45
1.0348583 0.1832653 2.4395499 1.4012985e-45
1.034487 0.18724133 2.4409964 5.6051939e-45
1.0429953 0.19704069 2.4469802 9.2205439e-41
1.0337445 0.1951936 2.4438894 1.5414283e-44
1.0333731 0.19916967 2.4453359 2.9427268e-44
1.0330018 0.20314574 2.4467824 5.521172e-40
1.0217834 0.20067456 2.4429445 1.1027728e-39
1.0214148 0.20462145 2.4443808 7.3650846e-40
1.0318879 0.21507418 2.451122 1.1031204e-39
1.0315167 0.21905032 2.4525685 6.4286249e-40
1.0495543 0.23870263 2.4648194 7.3613712e-40
1.0498822 0.24339338 2.4667222 1.1045693e-39
1.0402579 0.2412371 2.4634156 7.3470919e-40
1.0486143 0.25178638 2.4696515 1.2871641e-39
1.0395101 0.24924451 2.4663289 7.3470919e-40
1.0391363 0.2532481 2.4677856 2.7589044e-40
1.0472232 0.26340467 2.4737997 6.4466736e-40
1.0492032 0.26805359 2.4761105 4.5992157e-40
1.0488266 0.27208644 2.4775779 4.5921532e-40
1.0566351 0.28124425 2.4831331 9.1982352e-40
1.0480734 0.28015244 2.4805119 1.2886285e-39
1.0476967 0.28418532 2.4819794 1.4712373e-39
1.0473201 0.2882182 2.4834464 9.2971949e-41
1.0469435 0.29225114 2.4849136 2.6765992e-39
1.046567 0.29628387 2.4863811 6.4562501e-39
1.0542847 0.30613557 2.492182 7.9277788e-39
1.0458138 0.30434993 2.489315 3.5038445e-39
1.0454371 0.30838284 2.4907823 1.821688e-44
1.0450605 0.31241569 2.4922495 1.472263e-39
1.0446839 0.31644857 2.493717 1.8410441e-39
1.0443074 0.32048148 2.4951839 9.2160738e-40
1.0439306 0.32451454 2.4966509 7.3470919e-40
1.0435542 0.32854745 2.4981182 6.4287089e-40
1.0431775 0.33258036 2.4995854 4.591971e-40
1.0428009 0.33661318 2.5010526 1.821688e-44
1.0531896 0.34796992 2.5081229 1.8369341e-40
1.0528102 0.3520321 2.5096009 2.7589044e-40
1.0637888 0.36388648 2.5170157 2.7554292e-40
1.0634065 0.36797947 2.5185049 2.7589044e-40
1.074363 0.38028237 2.526088 9.1982072e-40
1.0626421 0.37616542 2.5214827 6.4287089e-40
1.0699266 0.38480744 2.5267038 4.6062923e-40
1.0497756 0.38452905 2.5214233 1.44614e-42
1.0493963 0.38859123 2.5229011 2.7623797e-40
1.0713261 0.42522988 2.5427377 8.287139e-40
1.0697551 0.42941207 2.5439563 6.0255834e-44
1.06937 0.43353587 2.5454564 4.5922933e-40
1.068985 0.43765965 2.5469568 2.7622984e-39
1.0572912 0.43346679 2.5423293 4.0537533e-39
1.0569088 0.43755993 2.5438182 3.8697137e-39
1.0664915 0.45838168 2.554352 1.660627e-39
1.0662893 0.4665263 2.5574582 1.1974866e-39
1.0659041 0.47065014 2.5589585 1.1974866e-39
1.0655191 0.47477388 2.5604589 1.105291e-39
1.065134 0.47889775 2.561959 8.2941034e-40
1.0647489 0.48302153 2.5634592 8.2689361e-40
1.0756409 0.49580097 2.5712106 6.4286249e-40
1.075253 0.49995574 2.5727222 3.6734899e-40
1.0861363 0.51282769 2.580507 3.6734198e-40
1.1084787 0.53921854 2.5964761 9.1835496e-41
1.1080819 0.5434674 2.5980215 0
1.0733131 0.52072877 2.5802796 0
1.0729252 0.52488357 2.5817909 0
1.0725372 0.52903807 2.5833025 0
1.0834004 0.542126 2.591166 0
1.0830096 0.5463115 2.5926886 0
1.093864 0.55949175 2.6005857 0
1.0818371 0.55886787 2.5972567 0
1.0814462 0.56305331 2.5987794 0
1.0810553 0.56723887 2.600302 0
0.98041761 -0.096566737 2.317065 0
0.98989892 -0.088817589 2.3225036 6.4321842e-40
0.97971535 -0.089046173 2.3198009 1.0043165e-38
0.98919183 -0.081245154 2.3252585 1.1329966e-38
0.98883826 -0.077458955 2.3266358 4.9705976e-39
0.98848474 -0.073672593 2.3280132 0
0.99660021 -0.065762997 2.3331635 0
0.98777753 -0.06610024 2.3307681 9.1841101e-41
0.99723953 -0.058143374 2.3362825 3.6734899e-40
1.0066965 -0.0501347 2.3418155 3.6734899e-40
1.0059797 -0.042458251 2.3446081 5.6051939e-45
1.0056212 -0.038620133 2.3460045 1.8367099e-40
1.0042197 -0.035647128 2.3467975 9.1842503e-41
1.0049043 -0.030943805 2.3487971 0
1.0045459 -0.027105605 2.3501933 0
1.0041875 -0.023267422 2.3515899 0
1.003829 -0.01942922 2.3529861 0
1.0034707 -0.015591099 2.3543825 2.3822074e-44
1.0278466 0.064881861 2.3918443 8.265545e-40
1.0263826 0.080559276 2.3975477 2.7589044e-40
1.031203 0.14504942 2.4237926 6.4285968e-40
1.0308344 0.14899613 2.4252286 2.7623797e-40
1.0408503 0.15782696 2.4312239 3.6771053e-40
1.0300974 0.15688995 2.4281003 1.836766e-40
1.0406346 0.16698939 2.4347215 7.0064923e-45
1.0402634 0.17096558 2.4361677 1.836766e-40
1.0443369 0.17786722 2.4398897 9.2202636e-41
1.0391495 0.18289393 2.4405074 5.6051939e-45
1.038407 0.19084616 2.4434004 9.1845305e-41
1.0380356 0.19482222 2.4448469 2.1804204e-42
1.0376643 0.19879834 2.4462936 6.4501908e-40
1.0454922 0.20931724 2.4523816 9.2557165e-40
1.0260429 0.20030592 2.4438951 1.105291e-39
1.0256745 0.20425297 2.4453309 1.1974866e-39
1.0361792 0.21470284 2.4520795 1.1031204e-39
1.0460745 0.22484836 2.4585538 8.2654609e-40
1.0457007 0.22885197 2.4600103 6.4287089e-40
1.0453267 0.23285584 2.4614668 7.3470919e-40
1.0449529 0.23685946 2.4629233 7.3470919e-40
1.0529071 0.24662764 2.4687529 1.0120107e-39
1.0442052 0.24486685 2.4658363 7.3470919e-40
1.0438312 0.24887067 2.467293 7.3469798e-40
1.0434574 0.25287428 2.4687495 7.3469798e-40
1.0430835 0.25687805 2.470206 2.7623797e-40
1.0535556 0.26767692 2.4770818 2.7658689e-40
1.0632737 0.27754575 2.483403 1.1045637e-39
1.0615702 0.28087968 2.4842587 9.2090112e-40
1.0524257 0.27977577 2.4814832 1.1049407e-39
1.0552428 0.28610536 2.4846609 1.6584942e-39
1.0516726 0.28784156 2.4844177 7.6931286e-43
1.051296 0.2918745 2.4858849 2.0294207e-39
1.0509194 0.29590747 2.4873519 5.9030819e-39
1.0505427 0.29994041 2.4888191 8.5738881e-39
1.0501662 0.30397335 2.4902861 3.8744221e-39
1.0497895 0.3080062 2.4917536 1.8441368e-40
1.0574397 0.31651631 2.4970174 1.9328866e-39
1.0490364 0.31607202 2.494688 1.8403351e-39
1.0558759 0.32486615 2.4998536 1.6577361e-39
1.0482831 0.32413796 2.4976223 1.1956747e-39
1.0479065 0.32817078 2.4990895 2.7623797e-40
1.0475299 0.33220372 2.5005567 8.4077908e-45
1.0686231 0.34851524 2.5122962 3.6880354e-40
1.0675381 0.35476384 2.5144405 5.5247453e-40
1.0644469 0.35728872 2.5146263 5.5247173e-40
1.0781564 0.37149543 2.5236542 8.2906282e-40
1.0678238 0.36759737 2.5194902 2.7589044e-40
1.0741441 0.37611476 2.5244155 7.3613712e-40
1.0670594 0.37578315 2.5224686 7.3470078e-40
1.0666771 0.37987611 2.5239575 2.7589044e-40
1.0662949 0.38396904 2.5254467 1.8404094e-40
1.054539 0.38008764 2.5209236 1.8404094e-40
1.0541596 0.38414973 2.5224016 7.0064923e-45
1.0537803 0.38821182 2.5238795 7.0064923e-45
1.0640017 0.40852693 2.5343807 1.9618179e-44
1.0728929 0.42670864 2.5437133 7.3794619e-40
1.0758045 0.43392763 2.5472598 2.7590866e-40
1.0734355 0.43727455 2.5479498 1.8372004e-40
1.0723224 0.44115818 2.5491698 2.6729922e-39
1.0613261 0.43717775 2.5448039 3.4995439e-39
1.060944 0.44127071 2.5462928 2.7666354e-39
1.070502 0.45207796 2.5529373 3.2283086e-39
1.0597973 0.45354959 2.55076 1.7510079e-39
1.07074 0.4661411 2.5584517 1.1949685e-39
1.0813711 0.4778116 2.5657058 1.3807933e-39
1.0699697 0.47438878 2.5614519 1.105291e-39
1.091161 0.49514827 2.5749414 1.3811408e-39
1.0805129 0.49125826 2.5706999 8.2689361e-40
1.0895263 0.50379068 2.5778732 6.4500367e-40
1.0797368 0.49956778 2.5737226 5.6051939e-45
1.0906535 0.51243681 2.5815151 9.1835496e-41
1.0902627 0.5166223 2.5830379 0
1.078573 0.5120315 2.5782571 0
1.1007768 0.53380013 2.5923979 0
1.100383 0.5380165 2.5939314 0
1.0999893 0.54223281 2.5954654 0
1.077021 0.52865005 2.5843031 0
1.1086566 0.55940259 2.6043484 0
1.0988082 0.55488169 2.6000671 0
1.0984145 0.55909812 2.6016009 0
1.0863541 0.5584771 2.5982645 0
1.0859634 0.56266242 2.5997875 0
1.0968394 0.57596326 2.6077366 0
0.99469244 -0.096743733 2.3206606 1.6562941e-39
0.98447597 -0.096917994 2.3179705 9.18397e-41
0.98412484 -0.093157627 2.3193386 0
0.98377365 -0.089397423 2.3207066 8.8449805e-39
0.98342258 -0.085637122 2.3220744 1.123777e-38
0.99292469 -0.077812426 2.3275476 8.1052476e-39
0.99257106 -0.074026272 2.3289251 1.3814785e-39
0.99221748 -0.070239998 2.3303027 0
0.99702257 -0.064306818 2.3338366 0
1.008358 -0.051740017 2.3416195 6.4286249e-40
1.006942 -0.045303524 2.3437519 3.6771053e-40
1.0101221 -0.042816713 2.3455324 5.6051939e-45
1.0097637 -0.038978592 2.3469288 3.6734198e-40
1.0094053 -0.035140388 2.3483253 1.836766e-40
1.0090468 -0.031302266 2.3497214 0
1.0086884 -0.027464066 2.3511178 0
1.00833 -0.0236258 2.352514 0
1.0242312 0.032100182 2.3782046 4.5922933e-40
1.0354629 0.14468077 2.4247432 4.5918589e-40
1.0460399 0.15468973 2.4313393 7.0064923e-45
1.0484335 0.16945471 2.4376791 7.0064923e-45
1.0438122 0.1785465 2.4400184 5.6051939e-45
1.0537605 0.18844108 2.446409 7.0064923e-45
1.0530127 0.19644856 2.449322 5.5282345e-40
1.0502207 0.19885038 2.4495368 6.4646522e-40
1.0419557 0.19842701 2.4472511 1.2903885e-39
1.0415844 0.20240308 2.4486976 5.5571433e-40
1.041213 0.20637931 2.4501441 1.3818779e-39
1.0408417 0.21035542 2.4515908 1.1974866e-39
1.0404705 0.21433152 2.453037 1.3800674e-39
1.0400991 0.21830766 2.4544837 8.2654609e-40
1.0596029 0.23431261 2.4656963 1.0123723e-39
1.0605445 0.23906991 2.4677827 7.3470919e-40
1.0609747 0.24373373 2.4697015 1.1964034e-39
1.0597912 0.24713582 2.470717 7.3470919e-40
1.059038 0.2552017 2.4736514 7.3469798e-40
1.065734 0.27231941 2.4820077 7.3613151e-40
1.0575316 0.27133331 2.4795201 5.5282345e-40
1.068027 0.28221697 2.4864347 2.7589044e-40
1.0672684 0.29034132 2.4893904 9.1949702e-40
1.066889 0.29440346 2.4908681 4.9045446e-44
1.0627142 0.29833835 2.491322 4.7952405e-39
1.0661304 0.30252767 2.4938238 5.5339406e-39
1.0764592 0.31195021 2.5001287 8.3887668e-39
1.0680158 0.31212619 2.4980297 4.6112669e-39
1.0751698 0.32047331 2.5031028 1.7524597e-39
1.064613 0.31877619 2.4997349 2.1172821e-39
1.0738792 0.32899648 2.5060766 2.5786218e-39
1.0638543 0.32690042 2.5026906 1.2896822e-39
1.0725887 0.33752015 2.5090504 2.0261585e-39
1.0678506 0.34040782 2.5089538 6.4466035e-40
1.0627164 0.33908692 2.5071239 7.0064923e-45
1.062337 0.34314898 2.5086019 1.821688e-44
1.0684119 0.35106474 2.5132303 4.6063203e-40
1.0730057 0.35902917 2.517498 1.8369341e-40
1.0726235 0.36312211 2.5189869 1.8369341e-40
1.0722412 0.36721501 2.5204761 2.7589044e-40
1.0832776 0.37915617 2.5279396 2.7623797e-40
1.0828925 0.38328001 2.5294399 6.4286249e-40
1.0842717 0.38887283 2.5319622 5.5175006e-40
1.0815101 0.39046791 2.531872 9.2017104e-40
1.0789063 0.40765351 2.5378678 6.4394569e-40
1.0771012 0.4161343 2.540693 6.4538342e-40
1.0680369 0.41223761 2.5368552 1.8369341e-40
1.0733441 0.42038512 2.5413771 4.602817e-40
1.0672725 0.42042363 2.5398335 1.8369341e-40
1.0782714 0.43276572 2.5474424 4.5921532e-40
1.0778863 0.43688941 2.548943 1.8372004e-40
1.0661259 0.43270242 2.5443006 1.8372845e-40
1.0657437 0.43679556 2.5457895 1.102459e-39
1.0653614 0.44088843 2.5472784 2.5818854e-39
1.0755482 0.45171186 2.5540905 3.7797013e-39
1.0759609 0.45750844 2.5564439 2.7676892e-39
1.0856229 0.46902615 2.5633903 1.7499317e-39
1.0751907 0.46575597 2.5594447 1.0105772e-39
1.0748055 0.4698799 2.5609448 8.2654609e-40
1.0857728 0.4825612 2.5686772 2.7589044e-40
1.0853847 0.48671576 2.5701888 7.3469798e-40
1.1071016 0.50769138 2.5838971 7.3505531e-40
1.0959525 0.50367504 2.5794775 4.5917748e-40
1.0955616 0.50786048 2.5810006 1.4012985e-45
1.0951707 0.51204598 2.5825229 0
1.1060088 0.52469414 2.5902097 3.5873241e-43
1.1096262 0.53761333 2.5961478 0
1.1049337 0.53762269 2.5949471 0
1.10454 0.54183906 2.5964808 0
1.1041462 0.54605532 2.5980148 0
1.1037525 0.55027169 2.5995486 0
1.1033587 0.55448794 2.6010823 0
0.97864336 -0.10122705 2.3148024 6.4287089e-40
0.97829467 -0.097492814 2.3161609 9.8090893e-45
0.97794592 -0.093758456 2.3175194 4.329264e-39
0.98748082 -0.085988291 2.3229802 9.6701323e-39
0.98712975 -0.08222799 2.324348 1.0318002e-38
0.99665737 -0.074379876 2.3298368 6.3550343e-39
0.99630386 -0.070593551 2.3312144 2.7550649e-40
0.99595028 -0.066807352 2.3325918 0
1.0054684 -0.058855392 2.3381186 1.6815582e-44
1.0051123 -0.055043168 2.3395054 1.821688e-44
1.0047563 -0.051230989 2.3408923 1.5414283e-44
1.0040443 -0.04360655 2.3436661 6.4287089e-40
1.0133542 -0.035248179 2.3492968 6.4358415e-40
1.0131892 -0.031660646 2.3506458 9.18397e-41
1.0128307 -0.027822483 2.3520422 7.0064923e-45
1.0124724 -0.023984302 2.3534384 5.6051939e-45
1.0121139 -0.020146098 2.3548348 2.2420775e-44
1.0117555 -0.016307894 2.356231 5.5571433e-40
1.0287949 0.027844939 2.3777261 2.4900401e-39
1.0280681 0.035628438 2.3805575 2.4910967e-39
1.0277046 0.039520189 2.3819733 2.3074145e-39
1.0273412 0.043411855 2.3833892 2.3070642e-39
1.0269778 0.047303598 2.3848052 2.2145154e-39
1.0352086 0.075907841 2.3980095 1.6541151e-39
1.0348426 0.079827219 2.3994355 1.3818779e-39
1.0473787 0.14576422 2.4282219 6.4430022e-40
1.0507026 0.15034239 2.4308503 5.6051939e-45
1.0393541 0.14825909 2.4271295 5.6051939e-45
1.04996 0.15829462 2.4337432 4.2038954e-45
1.0495887 0.16227064 2.43519 4.2038954e-45
1.0492173 0.1662468 2.4366364 4.2038954e-45
1.0488461 0.17022288 2.4380829 7.0064923e-45
1.0484748 0.17419906 2.4395294 3.6734899e-40
1.0558627 0.18219031 2.4445245 4.5954742e-40
1.0477321 0.18215126 2.4424226 9.1856516e-41
1.0543277 0.19041525 2.44732 7.3542526e-40
1.0561957 0.19419838 2.4492667 1.658469e-39
1.0466182 0.19407956 2.4467621 5.5607026e-40
1.0592036 0.20755725 2.4552188 1.7517464e-39
1.0458757 0.20203185 2.4496548 1.9354076e-39
1.0455043 0.20600803 2.4511015 1.5666265e-39
1.0451331 0.20998417 2.452548 1.1974866e-39
1.0524133 0.2191972 2.4579895 1.4744238e-39
1.0443904 0.21793646 2.455441 4.6026909e-40
1.0609562 0.23201826 2.4651539 4.6062642e-40
1.0539688 0.23210812 2.4633951 2.7589044e-40
1.0645205 0.24272619 2.470221 4.5921532e-40
1.0641438 0.24675916 2.4716883 2.7589044e-40
1.0637672 0.25079203 2.4731555 7.3470919e-40
1.0633906 0.25482506 2.4746227 7.3469798e-40
1.0698937 0.26375842 2.4797561 6.4429601e-40
1.0626374 0.26289085 2.4775569 1.8404094e-40
1.0622609 0.2669237 2.4790242 1.8404094e-40
1.0618842 0.27095667 2.4804914 1.460153e-42
1.0716525 0.28996208 2.4903684 9.2090953e-40
1.0795624 0.29977977 2.4962058 1.8425085e-39
1.0708939 0.29808637 2.493324 4.8860503e-39
1.0721823 0.30352092 2.4957621 7.4682412e-39
1.059248 0.29918718 2.4907615 7.2838471e-39
1.0588714 0.30321994 2.492229 4.7027408e-39
1.0584948 0.30725297 2.493696 1.4740791e-39
1.0810773 0.32224253 2.5053051 2.3034838e-39
1.0748653 0.32509392 2.5048163 2.4882268e-39
1.0682386 0.32652119 2.5036685 1.7506576e-39
1.0695772 0.33090594 2.5057127 1.6588193e-39
1.0674798 0.33464545 2.5066245 8.2906282e-40
1.0680022 0.33929181 2.5085599 7.3578399e-40
1.0667213 0.34276974 2.5095799 6.4287089e-40
1.0761181 0.35406995 2.5163739 5.5283466e-40
1.077423 0.35864699 2.5184836 6.4286249e-40
1.0785288 0.36367768 2.5207186 5.5247173e-40
1.081001 0.36921477 2.5235 1.0123751e-39
1.0884922 0.38013482 2.5296574 8.2797541e-40
1.0852957 0.38167712 2.5294352 9.1981932e-40
1.0755119 0.37911165 2.5259287 1.9618179e-44
1.0751297 0.38320467 2.5274179 1.460153e-42
1.0747476 0.38729766 2.5289068 1.8369341e-40
1.0743654 0.39139065 2.530396 4.591971e-40
1.0823741 0.415216 2.5416906 6.4430442e-40
1.0724543 0.41185525 2.5378413 9.1856516e-41
1.0720721 0.41594836 2.5393302 1.8369341e-40
1.0822632 0.42662165 2.5460846 1.1967621e-39
1.0827219 0.43238059 2.5484357 2.7589044e-40
1.0823369 0.43650448 2.5499358 1.8369341e-40
1.0705433 0.43232033 2.5452859 7.3470919e-40
1.0797651 0.4429926 2.5517919 6.4540024e-40
1.0800263 0.46124718 2.5589375 7.3469798e-40
1.0796412 0.46537092 2.5604377 4.2038954e-45
1.0906446 0.4780187 2.5681663 1.83678e-40
1.1003507 0.48835748 2.574667 5.5209758e-40
1.0898687 0.4863278 2.5711894 3.6734899e-40
1.110639 0.50613397 2.5842011 4.6097395e-40
1.1004697 0.50328416 2.5804856 0
1.1000788 0.50746971 2.5820081 0
1.1240247 0.52764386 2.595978 0
1.1106653 0.52458012 2.5913606 0
1.1102716 0.52879637 2.5928946 0
1.1098779 0.53301269 2.5944288 0
1.1094842 0.53722894 2.5959625 0
1.1090904 0.54144526 2.5974965 0
1.1086967 0.54566157 2.5990303 0
1.108303 0.549878 2.600564 0
0.98267353 -0.10157584 2.3157015 1.1027728e-39
0.98232484 -0.097841382 2.31706 3.673602e-40
0.98197609 -0.094107196 2.3184187 2.5779057e-39
0.98162735 -0.090372838 2.3197773 7.0886547e-39
0.99118781 -0.082579069 2.3252535 1.0871175e-38
0.99083662 -0.078818858 2.3266215 8.8443163e-39
0.99048555 -0.075058565 2.3279893 1.2856969e-39
1.0000365 -0.067160986 2.3335037 0
0.9996829 -0.063374676 2.3348811 1.5414283e-44
1.0047606 -0.057217129 2.338572 1.8440247e-40
1.0088705 -0.051587019 2.3418105 1.5414283e-44
1.0085144 -0.047774673 2.3431971 1.9618179e-44
1.0081584 -0.043962494 2.344584 1.1949685e-39
1.0078025 -0.040150315 2.3459709 7.3470919e-40
1.01314 -0.034104578 2.3496854 9.2016404e-40
1.0169729 -0.028180862 2.3529663 8.4077908e-45
1.0222801 -0.022800066 2.356415 5.6051939e-45
1.0162561 -0.020504517 2.3557589 2.5223372e-44
1.0249554 -0.012996962 2.360903 1.8584721e-40
1.0329947 0.027481616 2.3786631 2.951377e-39
1.0326313 0.031373408 2.380079 2.6751348e-39
1.0322679 0.035265032 2.3814948 2.6754879e-39
1.0319045 0.039156783 2.3829105 2.8605883e-39
1.0315411 0.043048445 2.3843262 2.9524336e-39
1.0311776 0.046940278 2.3857422 2.4907436e-39
1.039483 0.057174087 2.3918426 2.6737111e-39
1.0394384 0.075541884 2.3989534 2.7604613e-39
1.0390723 0.079461224 2.4003794 1.1974866e-39
1.044853 0.10309403 2.4110274 1.3815079e-39
1.055365 0.14599499 2.4303613 8.4077908e-45
1.0549936 0.14997114 2.4318078 5.6051939e-45
1.0436136 0.14789048 2.4280798 4.2038954e-45
1.043245 0.15183739 2.4295158 4.2038954e-45
1.0428765 0.15578431 2.4309516 4.2038954e-45
1.0527658 0.17382777 2.4404869 3.6734899e-40
1.0523945 0.17780389 2.4419334 6.4285968e-40
1.0598752 0.18566689 2.4469028 4.6100898e-40
1.051652 0.1857561 2.4448264 4.5992157e-40
1.0512806 0.18973221 2.4462731 6.4396251e-40
1.0509094 0.19370832 2.4477193 9.2449265e-40
1.0574294 0.20063691 2.45208 1.6609787e-39
1.0501667 0.20166051 2.4506125 2.1197988e-39
1.0596446 0.21037473 2.4564245 2.1212366e-39
1.0494242 0.20961294 2.4535055 1.1974866e-39
1.058946 0.21988551 2.459933 1.5655377e-39
1.0590374 0.22372678 2.461446 4.6026909e-40
1.0586636 0.22773036 2.4629028 8.4077908e-45
1.0626961 0.23273432 2.4658782 7.3686859e-40
1.0642956 0.23993751 2.4690821 8.2870269e-40
1.0665792 0.24425808 2.4713435 8.2905862e-40
1.0627414 0.24822465 2.4718966 1.1953202e-39
1.0673665 0.25848129 2.4770608 2.7623797e-40
1.0669899 0.26251435 2.478528 4.6026909e-40
1.0666133 0.26654705 2.4799955 9.1845305e-41
1.0730404 0.27412507 2.4845836 4.613537e-40
1.06586 0.27461293 2.4829297 1.9618179e-44
1.0779173 0.28652975 2.4906459 9.1981932e-40
1.0760365 0.28958267 2.4913468 1.1971363e-39
1.0756571 0.29364488 2.4928243 1.4730267e-39
