# .PCD v0.7 - Point Cloud Data file format
VERSION 0.7
FIELDS x y z rgb
SIZE 4 4 4 4
TYPE F F F F
COUNT 1 1 1 1
WIDTH 1057
HEIGHT 1
VIEWPOINT 0 0 0 1 0 0 0
POINTS 1057
DATA ascii
0.74055487 2.0909941 -2.1120949 6.4558269e-39
0.73506862 2.1129618 -2.1020958 6.0874045e-39
0.72381878 2.1742444 -2.0719118 5.9037279e-39
0.72386658 2.1831501 -2.0665755 5.903009e-39
0.72065163 2.1929407 -2.0625539 5.9955564e-39
0.75193626 1.967986 -2.179003 9.6790768e-39
0.7398957 2.0418851 -2.1417441 8.5745229e-39
0.73936319 2.0507727 -2.1367464 8.6667199e-39
0.73660696 2.0571148 -2.1345212 6.9164463e-39
0.72853994 2.0689523 -2.1320181 7.6529253e-39
0.72668654 2.0891929 -2.1209977 7.2848645e-39
0.72742409 2.0970407 -2.1159027 7.1930318e-39
0.72853363 2.1044996 -2.1108296 6.8253254e-39
0.7235899 2.1166983 -2.106348 7.1923143e-39
0.72597486 2.1216621 -2.1020424 7.9298779e-39
0.72544175 2.1306 -2.0970149 7.8373208e-39
0.71773118 2.1529307 -2.0880549 7.4696173e-39
0.71458375 2.1674249 -2.0811906 6.087766e-39
0.71463537 2.1763308 -2.0758522 6.1792372e-39
0.71106642 2.1917567 -2.0686705 6.1777924e-39
0.74338251 1.9694133 -2.182981 9.0358584e-39
0.74215662 1.9778904 -2.1786189 9.4946799e-39
0.73480153 2.0287545 -2.1524479 8.8489574e-39
0.73014402 2.0468688 -2.1442778 8.4819755e-39
0.72795051 2.0591152 -2.1382153 6.9164421e-39
0.72867215 2.071141 -2.1306386 8.4819853e-39
0.71719539 2.0968993 -2.1217613 7.2848701e-39
0.71767867 2.1056669 -2.1162615 8.5741627e-39
0.71729273 2.1146562 -2.1111202 7.0086363e-39
0.71592122 2.1218905 -2.1075819 6.7324096e-39
0.71563071 2.1355987 -2.0995734 7.7454741e-39
0.70783055 2.1637456 -2.0871966 7.3770573e-39
0.70505977 2.1751339 -2.0819712 6.2714314e-39
0.70511591 2.1840408 -2.0766296 6.3636256e-39
0.69964516 2.2189808 -2.0588882 2.0640602e-38
0.73728067 1.9538857 -2.1956823 9.9574559e-39
0.72992557 2.0047495 -2.1695113 9.2180986e-39
0.72869968 2.0132272 -2.1651492 9.0337074e-39
0.7274738 2.0217044 -2.1607873 8.2979374e-39
0.7229166 2.0436649 -2.1502681 9.3106642e-39
0.72379613 2.0471363 -2.147702 9.0355052e-39
0.72031313 2.0576088 -2.143425 9.311725e-39
0.71978426 2.0664976 -2.1384242 8.7592729e-39
0.71596575 2.0769274 -2.134362 6.8246164e-39
0.70884287 2.0986087 -2.1254573 8.2986563e-39
0.70809561 2.1078329 -2.1203799 7.2855875e-39
0.70732933 2.1195927 -2.113802 8.1139049e-39
0.70679927 2.1285322 -2.1087716 7.9302325e-39
0.70657068 2.1347272 -2.1052074 6.8238891e-39
0.7066229 2.1435776 -2.0999017 6.8231675e-39
0.70521152 2.1553516 -2.0936792 7.1022571e-39
0.695934 2.1861167 -2.0805755 6.2710727e-39
0.69636345 2.1956036 -2.0746772 5.5324342e-39
0.71524274 2.0485632 -2.1516798 8.3901372e-39
0.71401685 2.0570407 -2.1473179 8.6667171e-39
0.70707995 2.0702825 -2.1433396 6.7327613e-39
0.71156508 2.0739954 -2.1385942 8.2975899e-39
0.71033925 2.0824728 -2.1342323 8.2972339e-39
0.70911342 2.09095 -2.1298704 8.2050383e-39
0.69849038 2.112525 -2.1230049 8.2075396e-39
0.70205891 2.118278 -2.1175606 6.3629152e-39
0.69743299 2.1304059 -2.112942 7.9302325e-39
0.69690496 2.1393466 -2.1079099 8.2060991e-39
0.69637704 2.1482878 -2.1028774 8.2972255e-39
0.69584966 2.1572292 -2.0978446 7.6532826e-39
0.69532269 2.1661708 -2.0928116 7.6536442e-39
0.69391012 2.1775568 -2.0868211 6.2717873e-39
0.68758708 2.1976504 -2.0784113 5.9004923e-39
0.68727058 2.2117016 -2.0702131 4.7923258e-39
0.70914096 2.033036 -2.164381 8.9436627e-39
0.70791507 2.0415134 -2.1600194 8.9440285e-39
0.70668924 2.0499907 -2.1556573 8.851114e-39
0.69872904 2.063364 -2.1521783 7.6543673e-39
0.69878918 2.072212 -2.1468694 7.7461943e-39
0.70065105 2.079102 -2.141711 8.5752305e-39
0.70178574 2.0838997 -2.1382101 8.2050355e-39
0.69348478 2.1219172 -2.1202314 7.0079244e-39
0.68806285 2.1322818 -2.1171131 7.7458412e-39
0.6875363 2.1412241 -2.1120794 8.021705e-39
0.68647021 2.1502745 -2.1072857 6.6398538e-39
0.68648392 2.1591089 -2.1020112 7.7447608e-39
0.68466914 2.1707256 -2.0961101 6.4551038e-39
0.68473685 2.1796343 -2.0907609 6.1795917e-39
0.68480492 2.1885428 -2.0854115 6.3629054e-39
0.68019533 2.2003562 -2.080971 5.6249844e-39
0.70885134 2.0039418 -2.1818895 9.3102943e-39
0.70280004 2.0213468 -2.1749294 9.3117236e-39
0.6993615 2.0429404 -2.1639972 8.574897e-39
0.69813579 2.0514178 -2.1596351 8.7585596e-39
0.69239134 2.0631785 -2.1558666 9.3124439e-39
0.69186705 2.0720706 -2.1508615 9.3120795e-39
0.69445807 2.0768497 -2.1465497 8.7589127e-39
0.68559033 2.1078098 -2.1330984 6.7338515e-39
0.68955463 2.1107588 -2.1291022 7.8366159e-39
0.68548036 2.1238725 -2.1235843 7.8373236e-39
0.67527753 2.14608 -2.1161046 6.9157246e-39
0.67763889 2.1520467 -2.1112146 7.836962e-39
0.67541975 2.1638973 -2.1054025 6.4554667e-39
0.67549121 2.1728063 -2.1000509 6.4547563e-39
0.67528725 2.1836131 -2.0937233 6.4565401e-39
0.69938916 1.9850261 -2.198508 9.4035787e-39
0.6991455 2.0137718 -2.1815083 9.0351563e-39
0.69792885 2.0221856 -2.1771791 9.0351563e-39
0.68835628 2.0613222 -2.1592512 9.4946799e-39
0.68713039 2.0697994 -2.1548891 9.2184518e-39
0.68158931 2.0858753 -2.1484334 9.3117264e-39
0.6776827 2.098917 -2.1428638 8.8511112e-39
0.67641455 2.1098797 -2.1370442 7.3781405e-39
0.67663729 2.1168048 -2.1327899 8.5752431e-39
0.67320442 2.1285996 -2.127696 7.1930318e-39
0.67327845 2.1375084 -2.1223433 7.1008333e-39
0.6672973 2.1659172 -2.1087835 8.1139105e-39
0.66677529 2.1748614 -2.1037459 7.7444189e-39
0.68715787 2.0118854 -2.1894 9.9574559e-39
0.68943959 2.023602 -2.1811271 9.403929e-39
0.68102866 2.0542719 -2.1675909 9.0355052e-39
0.67947876 2.0744567 -2.1564324 9.4053583e-39
0.67735106 2.079704 -2.1545053 9.1280554e-39
0.67612529 2.0881813 -2.1501434 8.6660137e-39
0.66830939 2.1007917 -2.1470375 9.0362255e-39
0.66723812 2.111953 -2.1409883 8.0224323e-39
0.66731465 2.1208625 -2.1356337 7.5618087e-39
0.6667462 2.1276271 -2.1319218 8.5738138e-39
0.6679557 2.1344287 -2.1271842 8.3897883e-39
0.66743809 2.1433527 -2.1221559 8.6660024e-39
0.66692114 2.1522772 -2.1171274 8.3919323e-39
0.65481478 2.1816063 -2.1064768 7.5614472e-39
0.65688074 2.1856816 -2.102881 8.7571205e-39
0.6749267 2.0387444 -2.1802924 9.9571028e-39
0.67247504 2.0556991 -2.1715686 9.6808746e-39
0.66634583 2.0980856 -2.1497593 9.2206168e-39
0.66511977 2.1065631 -2.1453972 8.9440285e-39
0.65606534 2.1227603 -2.1408525 9.2213244e-39
0.66266811 2.1235178 -2.1366737 9.1262561e-39
0.65867937 2.1303859 -2.134831 9.404994e-39
0.65365714 2.1448491 -2.1290436 8.1153454e-39
0.6537447 2.1537747 -2.123673 7.562536e-39
0.65058249 2.1759162 -2.112258 8.0227812e-39
0.6461755 2.1809733 -2.1117311 1.0047509e-38
0.64887536 2.1895752 -2.1050787 8.851114e-39
0.64763963 2.1981194 -2.1006825 8.8493105e-39
0.64461279 2.2078826 -2.096571 8.8503867e-39
0.64409274 2.2168527 -2.0915167 8.5738026e-39
0.63753182 2.2428842 -2.0797017 9.4060618e-39
0.66514748 2.0486488 -2.1799083 1.0876911e-38
0.65691197 2.085295 -2.1627102 1.041844e-38
0.6563952 2.0942419 -2.1576681 1.0326255e-38
0.65587872 2.103189 -2.1526256 1.0511343e-38
0.65536255 2.1121366 -2.1475828 9.9578217e-39
0.65534043 2.1164677 -2.1450133 9.4035787e-39
0.6541146 2.1249447 -2.1406515 1.004678e-38
0.64444304 2.1469514 -2.1329918 8.9440383e-39
0.64453483 2.1558778 -2.1276183 8.2075522e-39
0.64462674 2.1648042 -2.1222448 8.208627e-39
0.64363241 2.1750934 -2.116672 8.6670871e-39
0.64260232 2.1904514 -2.1080976 1.0416635e-38
0.64208519 2.1994224 -2.1030414 9.4950443e-39
0.63654763 2.2166464 -2.0958991 8.4801833e-39
0.63234764 2.2243161 -2.0936975 5.8997454e-39
0.65414202 2.0670307 -2.1751623 1.1430087e-38
0.64753842 2.0871706 -2.1668835 8.9429495e-39
0.64702308 2.0961189 -2.1618397 9.4035633e-39
0.64599347 2.1140158 -2.1517515 1.0232962e-38
0.64547896 2.1229649 -2.1467068 1.0416987e-38
0.6455611 2.1263719 -2.1446292 9.4910898e-39
0.64433515 2.1348491 -2.1402676 9.2144833e-39
0.63766569 2.1452127 -2.1378541 3.1356996e-39
0.63715059 2.1541612 -2.1328101 3.6895782e-39
0.62916195 2.2095406 -2.1043046 1.5637146e-39
0.63662046 2.1158972 -2.155921 0
0.63823336 2.1193216 -2.1529689 0
0.63567722 2.1278198 -2.1493456 0
0.63516527 2.1367693 -2.1442995 0
0.61683422 2.2366118 -2.0951247 3.7767516e-39
0.61000323 2.2576444 -2.086442 3.6849161e-39
0.60948807 2.2666719 -2.081351 3.132478e-39
0.63458329 2.0868397 -2.1743941 3.4101411e-39
0.62826717 2.0998785 -2.1701863 4.1491397e-39
0.62732542 2.1117916 -2.1636159 3.9654575e-39
0.62681401 2.1207416 -2.1585689 3.9651043e-39
0.62630332 2.1296916 -2.1535215 4.0565699e-39
0.62722814 2.1377034 -2.1482229 3.8711178e-39
0.62600219 2.1461809 -2.1438611 3.6885244e-39
0.62355059 2.1631355 -2.1351373 3.5048436e-39
0.60802412 2.2400992 -2.0980194 3.9647288e-39
0.60697758 2.2465944 -2.0947378 3.5030458e-39
0.6299879 2.0909953 -2.1745107 4.7030309e-39
0.62877119 2.0994091 -2.1701815 4.6104821e-39
0.61763853 2.113446 -2.168098 4.6108255e-39
0.61743492 2.1226139 -2.1627474 5.5324244e-39
0.61135221 2.172163 -2.1366415 3.7825039e-39
0.60328811 2.1965153 -2.1266758 3.5059324e-39
0.60355723 2.2053385 -2.121264 3.5059226e-39
0.6038267 2.2141621 -2.1158516 3.5041234e-39
0.60152066 2.221524 -2.1127644 5.6238844e-39
0.60101157 2.2305312 -2.107682 5.0703631e-39
0.5907591 2.2580547 -2.0970612 3.5041234e-39
0.62323111 2.0357118 -2.2112832 7.1919402e-39
0.62272376 2.0446119 -2.2062638 7.0079062e-39
0.61830723 2.0853295 -2.1844823 6.8238667e-39
0.61780256 2.0942605 -2.1794431 6.4547325e-39
0.61906534 2.1092389 -2.1698005 6.2703552e-39
0.61257279 2.1236031 -2.1649022 5.902293e-39
0.60253429 2.156054 -2.1512229 6.3636158e-39
0.60644352 2.1659899 -2.1430929 5.8090253e-39
0.59156603 2.2324338 -2.1118798 6.0852241e-39
0.58876169 2.2411962 -2.1082392 4.887048e-39
0.58849996 2.2580156 -2.0983596 5.2525893e-39
0.58806551 2.2673995 -2.0930107 3.5030444e-39
1.5299528 2.0171947 -1.710466 9.2019837e-39
1.5298294 2.0261648 -1.7051879 2.2958874e-39
1.5295826 2.0441051 -1.6946321 9.1845305e-41
1.5205162 2.0102813 -1.7199144 1.5386593e-38
1.520393 2.0192511 -1.7146367 0
1.51108 2.0033674 -1.7293633 2.5843461e-39
1.5109565 2.0123377 -1.7240852 3.9661847e-39
1.5024003 2.0745759 -1.6918112 6.9070366e-39
1.4924539 1.9715999 -1.7588166 1.5114946e-38
1.4923306 1.98057 -1.7535386 3.5044933e-39
1.4922072 1.9895403 -1.7482606 5.4431197e-39
1.4920838 1.9985104 -1.7429825 5.9015741e-39
1.4828942 1.9736564 -1.7629873 4.2449296e-39
1.4827707 1.9826264 -1.7577091 5.4427694e-39
1.4826473 1.9915967 -1.7524312 6.2703552e-39
1.4544617 1.9618857 -1.786055 6.7320438e-39
1.4543382 1.9708557 -1.780777 6.2718041e-39
1.4542149 1.979826 -1.7754991 5.6289529e-39
1.4540914 1.9887959 -1.770221 5.903372e-39
1.4544358 2.0668519 -1.7234926 4.3353274e-39
1.4449017 1.9639423 -1.7902256 7.0997473e-39
1.4447784 1.9729122 -1.7849476 6.4565485e-39
1.4446551 1.9818825 -1.77967 6.3646976e-39
1.4445317 1.9908525 -1.7743917 6.1803064e-39
1.4444083 1.9998226 -1.7691137 5.9040782e-39
1.4447931 2.0689261 -1.7276994 4.3338939e-39
1.4446687 2.0779741 -1.7223755 9.2093783e-39
1.4353421 1.9659988 -1.7943965 7.3752776e-39
1.4352186 1.9749687 -1.7891182 6.3643529e-39
1.4350953 1.9839388 -1.7838404 6.5472812e-39
1.4349719 1.992909 -1.7785623 5.995569e-39
1.4348484 2.0018792 -1.7732843 5.9962738e-39
1.4347252 2.0108492 -1.7680063 6.0866688e-39
1.4257823 1.9680551 -1.7985668 7.0075685e-39
1.4256589 1.977025 -1.7932888 6.4561982e-39
1.4255356 1.9859952 -1.788011 6.3646976e-39
1.4254122 1.9949653 -1.7827331 6.1803064e-39
1.4229074 1.999243 -1.781597 4.3378455e-39
1.4162225 1.9701116 -1.8027375 6.640944e-39
1.4160992 1.9790816 -1.7974596 6.4561982e-39
1.4159757 1.9880517 -1.7921815 6.2717985e-39
1.4158524 1.9970218 -1.7869035 5.995569e-39
1.4157289 2.0059922 -1.7816255 5.995569e-39
1.4156054 2.0149622 -1.7763475 6.3625522e-39
1.4157407 2.084197 -1.734996 8.3785919e-39
1.4066628 1.9721682 -1.8069082 6.5483882e-39
1.4065396 1.9811381 -1.8016303 6.3636438e-39
1.4064159 1.9901081 -1.796352 6.3643529e-39
1.4062927 1.9990783 -1.7910742 6.3639998e-39
1.4061693 2.0080485 -1.785796 6.4547479e-39
1.4060458 2.0170186 -1.7805182 6.3625522e-39
1.4065958 2.0500798 -1.7604979 5.6260662e-39
1.406098 2.0862713 -1.7392027 6.9045507e-39
1.3964133 1.9600048 -1.8199452 6.3654431e-39
1.3971028 1.9742246 -1.8110785 6.1810505e-39
1.3969797 1.9831947 -1.805801 6.3647004e-39
1.3968562 1.9921647 -1.8005229 5.9970095e-39
1.3967328 2.0011346 -1.7952449 6.2717985e-39
1.3966094 2.0101049 -1.7899668 5.8118952e-39
1.396486 2.0190752 -1.7846887 5.903372e-39
1.3968285 2.0612018 -1.7593811 5.4405959e-39
1.3964554 2.0883455 -1.7434095 6.5361255e-39
1.3869332 1.9620441 -1.8240812 6.3654431e-39
1.3875432 1.976281 -1.8152493 6.3657962e-39
1.3874198 1.9852511 -1.8099715 6.5490917e-39
1.3779835 1.9783375 -1.8194199 6.8253226e-39
1.3778602 1.9873077 -1.8141422 6.9168176e-39
1.3775434 2.0653505 -1.7677945 4.7977503e-39
1.3684236 1.980394 -1.8235906 6.6412915e-39
1.3683003 1.989364 -1.8183126 6.641646e-39
1.3588638 1.9824505 -1.8277611 7.1919626e-39
1.3587407 1.9914205 -1.8224833 7.0075685e-39
1.3586172 2.0003905 -1.8172053 6.5490917e-39
1.3584939 2.0093606 -1.8119274 6.5476498e-39
1.3585069 2.0514033 -1.7868556 5.7171828e-39
1.3494275 1.9755369 -1.8372097 7.2852148e-39
1.349304 1.984507 -1.8319318 7.1004704e-39
1.3491807 1.993477 -1.8266538 7.0082706e-39
1.3490573 2.0024471 -1.821376 6.6394895e-39
1.3489339 2.0114172 -1.816098 6.2717985e-39
1.3489887 2.0444298 -1.7963861 5.9944732e-39
1.3484404 2.0472977 -1.7949858 5.9944732e-39
1.3398677 1.9775934 -1.8413806 7.2841582e-39
1.3397444 1.9865636 -1.8361026 6.8249751e-39
1.3396211 1.9955335 -1.8308246 6.641646e-39
1.3394976 2.0045035 -1.8255466 6.6391419e-39
1.3390971 2.0645998 -1.7899455 5.2594249e-39
1.3389727 2.0736477 -1.7846216 5.4412994e-39
1.330308 1.9796498 -1.8455511 6.917877e-39
1.3294545 2.066674 -1.7941521 5.5356684e-39
1.3111883 1.9837627 -1.8538924 7.469606e-39
1.3110651 1.9927329 -1.8486143 7.0082748e-39
1.3109416 2.0017028 -1.8433365 7.0082748e-39
1.3108182 2.010673 -1.8380582 6.5483882e-39
1.3106948 2.0196428 -1.8327806 7.0082706e-39
1.3105716 2.0286131 -1.8275023 6.3643529e-39
1.3104481 2.0375834 -1.8222244 5.9955718e-39
1.310418 2.052727 -1.8132132 6.0866688e-39
1.3011488 2.0276575 -1.8333914 7.0075685e-39
1.3010242 2.0367055 -1.8280675 6.3643529e-39
1.3008997 2.0457535 -1.8227438 6.2717985e-39
1.3006508 2.0638492 -1.8120962 5.5356684e-39
1.2999701 2.0710037 -1.8082154 4.243136e-39
1.2915061 2.0297318 -1.8375982 6.641646e-39
1.2642533 1.9312545 -1.9116914 1.5655255e-38
1.2534441 2.0516653 -1.8460087 4.613359e-39
1.2519395 2.1104124 -1.8118349 7.4602258e-39
1.23365 2.0421777 -1.862839 7.3763566e-39
1.2326543 2.1145608 -1.8202487 1.0687408e-38
1.2235094 2.0804436 -1.8457506 6.5476498e-39
1.223385 2.0894916 -1.8404267 6.7309872e-39
1.2224791 2.1142323 -1.8261888 4.885983e-39
1.2223536 2.123358 -1.8208191 1.1701209e-38
1.2137364 2.0490289 -1.8699961 5.1658139e-39
1.2045976 2.0574486 -1.8701355 7.192666e-39
1.2043486 2.0755444 -1.8594879 6.7316655e-39
1.1850634 2.0796928 -1.8679016 7.1930164e-39
1.1278296 2.0468993 -1.9197611 8.390489e-39
1.0792038 2.0121973 -1.9678991 6.5494602e-39
1.0795405 2.0208964 -1.962523 6.7324166e-39
1.0798768 2.0295963 -1.9571464 6.640951e-39
1.0802126 2.0382965 -1.9517702 6.181042e-39
1.0784485 2.0827122 -1.9262868 5.9948501e-39
1.06654 2.0646865 -1.9437557 6.1785253e-39
1.069849 2.0683932 -1.9396781 8.1146279e-39
1.0596856 2.0695584 -1.9447207 5.997364e-39
1.0578976 2.0950446 -1.9305363 8.0224267e-39
1.0503057 2.0629866 -1.9539336 6.0877702e-39
1.0480464 2.1062624 -1.9294095 8.0217232e-39
1.0412943 2.0474725 -1.9682696 7.9320289e-39
1.0410454 2.065568 -1.9576222 7.7476377e-39
1.0381953 2.1174805 -1.9282829 7.745837e-39
1.0317763 2.0404987 -1.9778003 7.9316772e-39
1.0284699 2.1195724 -1.9325259 7.745837e-39
1.0280933 2.1469493 -1.9164172 6.0873779e-39
1.0221335 2.0425732 -1.982007 8.4830517e-39
1.0191207 2.0942876 -1.9528776 8.1146223e-39
1.0189953 2.1034133 -1.9475077 8.1146279e-39
1.0188698 2.1125388 -1.9421384 7.7454839e-39
1.0186186 2.1307902 -1.9313993 7.6532883e-39
1.0184932 2.1399159 -1.9260298 7.5632436e-39
1.0118263 2.0442083 -1.9868509 6.7338515e-39
1.0086111 2.0924277 -1.9599191 6.1806777e-39
1.0096714 2.1187119 -1.943651 5.7193422e-39
1.0031389 2.0050578 -2.0150948 6.9178826e-39
1.0016817 2.0585704 -1.9840153 6.6412985e-39
1.0020354 2.0673311 -1.9785929 6.4576317e-39
0.99992073 2.0802205 -1.9721025 8.1160615e-39
0.99915636 2.085799 -1.9692081 5.7207758e-39
0.99966955 2.0984719 -1.9613633 7.9320289e-39
0.99954402 2.1075976 -1.9559938 7.5628933e-39
0.99941862 2.1167231 -1.9506243 7.471048e-39
0.99879098 2.1623516 -1.9237765 1.9166537e-38
0.97376746 2.0142655 -2.0261862 6.6412999e-39
0.97412848 2.0229776 -2.0207887 6.7324166e-39
0.97448909 2.0316896 -2.0153913 6.6413013e-39
0.96489966 2.0097795 -2.0338666 9.1287743e-39
0.95451039 2.0661411 -2.0061307 8.0220736e-39
0.95079076 2.1271839 -1.9718391 7.745837e-39
0.95028865 2.1636865 -1.9503609 1.0872565e-38
0.93737644 2.1820667 -1.9466925 2.0454772e-38
0.93337554 2.0310569 -2.0389776 7.0104342e-39
0.93534178 2.0461814 -2.0288508 7.0082874e-39
0.93083763 2.1678708 -1.9588467 1.3546917e-38
0.91775954 2.1862867 -1.9552507 2.0821019e-38
0.90642136 2.0674648 -2.0324886 8.3912036e-39
0.87361377 2.0982926 -2.0326304 8.2990122e-39
0.86250585 2.1472595 -2.0097086 5.6264193e-39
0.85453922 2.0750999 -2.0572248 8.5755977e-39
0.85328394 2.1663568 -2.0035295 7.6514764e-39
0.84380949 2.1501975 -2.0185115 7.7451167e-39
0.84282333 2.1637115 -2.0110116 5.9941383e-39
0.84322655 2.1726069 -2.005481 5.8093757e-39
0.82829016 2.188653 -2.0043466 7.830446e-39
0.8234362 2.0652137 -2.0806768 7.0082846e-39
0.82467645 2.1013138 -2.058455 6.5480225e-39
0.82011437 2.1321666 -2.0426371 6.4558227e-39
0.82052159 2.1411028 -2.0370798 6.1799532e-39
0.82092822 2.1500394 -2.0315225 6.0870429e-39
0.81075245 2.1450722 -2.0402281 7.8383858e-39
0.81167305 2.1522341 -2.0354388 5.9948501e-39
0.81049925 2.1634791 -2.0293977 7.469606e-39
0.80160087 2.13656 -2.0504689 6.2710741e-39
0.80201131 2.1454945 -2.0449109 6.0873933e-39
0.80242145 2.1544292 -2.0393527 5.9022944e-39
0.80283135 2.1633639 -2.0337946 5.9019342e-39
0.80324125 2.1722989 -2.0282369 6.0859611e-39
0.79113555 2.149292 -2.0487864 7.745837e-39
0.79317331 2.156625 -2.0432644 5.902293e-39
0.79358512 2.1655588 -2.0377059 5.9022887e-39
0.76713455 2.0848036 -2.100781 8.390489e-39
0.76700902 2.0939293 -2.0954113 8.2064424e-39
0.7666325 2.1213062 -2.0793028 8.0224267e-39
0.76196331 2.1372149 -2.0724545 7.7454867e-39
0.75728345 2.0960214 -2.0996544 8.4826832e-39
0.75202835 2.1485283 -2.0713181 8.1135433e-39
0.75152183 2.1853423 -2.0496571 7.3756098e-39
0.75139534 2.194546 -2.0442417 5.6249494e-39
0.74755806 2.0981135 -2.1038973 8.4834049e-39
0.74209315 2.1598418 -2.0701821 7.469606e-39
0.73745257 2.2109034 -2.0423605 1.289832e-38
0.73783261 2.1002054 -2.1081402 8.2990122e-39
0.73297071 2.1241758 -2.0965946 6.3639914e-39
0.7333982 2.1331384 -2.0910099 6.2714328e-39
0.73405099 2.1418695 -2.0854363 6.3639858e-39
0.7321583 2.1711552 -2.0690458 7.1930164e-39
0.73203182 2.1803589 -2.0636303 7.1930164e-39
0.73165202 2.207969 -2.0473843 1.8704836e-38
0.72272944 2.1456549 -2.089571 7.8383858e-39
0.72470593 2.1488469 -2.0865521 6.0874017e-39
0.72247642 2.1640618 -2.0787404 7.3770601e-39
0.72254521 2.2052224 -2.0541627 3.9657966e-39
0.7218433 2.2100792 -2.0516636 1.9628229e-38
0.71875775 2.077013 -2.1327348 9.1280554e-39
0.70940882 2.0517282 -2.1530862 8.7589127e-39
0.70602292 2.0625832 -2.1485264 7.377779e-39
0.70915776 2.0699794 -2.1423473 8.668152e-39
0.70903224 2.0791051 -2.1369777 8.5756005e-39
0.69993442 2.035569 -2.1680684 9.4971868e-39
0.69968331 2.0538201 -2.1573293 8.851114e-39
0.68708122 2.2241597 -2.0628932 1.8890692e-38
0.68945575 2.0924149 -2.140094 8.666364e-39
0.6780377 2.2240891 -2.0680401 1.0231501e-38
0.66729182 2.2284167 -2.0715265 1.308528e-38
0.64464152 2.1349244 -2.1400497 1.0602823e-38
0.63625169 1.9915549 -2.2302577 5.0732385e-39
0.62502456 2.1391444 -2.148608 4.0562196e-39
0.62489802 2.1483479 -2.1431925 3.3197433e-39
0.61820138 2.2112064 -2.1094987 3.0428061e-39
0.61730766 2.2761965 -2.0712585 1.2442835e-38
0.62263191 2.0158033 -2.22349 7.6536372e-39
0.62250638 2.024929 -2.2181206 7.6529183e-39
0.61496288 2.1596613 -2.1420565 5.0725169e-39
0.61178291 2.2015023 -2.1189075 3.2271806e-39
0.60566086 2.1249573 -2.1679969 7.2834127e-39
0.59866768 2.1968944 -2.1290584 5.8118798e-39
0.59853995 2.2061791 -2.1235952 5.9022775e-39
0.59841228 2.2154632 -2.1181324 5.8104322e-39
0.59559917 2.1454744 -2.1614451 7.4699592e-39
0.59060186 2.1605327 -2.1552889 6.1792246e-39
0.58582532 2.2202079 -2.1224093 5.3494611e-39
0.58838981 2.2268763 -2.1169863 6.4540024e-39
0.58898169 2.0425651 -2.2265317 7.4706893e-39
0.58604401 2.1291773 -2.1765549 8.3908421e-39
0.58591747 2.1383808 -2.1711395 7.8380326e-39
0.58118379 2.1628103 -2.1592479 6.4558255e-39
0.58165705 2.1719134 -2.1535537 6.7313263e-39
0.57900608 2.1918674 -2.1431544 7.744744e-39
0.57887852 2.2011516 -2.1376915 7.1912171e-39
0.57589859 2.213341 -2.1321068 5.533865e-39
0.57862294 2.2197204 -2.1267657 7.1915674e-39
0.57684475 2.2316282 -2.1206706 5.4409407e-39
0.57836771 2.2382889 -2.1158397 6.9131855e-39
0.57725358 2.245389 -2.112236 5.0700071e-39
0.5782637 2.2590594 -2.1035161 4.6101108e-39
0.57798451 2.2661421 -2.0994511 4.9781787e-39
0.56911129 2.1939957 -2.1474712 7.4699592e-39
0.56898361 2.20328 -2.1420083 7.4678054e-39
0.56885588 2.2125645 -2.1365454 7.2834127e-39
0.56638128 2.2202218 -2.1333773 5.7182534e-39
0.56685632 2.2293653 -2.1276581 5.717173e-39
0.56780678 2.2476518 -2.1162198 5.3473101e-39
0.5682174 2.2589862 -2.1092308 6.2699713e-39
0.56808972 2.2682707 -2.1037679 5.2544054e-39
0.55957705 2.1846998 -2.1583955 6.5480183e-39
0.56005335 2.1938429 -2.1526759 5.996641e-39
0.56052947 2.2029862 -2.146956 6.0870401e-39
0.56100571 2.2121291 -2.1412365 5.6275053e-39
0.55693161 2.2224867 -2.1373615 5.9022972e-39
0.55832267 2.2611146 -2.1135478 6.4540024e-39
0.55819499 2.2703993 -2.1080847 4.794488e-39
0.55806726 2.2796836 -2.1026218 7.5592583e-39
0.55013609 2.1869636 -2.1623755 6.7324053e-39
0.55061418 2.196106 -2.1566551 6.4558227e-39
0.55109203 2.2052486 -2.1509347 6.1795875e-39
0.55157018 2.2143912 -2.1452143 6.0870303e-39
0.54893875 2.2261059 -2.1397159 7.4678054e-39
0.55252594 2.232677 -2.1337736 5.6260578e-39
0.54817247 2.2818122 -2.1069384 7.9276849e-39
0.54744309 2.0915999 -2.2207479 8.9443788e-39
0.539738 2.1709433 -2.1777959 7.0997543e-39
0.54021782 2.1800857 -2.1720748 6.9164365e-39
0.54069787 2.1892276 -2.1663537 6.7324166e-39
0.54117763 2.19837 -2.1606324 6.5480183e-39
0.54165745 2.2075124 -2.1549113 6.363983e-39
0.53917187 2.21895 -2.1494956 7.7443881e-39
0.5390442 2.2282343 -2.1440327 7.4678054e-39
0.53827786 2.2839406 -2.1112552 8.388649e-39
0.52933562 2.1549256 -2.1932173 6.9171637e-39
0.52981734 2.1640675 -2.1874955 7.1015522e-39
0.53029907 2.1732092 -2.1817734 7.0089978e-39
0.53078079 2.1823511 -2.1760514 6.6409328e-39
0.53126258 2.1914926 -2.1703296 6.3639886e-39
0.53174412 2.2006345 -2.1646078 6.547654e-39
0.53222585 2.2097766 -2.1588855 6.3632683e-39
0.52927738 2.2210786 -2.1538122 7.2852148e-39
0.52914959 2.2303629 -2.1483493 7.4681585e-39
0.52902186 2.2396472 -2.1428864 7.0990187e-39
0.52838343 2.2860689 -2.115572 8.7567323e-39
0.5282557 2.2953534 -2.1101089 1.0321887e-38
0.52134585 2.1846175 -2.1800265 6.5476498e-39
0.52182955 2.193759 -2.1743035 6.5487372e-39
0.52231312 2.2029002 -2.168581 6.5483728e-39
0.51951015 2.2139227 -2.1635921 7.4699592e-39
0.51938242 2.2232072 -2.158129 7.1930164e-39
0.5192548 2.2324915 -2.1526661 7.4681585e-39
0.51912713 2.2417758 -2.1472032 7.1912143e-39
0.51789105 2.1071334 -2.2281699 8.9443816e-39
0.51725799 2.1531506 -2.2010937 8.4830391e-39
0.51713145 2.1623542 -2.1956782 8.4823329e-39
0.51012641 2.1789138 -2.1897602 8.0213449e-39
0.51191437 2.1868846 -2.1839991 6.7316893e-39
0.50987089 2.1974823 -2.1788347 7.8373138e-39
0.50974327 2.2067668 -2.1733716 7.6529183e-39
0.50961548 2.2160511 -2.1679089 7.5600038e-39
0.50948781 2.2253358 -2.1624458 7.2841582e-39
0.50936007 2.2346201 -2.1569829 7.4678054e-39
0.5092324 2.2439044 -2.15152 7.7433161e-39
0.50910461 2.2531886 -2.1460571 7.1904954e-39
0.5088492 2.2717574 -2.1351314 6.4543555e-39
0.50859392 2.2903261 -2.1242054 9.0336892e-39
0.50833577 2.0908365 -2.2432797 8.8511084e-39
0.50820923 2.10004 -2.2378645 8.6677961e-39
0.50808257 2.1092434 -2.2324491 8.9443816e-39
0.50795597 2.1184468 -2.2270339 8.851114e-39
0.50782943 2.1276503 -2.2216184 8.9436599e-39
0.50770283 2.1368537 -2.2162035 8.7592687e-39
0.50757635 2.1460571 -2.2107878 8.6667143e-39
0.50744969 2.1552606 -2.2053726 8.4830391e-39
0.50732309 2.164464 -2.1999574 8.3908421e-39
0.50010401 2.1903267 -2.1886141 8.4826832e-39
0.49997625 2.1996109 -2.1831512 8.0213449e-39
0.49984863 2.2088952 -2.1776884 7.469606e-39
0.49972078 2.2181797 -2.1722255 7.192666e-39
0.49959314 2.2274642 -2.1667626 7.4678054e-39
0.49946544 2.2367485 -2.1612997 7.2834127e-39
0.49933773 2.246033 -2.1558366 7.1912171e-39
0.49921003 2.2553172 -2.1503737 7.0990187e-39
0.49908239 2.2646015 -2.1449108 7.0979313e-39
0.49895465 2.273886 -2.1394479 6.5465511e-39
0.49865386 2.0837431 -2.252974 8.9436627e-39
0.49852729 2.0929465 -2.2475588 8.7592687e-39
0.49840063 2.10215 -2.2421436 8.668152e-39
0.50154161 2.1073632 -2.2372625 7.0097195e-39
0.50214905 2.1160309 -2.2317522 6.824615e-39
0.49802098 2.1297603 -2.2258976 8.668152e-39
0.49789423 2.1389639 -2.2204821 8.5755977e-39
0.49776769 2.1481671 -2.2150671 8.3912092e-39
0.49764115 2.1573706 -2.2096517 8.482686e-39
0.49751452 2.166574 -2.2042365 8.2982933e-39
0.49738798 2.1757774 -2.1988211 8.0213449e-39
0.49020928 2.1924553 -2.1929309 7.8373138e-39
0.49008161 2.2017395 -2.1874681 7.7461873e-39
0.48995388 2.2110238 -2.1820052 7.1026214e-39
0.48982623 2.2203081 -2.1765423 7.192666e-39
0.48957086 2.2388768 -2.1656163 7.2834127e-39
0.48944306 2.2481616 -2.1601534 7.1912143e-39
0.48931536 2.2574458 -2.1546905 6.9146344e-39
0.48918769 2.2667301 -2.1492276 6.7305935e-39
0.48906001 2.2760143 -2.1437647 6.4543555e-39
0.48893219 2.2852988 -2.1383018 4.700112e-39
0.49237794 2.0653467 -2.2674842 7.1944709e-39
0.48884559 2.0858531 -2.2572532 8.9443788e-39
0.49117976 2.0891936 -2.2539439 6.7334942e-39
0.4924871 2.1007955 -2.2462895 7.009002e-39
0.49310026 2.1094577 -2.2407789 7.0093622e-39
0.49136707 2.1189134 -2.2361202 6.7331382e-39
0.48808596 2.1410737 -2.2247615 8.5756005e-39
0.48795947 2.1502769 -2.219346 8.4837524e-39
0.48783278 2.1594806 -2.2139308 8.1138937e-39
0.48044246 2.1852996 -2.2027104 8.1135433e-39
0.48031479 2.1945837 -2.1972475 8.021698e-39
0.48018703 2.2038682 -2.1917846 7.65364e-39
0.48005936 2.2131524 -2.1863217 7.469606e-39
0.47993165 2.2224367 -2.1808589 7.5600038e-39
0.47980392 2.2317212 -2.1753957 7.7440251e-39
0.47967628 2.2410054 -2.1699331 7.3748895e-39
0.4795486 2.2502897 -2.16447 7.1912143e-39
0.47942081 2.2595742 -2.1590071 7.0990187e-39
0.47929311 2.2688587 -2.1535442 6.7309466e-39
0.47916543 2.2781429 -2.1480813 6.7291445e-39
0.47903773 2.2874272 -2.1426184 4.9763359e-39
0.48486063 2.0196157 -2.298991 7.6565267e-39
0.48204839 2.0484726 -2.2833753 7.1944709e-39
0.48091415 2.0666468 -2.2731805 7.0097237e-39
0.4791635 2.0787594 -2.2669477 8.9443816e-39
0.47903693 2.0879631 -2.2615323 9.1287743e-39
0.47891042 2.0971663 -2.2561171 9.4042821e-39
0.47878373 2.10637 -2.2507017 9.4950358e-39
0.47865716 2.1155734 -2.2452865 9.125903e-39
0.47853053 2.1247768 -2.2398713 8.8511084e-39
0.47840399 2.1339803 -2.2344558 8.8511084e-39
0.47827736 2.1431837 -2.2290406 8.7592687e-39
0.47815081 2.1523871 -2.2236252 8.483402e-39
0.47802424 2.1615906 -2.21821 8.0217232e-39
0.47789761 2.170794 -2.2127945 8.2057446e-39
0.47041994 2.1967123 -2.2015643 7.744765e-39
0.47029227 2.2059968 -2.1961014 7.469606e-39
0.47016457 2.215281 -2.1906385 7.6529183e-39
0.47003677 2.2245653 -2.1851757 7.7440349e-39
0.46990904 2.2338498 -2.1797128 7.9277101e-39
0.46978146 2.243134 -2.1742496 7.4660061e-39
0.46965367 2.2524183 -2.168787 7.466362e-39
0.46952608 2.2617028 -2.1633239 7.2816121e-39
0.46939835 2.270987 -2.157861 6.7309466e-39
0.47182867 2.0600793 -2.2822249 7.6532967e-39
0.47245872 2.0687571 -2.2766957 7.0100838e-39
0.4730882 2.0774355 -2.2711668 6.8264087e-39
0.471315 2.0869279 -2.2665086 7.1015564e-39
0.47194821 2.0956039 -2.2609787 6.9175211e-39
0.46897534 2.1084797 -2.2549808 9.2188021e-39
0.47080007 2.1137707 -2.2507966 6.549456e-39
0.47143647 2.1224449 -2.245266 6.4569115e-39
0.46859556 2.1360903 -2.238735 8.8514643e-39
0.46846905 2.1452937 -2.2333195 8.7592687e-39
0.46090826 2.1709878 -2.2222698 8.1128399e-39
0.46078056 2.1802721 -2.2168071 8.2057446e-39
0.46065289 2.1895566 -2.211344 8.2060921e-39
0.46052516 2.1988409 -2.2058811 7.744765e-39
0.46039745 2.2081251 -2.2004182 7.7451167e-39
0.46014214 2.2266936 -2.1894925 7.5600038e-39
0.4600144 2.2359784 -2.1840293 7.5600038e-39
0.45988676 2.2452626 -2.1785665 7.1912143e-39
0.45975903 2.2545469 -2.1731036 7.0990187e-39
0.45963126 2.2638311 -2.1676407 6.7305935e-39
0.45950353 2.2731156 -2.1621778 6.5465511e-39
0.45937586 2.2823999 -2.1567149 5.3466024e-39
0.46255225 2.0236573 -2.309175 7.654726e-39
0.46318614 2.0323334 -2.3036447 7.1955499e-39
0.46516189 2.0526967 -2.2903895 7.2859491e-39
0.46338966 2.0621941 -2.285728 7.3781447e-39
0.46402517 2.0708675 -2.2801983 7.0104412e-39
0.46224064 2.0803654 -2.2755435 7.0104412e-39
0.46288016 2.0890367 -2.2700129 6.9175281e-39
0.46351856 2.0977087 -2.2644827 7.0093594e-39
0.46415651 2.1063809 -2.2589524 6.9171567e-39
0.46236938 2.1158738 -2.254302 6.5491043e-39
0.45101371 2.1731162 -2.2265866 7.8376823e-39
0.45088595 2.1824005 -2.2211237 7.8376823e-39
0.45075834 2.191685 -2.2156608 8.2060921e-39
0.45063055 2.2009695 -2.2101977 7.744765e-39
0.45050287 2.2102535 -2.204735 7.8373194e-39
0.45037511 2.219538 -2.1992719 7.7454727e-39
0.45024744 2.2288222 -2.193809 7.7443881e-39
0.4501197 2.2381067 -2.1883461 7.7440349e-39
0.449992 2.2473912 -2.1828833 7.3756098e-39
0.44986436 2.2566755 -2.1774204 7.1004508e-39
0.44973662 2.2659597 -2.1719575 6.7305935e-39
0.44960892 2.2752442 -2.1664946 6.4540024e-39
0.44948119 2.2845285 -2.1610317 4.5182865e-39
0.45114172 2.0547345 -2.2970891 7.2866679e-39
0.45425269 2.06126 -2.2914429 7.1941136e-39
0.45489472 2.0699303 -2.2859113 6.8267688e-39
0.45309925 2.0794158 -2.28127 6.9178994e-39
0.45374507 2.0880837 -2.275738 6.7338571e-39
0.45511079 2.0998139 -2.2679739 6.8260471e-39
0.44923171 2.1219034 -2.2581239 8.9436599e-39
0.44910517 2.1311066 -2.2527084 8.9429593e-39
0.4489786 2.14031 -2.2472932 8.6649263e-39
0.448852 2.1495135 -2.2418778 8.665278e-39
0.44111896 2.175245 -2.2309031 7.7454867e-39
0.44099119 2.1845291 -2.2254403 8.0213449e-39
0.44086364 2.1938136 -2.2199774 7.745837e-39
0.44073585 2.2030981 -2.2145145 7.65364e-39
0.44060823 2.2123821 -2.2090516 7.7454671e-39
0.44048059 2.2216666 -2.2035887 7.4681739e-39
0.4403528 2.2309508 -2.1981258 7.5600038e-39
0.44022503 2.2402353 -2.192663 7.5603541e-39
0.4400973 2.2495196 -2.1872001 7.4678054e-39
0.4426966 2.0568538 -2.3005931 7.286319e-39
0.44335157 2.0655425 -2.2950435 7.2863134e-39
0.44005638 2.077996 -2.2894793 9.0358584e-39
0.43992981 2.0871994 -2.2840641 9.0358584e-39
0.43980321 2.0964029 -2.2786489 8.7589127e-39
0.43955004 2.1148098 -2.2678182 8.8514643e-39
0.43942344 2.1240132 -2.262403 8.7592687e-39
0.43929681 2.1332169 -2.2569876 8.7592687e-39
0.43879047 2.1700304 -2.2353263 8.0213449e-39
0.43109676 2.1866577 -2.2297571 8.2064424e-39
0.43096906 2.1959422 -2.2242939 7.9287793e-39
0.43084127 2.2052264 -2.2188313 7.6529183e-39
0.43071359 2.2145107 -2.2133684 7.6529183e-39
0.43058604 2.2237949 -2.2079055 7.1919472e-39
0.43045816 2.2330792 -2.2024426 7.1930164e-39
0.43033051 2.2423637 -2.1969795 7.4678054e-39
0.43020284 2.2516479 -2.1915166 7.2834127e-39
0.43007505 2.2609327 -2.1860535 7.1915674e-39
0.42994735 2.2702167 -2.1805909 7.0053825e-39
0.42981976 2.2795012 -2.1751277 6.5458477e-39
0.4349333 2.0676577 -2.2985349 7.1944723e-39
0.43309319 2.0771935 -2.2938886 7.194831e-39
0.43012118 2.0893095 -2.2883432 9.3124368e-39
0.42999467 2.0985126 -2.282928 8.9436627e-39
0.43574649 2.1119256 -2.2716849 6.9175211e-39
0.4296149 2.1261232 -2.2666819 8.851114e-39
0.42094657 2.207355 -2.2231479 8.2039439e-39
0.42069107 2.2259235 -2.2122223 7.5600038e-39
0.42056349 2.2352078 -2.2067595 7.4678054e-39
0.42043576 2.2444923 -2.2012963 7.4681585e-39
0.42030802 2.2537766 -2.1958334 7.2834127e-39
0.42018038 2.2630608 -2.1903706 7.1919472e-39
0.42512709 2.0579441 -2.3098614 7.1944765e-39
0.42653662 2.0697739 -2.3020132 7.1022809e-39
0.4239428 2.076149 -2.2996769 7.1941108e-39
0.41993296 2.1190298 -2.2763765 8.7589127e-39
0.41169029 2.1630616 -2.2547793 8.3897869e-39
0.41930002 2.1650469 -2.2493 8.1131902e-39
0.41917339 2.1742504 -2.2438848 7.8373138e-39
0.410541 2.2466209 -2.2056131 7.4678054e-39
0.41041338 2.2559052 -2.20015 7.0990187e-39
0.41028562 2.2651894 -2.1946874 6.8224388e-39
0.41088405 2.0659192 -2.3131473 9.1273519e-39
0.41075745 2.0751226 -2.3077321 9.0358556e-39
0.41063085 2.084326 -2.3023167 9.1280526e-39
0.41050428 2.0935295 -2.2969015 8.8511084e-39
0.40179572 2.1651902 -2.2590959 8.2982933e-39
0.4094916 2.1671569 -2.2535791 8.205739e-39
0.40923837 2.1855638 -2.2427485 8.2050355e-39
0.40115717 2.211612 -2.2317815 7.7454727e-39
0.40051866 2.2580338 -2.2044668 7.3741664e-39
0.40039104 2.267318 -2.1990039 6.8224388e-39
0.40540963 2.0288107 -2.3383605 7.4707047e-39
0.40351462 2.0383914 -2.3337185 7.1019221e-39
0.4010756 2.0680289 -2.3174264 8.6677961e-39
0.400949 2.0772326 -2.3120112 8.7589127e-39
0.39190096 2.1673188 -2.2634127 8.205739e-39
0.39540914 2.1705363 -2.2595141 5.9955704e-39
0.3910071 2.2323091 -2.2251723 7.3774104e-39
0.39087933 2.2415934 -2.2197096 7.7443881e-39
0.39062399 2.2601621 -2.2087836 7.3748895e-39
0.39434269 2.0372715 -2.3395638 7.5621856e-39
0.39139384 2.0609355 -2.3271208 9.0358584e-39
0.39126724 2.0701389 -2.3217056 8.7592687e-39
0.39528471 2.0761855 -2.3158329 7.0097223e-39
0.3959806 2.0848773 -2.3102584 7.192673e-39
0.39088747 2.0977495 -2.3054595 8.9436627e-39
0.39076102 2.1069527 -2.3000443 8.6667171e-39
0.39271364 2.1142619 -2.2945845 6.5491043e-39
0.38226187 2.1508787 -2.2786551 9.3117334e-39
0.38200647 2.1694472 -2.2677295 8.1131902e-39
0.38393012 2.1755149 -2.263026 6.179247e-39
0.38175106 2.1880159 -2.2568035 7.8373138e-39
0.38162336 2.1973002 -2.2513406 7.652568e-39
0.38339099 2.2027884 -2.247071 5.7189891e-39
0.38136798 2.2158689 -2.2404149 7.7451167e-39
0.38124025 2.2251532 -2.2349522 7.6532883e-39
0.38085708 2.2530062 -2.2185633 7.3752748e-39
0.38072944 2.2622907 -2.2131002 7.2834127e-39
0.38251331 2.1006768 -2.3084419 6.9171764e-39
0.38322851 2.1094165 -2.3028276 6.549833e-39
0.36583099 2.104331 -2.3156805 6.8256912e-39
0.27329257 2.1835766 -2.3206763 7.9298779e-39
0.25414166 2.141412 -2.3566244 8.2057446e-39
0.24424708 2.1435404 -2.3609409 8.1139217e-39
0.24694625 2.1493013 -2.355983 6.1806777e-39
0.23448025 2.1363847 -2.3707206 8.205739e-39
0.23371075 2.1457279 -2.3655849 6.1806861e-39
0.23422477 2.1549532 -2.3597949 8.2057446e-39
0.22433028 2.1440361 -2.3718889 6.3643557e-39
0.22611558 2.156836 -2.36325 6.4565527e-39
0.23098865 2.1625359 -2.3571012 6.3639984e-39
0.21675578 2.1551168 -2.3695588 6.5491001e-39
0.21762061 2.1639974 -2.3637762 6.4561898e-39
0.21531196 2.1739581 -2.3591413 6.4565457e-39
0.21405223 2.1870635 -2.3520396 7.8369634e-39
0.21392454 2.1963477 -2.3465767 7.7454727e-39
0.20834257 2.1573155 -2.3729973 6.4569087e-39
0.20921388 2.1661935 -2.3672128 6.2728719e-39
0.20428516 2.1799078 -2.361819 7.8373138e-39
0.20777036 2.1850355 -2.3567946 6.1803218e-39
0.19994916 2.1595159 -2.3764238 6.5491085e-39
0.20082729 2.1683908 -2.3706374 6.180319e-39
0.20170468 2.1772659 -2.364851 6.181035e-39
0.19400744 2.2098892 -2.3497472 7.6529407e-39
0.19062449 2.1576908 -2.3827758 6.5487498e-39
0.19246031 2.1705894 -2.3740497 6.181042e-39
0.18566696 2.1840336 -2.3698697 6.0892051e-39
0.18436828 2.193449 -2.3649898 7.3770601e-39
0.18424055 2.2027333 -2.3595266 7.3770601e-39
0.18411286 2.2120178 -2.354064 7.3770601e-39
0.18398516 2.2213018 -2.3486011 7.2852148e-39
0.18385738 2.2305865 -2.343138 7.2848617e-39
0.18168782 2.081866 -2.4330246 7.0104468e-39
0.17835009 2.1354105 -2.4029875 6.3661494e-39
0.17596653 2.1454334 -2.3983576 6.5491001e-39
0.17686778 2.1543379 -2.3925405 6.2735978e-39
0.17485657 2.1677244 -2.3856952 8.1128399e-39
0.1747289 2.1770089 -2.3802323 8.205739e-39
0.17460115 2.1862931 -2.3747694 8.0213449e-39
0.17447338 2.1955776 -2.3693066 7.6532883e-39
0.17434573 2.2048619 -2.3638437 8.0209946e-39
0.17421798 2.2141461 -2.3583808 7.3770601e-39
0.1740903 2.2234306 -2.3529179 7.3770601e-39
0.17396267 2.2327149 -2.347455 7.3759783e-39
0.16994908 2.1376195 -2.4064131 6.5498218e-39
0.16521733 2.1512842 -2.4009378 8.1131902e-39
0.1650897 2.1605687 -2.3954747 8.1131902e-39
0.16496195 2.169853 -2.390012 8.0209946e-39
0.16483426 2.1791375 -2.3845491 8.1135433e-39
0.16470647 2.1884217 -2.379086 7.8373138e-39
0.16421902 2.1968181 -2.3743556 6.1799658e-39
0.16513863 2.2057538 -2.3685093 6.0874143e-39
0.1643234 2.2162747 -2.3626974 7.4678054e-39
0.16090427 2.0663598 -2.4540014 7.101925e-39
0.1585082 2.0763922 -2.4493732 7.1015606e-39
0.15941703 2.0852933 -2.4435534 6.7334956e-39
0.15570563 2.12556 -2.421643 8.3901372e-39
0.155578 2.1348443 -2.4161804 8.3901372e-39
0.15545036 2.1441286 -2.4107172 8.390489e-39
0.15532261 2.1534128 -2.4052546 8.2979402e-39
0.15519494 2.1626971 -2.3997917 8.2982933e-39
0.15506719 2.1719816 -2.3943286 8.0209946e-39
0.15493946 2.1812658 -2.3888659 8.1128399e-39
0.1502182 2.1936617 -2.384141 6.3643529e-39
0.15468413 2.1998346 -2.3779399 7.8373138e-39
0.15671094 2.2079959 -2.3719301 5.9030258e-39
0.1455556 2.1462572 -2.4150341 8.2979402e-39
0.14517258 2.1741099 -2.3986454 7.8373138e-39
0.14422645 2.1857882 -2.3922174 6.1799602e-39
0.14072917 2.1916885 -2.3906741 5.9973725e-39
0.14453405 2.2205319 -2.3713307 7.2841582e-39
1.3178122 1.8110104 -1.9531419 4.5917748e-40
1.3033216 1.8265371 -1.9520655 6.9121359e-39
1.295485 1.8286334 -1.9552398 7.0075657e-39
1.28486 1.8072098 -1.9740095 3.6939208e-39
1.2857896 1.8150498 -1.968811 3.5095296e-39
1.2867191 1.8228897 -1.9636124 3.5988568e-39
1.2876484 1.8307296 -1.9584138 3.6946579e-39
1.2770234 1.8093061 -1.9771837 3.6017252e-39
1.277953 1.8171459 -1.9719851 3.0485514e-39
1.2788824 1.8249859 -1.9667865 3.8754338e-39
1.279812 1.8328259 -1.9615881 2.6790585e-39
1.2807413 1.8406657 -1.9563895 6.735306e-39
1.2887455 1.9809623 -1.8682312 2.4946672e-39
1.2649264 1.8487703 -1.9604855 4.0598349e-39
1.256093 1.8429823 -1.9689225 3.9697973e-39
1.2570299 1.8508826 -1.9636843 3.9694469e-39
1.2579663 1.8587829 -1.9584455 3.4195004e-39
1.2491328 1.8529949 -1.9668827 4.0601852e-39
1.2500693 1.8608952 -1.9616441 3.4173326e-39
1.251006 1.8687954 -1.9564056 2.6819353e-39
1.2519426 1.8766958 -1.951167 1.0233709e-38
1.2412359 1.8551073 -1.9700813 3.6935705e-39
1.2421724 1.8630075 -1.9648428 3.8776016e-39
1.243109 1.8709078 -1.9596043 4.0598349e-39
1.2440456 1.878808 -1.9543655 3.9741581e-39
1.233881 1.8693587 -1.9657369 3.8776016e-39
1.2386016 1.9091769 -1.9393339 1.170416e-38
1.2259208 1.8714882 -1.9689614 4.0598349e-39
1.2363058 1.959088 -1.9108745 4.7941784e-39
1.2372501 1.9670516 -1.905594 2.4943169e-39
1.2141842 1.8417628 -1.9933081 4.61265e-39
1.2264576 1.9452902 -1.9246603 9.3088916e-39
1.2269768 1.9579264 -1.9168335 8.3869283e-39
1.2283458 1.9612173 -1.9140987 3.5066611e-39
1.2292899 1.9691809 -1.9088182 3.0482011e-39
1.2001518 1.8619486 -1.989195 4.062702e-39
1.2095928 1.9415849 -1.936389 3.0482011e-39
1.1921916 1.8640779 -1.9924195 4.062353e-39
1.1978563 1.9118598 -1.9607359 3.6013749e-39
1.1842313 1.8662072 -1.9956436 4.062702e-39
1.1851754 1.8741709 -1.9903631 4.062702e-39
1.1745075 1.8643419 -2.0022452 4.062353e-39
1.1762712 1.8683366 -1.998868 4.3392903e-39
1.1772151 1.8763001 -1.9935873 4.2470946e-39
1.1773614 1.8884138 -1.9862833 3.603893e-39
1.1783125 1.8964376 -1.9809626 3.9697973e-39
1.1821177 1.9285338 -1.9596801 3.6013749e-39
1.1636332 1.8424152 -2.0214555 4.7048456e-39
1.1731458 1.9226551 -1.9682492 4.2445765e-39
1.175151 1.9515451 -1.9498943 4.0598349e-39
1.1770685 1.9677198 -1.939169 3.6017252e-39
1.1798047 1.9788231 -1.9310051 3.0482011e-39
1.1613202 1.8927046 -1.9927806 4.154899e-39
1.1641741 1.9167767 -1.9768189 3.8776016e-39
1.1651253 1.9248005 -1.971498 3.8776016e-39
1.167028 1.9408486 -1.960857 4.4282573e-39
1.1689847 1.9698822 -1.9424436 3.6017252e-39
1.1494945 1.862754 -2.0173116 4.1545487e-39
1.1504458 1.8707781 -2.011991 4.3389399e-39
1.1523484 1.886826 -2.0013502 4.6130003e-39
1.1570655 1.9396952 -1.9671685 4.1523809e-39
1.1609006 1.9720446 -1.9457177 3.5095296e-39
1.1422702 1.8852459 -2.0079811 4.062702e-39
1.1443278 1.8889714 -2.0045986 3.9697973e-39
1.1441877 1.9014206 -1.9972558 4.1545487e-39
1.1528168 1.9742069 -1.9489921 3.6013749e-39
1.1332276 1.879321 -2.0166183 4.8895956e-39
1.1351449 1.8954957 -2.0058928 4.062353e-39
1.1361039 1.9035832 -2.0005302 3.9697973e-39
1.127061 1.897658 -2.0091672 4.1545487e-39
1.1280199 1.9057454 -2.0038047 4.1545487e-39
1.1299374 1.9219202 -1.9930792 4.1545487e-39
1.1366489 1.9785317 -1.9555409 4.1520305e-39
1.1134062 1.9390154 -1.9922197 4.5208032e-39
1.1062254 1.9493456 -1.9901153 4.4286076e-39
1.098078 1.9515247 -1.993415 4.062702e-39
1.1077409 2.0330319 -1.9393686 3.4173326e-39
1.0899307 1.9537041 -1.9967151 4.062353e-39
1.090897 1.9618549 -1.9913105 3.9697973e-39
1.0937958 1.986307 -1.9750965 3.8776016e-39
1.0947621 1.9944577 -1.969692 3.8776016e-39
1.0957285 2.0026085 -1.9642872 4.0598349e-39
1.0830632 1.9855782 -1.9815897 3.9697973e-39
1.0918306 2.0595322 -1.9325516 3.2325826e-39
1.0928049 2.0677493 -1.927103 3.4173326e-39
1.0957273 2.0924008 -1.9107568 2.8638098e-39
1.0496548 1.9182153 -2.0406084 4.6151667e-39
1.0516031 1.9346495 -2.029711 4.6148164e-39
1.0545259 1.959301 -2.013365 4.3389399e-39
1.0555 1.9675181 -2.0079165 4.3389399e-39
1.0613449 2.0168209 -1.9752241 4.2445765e-39
1.0642673 2.0414722 -1.9588782 3.4162746e-39
1.0439434 2.0129979 -1.9873266 3.6013749e-39
1.0269477 1.9624642 -2.0270474 4.3389399e-39
1.0279293 1.9707446 -2.0215566 4.7973999e-39
1.0308592 1.9741093 -2.0178971 4.3392903e-39
1.0318333 1.9823264 -2.0124483 4.154899e-39
1.0328075 1.9905434 -2.0069995 4.062702e-39
1.0337816 1.9987606 -2.0015509 3.9697973e-39
1.0124835 1.9620692 -2.0354481 4.8899459e-39
1.0162838 2.0165753 -2.0008082 4.1545487e-39
1.0172656 2.0248559 -1.9953175 4.1545487e-39
0.98696816 1.9133569 -2.0788925 4.892464e-39
0.98261791 1.9486928 -2.0602822 5.350924e-39
0.98359942 1.9569732 -2.0547915 4.7080714e-39
0.98752624 1.9900953 -2.0328288 4.3389399e-39
0.97372967 1.9727551 -2.0509548 4.6151667e-39
0.978679 2.0145047 -2.0232711 4.6133534e-39
0.96241349 1.9499379 -2.0709453 4.5229711e-39
0.96900892 1.9779624 -2.0505152 4.8895956e-39
0.9742924 2.0501366 -2.0045047 4.4282573e-39
0.97528237 2.0584865 -1.9989681 3.8776016e-39
0.95703703 1.9772202 -2.0577159 4.8895956e-39
0.96000665 2.00227 -2.0411057 4.154899e-39
0.96792591 2.0690691 -1.9968119 3.877952e-39
0.94770074 1.9711028 -2.0666332 4.7080714e-39
0.94869077 1.979453 -2.0610967 5.0736267e-39
0.94968069 1.9878029 -2.0555599 4.6148164e-39
0.95067048 1.9961525 -2.0500231 4.5226207e-39
0.96598434 2.152889 -1.9479376 3.0485514e-39
0.94060957 2.0120628 -2.0462174 4.5233214e-39
0.94160742 2.020479 -2.0406368 5.073977e-39
0.94529378 2.0234349 -2.0367935 4.6158757e-39
0.92920357 1.989064 -2.0663674 5.1661727e-39
0.93020135 1.9974804 -2.0607865 4.6158757e-39
0.93119913 2.0058966 -2.0552058 4.6158757e-39
0.93219692 2.0143127 -2.0496252 5.073977e-39
0.92478192 2.0249794 -2.047452 4.8899459e-39
0.93276405 2.0923097 -2.0028059 4.2445765e-39
0.91636926 2.0272298 -2.0508595 4.6130003e-39
0.91736704 2.0356462 -2.0452785 4.062702e-39
0.92235595 2.0777273 -2.017375 3.9697973e-39
0.92335373 2.0861437 -2.0117943 4.4282573e-39
0.90988976 2.0776219 -2.0244751 4.062702e-39
0.91089588 2.0861075 -2.0188484 4.2445765e-39
0.91190183 2.0945933 -2.0132217 4.2445765e-39
0.9129079 2.1030791 -2.0075948 4.0601852e-39
0.89738387 2.045948 -2.0504179 4.7055546e-39
0.90153944 2.048563 -2.0465131 4.7977503e-39
0.89939576 2.0629194 -2.0391643 4.1545487e-39
0.90040183 2.0714052 -2.0335376 3.8783051e-39
0.90945578 2.1477764 -1.9828967 3.8754338e-39
0.91046184 2.1562619 -1.9772699 3.5988568e-39
0.8868897 2.0312455 -2.0651071 4.8899459e-39
0.8878957 2.0397313 -2.0594802 5.6246327e-39
0.88219422 2.0990996 -2.0273054 3.9697973e-39
0.88320839 2.1076548 -2.0216327 4.2442262e-39
0.88422269 2.11621 -2.01596 4.6104821e-39
0.88523698 2.1247647 -2.0102873 4.1520305e-39
0.88625115 2.1333199 -2.0046146 3.6935705e-39
0.88726538 2.141875 -1.9989415 3.6013749e-39
0.88827962 2.1504302 -1.9932687 4.5179362e-39
0.88929385 2.1589854 -1.9875959 3.9672805e-39
0.89030808 2.1675403 -1.9819231 3.5992071e-39
0.83538014 2.0763164 -2.0673153 4.8895956e-39
0.8374086 2.0934267 -2.0559697 4.5208032e-39
0.82682866 2.0786037 -2.0707788 4.7981034e-39
0.8298713 2.104269 -2.0537608 4.5208032e-39
0.81827718 2.0808914 -2.0742426 4.6130003e-39
0.81740749 2.1130741 -2.0555475 4.154899e-39
0.80469239 2.0808709 -2.0819237 5.0743302e-39
0.80673808 2.0981259 -2.070482 4.5204543e-39
0.79709142 2.0918052 -2.0796959 4.8899459e-39
0.78437632 2.0596018 -2.1060724 5.1661727e-39
0.78949028 2.1027396 -2.0774682 4.7055546e-39
0.79051316 2.111367 -2.0717473 4.705549e-39
0.79153597 2.1199946 -2.0660264 4.6133534e-39
0.77370673 2.0446537 -2.1210067 5.350924e-39
0.77779818 2.0791638 -2.0981236 4.6158757e-39
0.77871025 2.1288962 -2.0679598 4.5211564e-39
0.77974176 2.1375961 -2.062191 4.4289607e-39
0.78598064 2.1481838 -2.052357 4.1520305e-39
0.76406014 2.0383329 -2.1302207 5.9937697e-39
0.77207673 2.1486225 -2.0599444 4.2445765e-39
0.77310818 2.1573222 -2.0541759 4.2445765e-39
0.75822365 2.1074488 -2.0923111 4.6130003e-39
0.76647478 2.177048 -2.0461607 3.967984e-39
0.76750618 2.1857481 -2.0403917 3.5995602e-39
0.74643314 2.0836751 -2.1131399 5.7193464e-39
0.75674707 2.1706743 -2.0554519 4.0601796e-39
0.75880986 2.1880744 -2.0439141 4.1509347e-39
0.73361129 2.0512013 -2.1397378 4.7080714e-39
0.73567402 2.0686014 -2.1282001 5.4434728e-39
0.73773694 2.0860014 -2.1166623 5.2594249e-39
0.7408312 2.1121011 -2.0993557 5.0743302e-39
0.74236768 2.1714776 -2.0630903 3.967984e-39
0.74340808 2.1802528 -2.0572715 3.8754338e-39
0.74444836 2.1890283 -2.0514526 3.2325826e-39
0.74548876 2.1978035 -2.0456338 3.7835885e-39
0.7465291 2.206579 -2.0398149 2.8551512e-39
0.72491509 2.0535276 -2.14326 5.5356684e-39
0.73151541 2.1562731 -2.0782809 4.5208032e-39
0.7244699 2.1254535 -2.1006317 4.7055546e-39
0.72066295 2.1410687 -2.0934715 4.5204543e-39
0.70877039 2.1170888 -2.114481 5.1665258e-39
0.71577382 2.1277795 -2.1041541 4.6133534e-39
0.71680522 2.1364794 -2.0983853 4.6133534e-39
0.71293175 2.1521904 -2.0912056 4.4286076e-39
0.70103914 2.1282105 -2.112215 4.7981034e-39
0.70416003 2.1545367 -2.0947585 4.4286076e-39
0.70936173 2.1984136 -2.0656643 3.5995602e-39
0.6933077 2.1393323 -2.1099491 4.7977503e-39
0.68349582 2.1329033 -2.1193209 4.8899459e-39
0.68453628 2.1416786 -2.113502 4.8899459e-39
0.67158937 2.1598165 -2.1099975 4.705549e-39
0.66064376 2.1444814 -2.1253188 5.8111763e-39
0.6616931 2.1533322 -2.1194499 5.4434728e-39
0.66274244 2.162183 -2.1135809 5.2587228e-39
0.66484088 2.1798847 -2.1018431 4.6130003e-39
0.66693956 2.1975863 -2.0901053 4.7981034e-39
0.60968649 2.290035 -2.0673108 4.7163671e-39
0.58421206 2.2318175 -2.1163988 3.7810746e-39
0.57094097 2.1982062 -2.1439283 4.6133534e-39
0.57200843 2.207211 -2.1379573 4.152734e-39
0.57414359 2.2252204 -2.1260154 4.0601796e-39
0.54866922 2.1670024 -2.1751034 5.7196996e-39
0.54973662 2.1760073 -2.1691325 5.4434728e-39
0.55720943 2.2390404 -2.127336 4.5186396e-39
0.64424407 1.903001 -2.2785385 3.2325826e-39
0.6460005 1.9104226 -2.2731223 2.4957238e-39
0.6495136 1.9252659 -2.2622905 9.9029762e-41
0.64001888 1.9124823 -2.2752714 2.7716142e-39
0.64177531 1.9199039 -2.2698553 2.1265951e-39
0.65407079 1.9718548 -2.2319434 3.4241863e-39
0.63403714 1.9145418 -2.27742 3.4173326e-39
0.63579369 1.9219635 -2.2720044 3.0485514e-39
0.62150359 1.9134169 -2.2851665 4.5236745e-39
