# .PCD v0.7 - Point Cloud Data file format
VERSION 0.7
FIELDS x y z rgb
SIZE 4 4 4 4
TYPE F F F F
COUNT 1 1 1 1
WIDTH 1019
HEIGHT 1
VIEWPOINT 0 0 0 1 0 0 0
POINTS 1019
DATA ascii
0.077211976 -0.072286226 2.9638834 4.9767718e-39
0.0753773 -0.067392267 2.9651794 4.7005436e-39
0.075303778 -0.062568463 2.9674439 4.9771249e-39
0.073237121 -0.057790525 2.9685526 4.7001793e-39
0.071783073 -0.051682837 2.9706459 4.6087011e-39
0.082448661 -0.045219544 2.9798038 5.1611532e-39
0.081486233 -0.040317923 2.9815998 5.161156e-39
0.080523677 -0.035416313 2.9833958 4.9771249e-39
0.079561129 -0.030514833 2.9851918 5.161156e-39
0.078598574 -0.025613302 2.9869878 4.9767718e-39
0.077636138 -0.020711681 2.9887836 5.4352262e-39
0.07667359 -0.015810149 2.9905798 4.8845761e-39
0.075711034 -0.01090867 2.9923756 4.8845761e-39
0.074018762 -0.0067493068 2.9934015 4.5157936e-39
0.087000541 -0.15228507 2.9312024 5.1608029e-39
0.086054459 -0.1474673 2.9329677 5.434873e-39
0.085108377 -0.14264953 2.9347329 5.1608029e-39
0.083822884 -0.1368442 2.9367774 4.607992e-39
0.083216228 -0.13301401 2.9382634 5.1608029e-39
0.082270145 -0.12819624 2.9400289 5.161156e-39
0.081646241 -0.093650967 2.9561911 5.1582889e-39
0.080198102 -0.087562703 2.9582777 4.7001835e-39
0.083471298 -0.082461722 2.962579 5.1608029e-39
0.082517199 -0.077602848 2.964359 4.9767718e-39
0.081562996 -0.072744109 2.9661398 4.9767718e-39
0.080608785 -0.067885317 2.9679201 5.1608029e-39
0.079654686 -0.063026443 2.9697003 4.8845705e-39
0.078700691 -0.058167525 2.9714804 4.8845705e-39
0.077746376 -0.053308826 2.9732609 5.1611532e-39
0.083223611 -0.046544228 2.9796112 4.6083452e-39
0.085875452 -0.040779829 2.9838758 4.9771249e-39
0.081071347 -0.036881287 2.983007 4.6083452e-39
0.083950348 -0.030976741 2.9874678 5.161156e-39
0.078919314 -0.027218273 2.9864028 4.5161537e-39
0.082025357 -0.021173587 2.9910598 5.4352262e-39
0.079330273 -0.016765572 2.9916341 4.423598e-39
0.080100372 -0.011370487 2.9946518 4.7920218e-39
0.079137824 -0.0064689554 2.9964476 4.9767718e-39
0.091314785 -0.15273908 2.9334397 5.1608029e-39
0.091638826 -0.10235492 2.9577141 5.434873e-39
0.090684615 -0.09749613 2.9594944 4.9767718e-39
0.086536482 -0.093999386 2.9588068 4.8827741e-39
0.088776313 -0.087778524 2.9630551 5.161156e-39
0.084402055 -0.08441928 2.9621727 4.6998247e-39
0.086868115 -0.078060769 2.9666157 4.9767718e-39
0.082267828 -0.07483916 2.965539 4.6079892e-39
0.083416976 -0.068062626 2.9694324 4.423598e-39
0.084005594 -0.063484363 2.9719567 4.7920218e-39
0.081275731 -0.058461722 2.9728053 4.4232448e-39
0.082097396 -0.053766657 2.9755173 4.9767718e-39
0.091227114 -0.04614336 2.9843562 4.9771249e-39
0.090264566 -0.041241828 2.9861522 4.9771221e-39
0.08930213 -0.036340129 2.9879479 5.1608029e-39
0.088339582 -0.031438649 2.9897442 5.1608029e-39
0.087377034 -0.026537117 2.99154 5.1608029e-39
0.08641459 -0.021635495 2.993336 5.1608029e-39
0.08428739 -0.017112395 2.9942887 4.7902253e-39
0.084489487 -0.011832486 2.996928 4.8845761e-39
0.095629014 -0.15319324 2.9356771 5.1608029e-39
0.094683044 -0.14837538 2.9374421 4.9767718e-39
0.093736857 -0.14355771 2.9392076 5.253353e-39
0.096944042 -0.10767173 2.95819 4.9767718e-39
0.094419561 -0.10330936 2.9588394 4.9746138e-39
0.095035851 -0.09795396 2.9617507 4.8845761e-39
0.09408164 -0.093095236 2.963531 5.4352262e-39
0.093127541 -0.088236362 2.9653111 4.8845705e-39
0.09217333 -0.08337757 2.9670918 4.8845761e-39
0.10139164 -0.076014526 2.9758565 4.9767718e-39
0.10042909 -0.071112998 2.9776525 4.9767718e-39
0.099466652 -0.066211373 2.9794483 4.9767718e-39
0.088356718 -0.063942291 2.9742131 4.8845761e-39
0.087402724 -0.059083372 2.9759932 4.8838671e-39
0.085507996 -0.05532074 2.9767144 4.6079892e-39
0.091303349 -0.047223639 2.9838829 4.5165083e-39
0.094654009 -0.041703682 2.9884284 5.1611532e-39
0.0917539 -0.03681092 2.9891176 4.6079892e-39
0.092728905 -0.031900592 2.9920204 4.9767718e-39
0.089593686 -0.027127441 2.9925189 4.6079892e-39
0.090803921 -0.022097442 2.9956121 4.8845761e-39
0.089841478 -0.017195817 2.9974082 5.1582861e-39
0.088878818 -0.012294431 2.9992042 4.8845761e-39
0.085274212 -0.0077599585 2.9993215 4.5161537e-39
0.10561973 -0.18255374 2.9273226 4.9767718e-39
0.10467365 -0.17773598 2.9290879 5.2529999e-39
0.10372768 -0.17291813 2.9308529 5.1608029e-39
0.10278149 -0.16810045 2.9326184 4.9767718e-39
0.10088934 -0.15846491 2.9361489 5.161156e-39
0.10129496 -0.10812966 2.9604464 4.9767718e-39
0.099336833 -0.10365301 2.9614727 4.5157936e-39
0.099386759 -0.098411888 2.9640069 4.7920218e-39
0.097194202 -0.094052352 2.9648445 4.5157936e-39
0.097478345 -0.088694371 2.9675679 5.3426774e-39
0.095051676 -0.084451757 2.9682157 4.5157936e-39
0.10578086 -0.076476432 2.9781325 4.8845761e-39
0.10481842 -0.071574815 2.9799285 4.701624e-39
0.10385587 -0.066673279 2.9817245 4.701624e-39
0.090767324 -0.065250002 2.9749589 4.6079892e-39
0.091753535 -0.059541389 2.9782498 4.8845761e-39
0.090799436 -0.054682504 2.9800301 4.8845705e-39
0.10000578 -0.047067121 2.9889085 4.7923749e-39
0.099043235 -0.042165589 2.9907043 4.9767718e-39
0.098080687 -0.037263982 2.9925005 4.7012737e-39
0.097118132 -0.032362502 2.9942963 4.701624e-39
0.094551839 -0.027472029 2.9951746 4.6079892e-39
0.09519314 -0.02255935 2.9978881 4.9767718e-39
0.092390805 -0.017788937 2.998575 4.423242e-39
0.093268044 -0.012756339 3.0014803 4.7920218e-39
0.090229802 -0.0081057046 3.0019753 4.5157936e-39
0.10993408 -0.18300781 2.9295597 5.1608029e-39
0.10709595 -0.16855443 2.9348557 4.9767718e-39
0.10564608 -0.10858758 2.9627028 4.9767718e-39
0.10469187 -0.10372879 2.9644833 4.7920218e-39
0.10373777 -0.098869897 2.9662635 4.8845761e-39
0.10278367 -0.094011083 2.9680438 4.9767718e-39
0.10182969 -0.08915212 2.9698241 5.434873e-39
0.10087547 -0.084293328 2.9716043 4.9767718e-39
0.1101703 -0.076938339 2.9804089 4.9767718e-39
0.10920774 -0.072036818 2.9822047 4.701624e-39
0.1063201 -0.05733227 2.9875929 4.8845761e-39
0.10084289 -0.054056078 2.986043 4.5161481e-39
0.104395 -0.047529213 2.9911849 4.9771249e-39
0.098688632 -0.044394404 2.9894373 4.6079892e-39
0.10247001 -0.037725981 2.9947767 4.7934693e-39
0.09916468 -0.033978812 2.9946878 4.3328415e-39
0.10054491 -0.027922969 2.9983687 4.9767718e-39
0.099582471 -0.02302135 3.0001647 4.9767718e-39
0.098619923 -0.018119816 3.0019605 4.7920218e-39
0.099421196 -0.013796809 3.0044835 4.423598e-39
0.1151944 -0.18827952 2.9300318 4.9767718e-39
0.10951275 -0.11392288 2.9623518 5.0668122e-39
0.10999721 -0.10904533 2.9649589 4.9764214e-39
0.10736923 -0.10432288 2.9657221 4.5157964e-39
0.10808879 -0.099327736 2.9685197 4.8845761e-39
0.10522574 -0.094722874 2.9690928 4.6079892e-39
0.11648452 -0.087203354 2.9790931 5.434873e-39
0.11044323 -0.08337158 2.977488 4.9749753e-39
0.11455952 -0.077400252 2.9826849 4.9767718e-39
0.10828902 -0.073710114 2.9808819 4.3321254e-39
0.11263443 -0.067597188 2.9862769 4.7920218e-39
0.11167188 -0.06269566 2.9880731 5.3426774e-39
0.11070932 -0.057794176 2.9898689 4.7920218e-39
0.10974678 -0.052892651 2.9916651 4.8845761e-39
0.10878412 -0.047991212 2.9934611 4.9767718e-39
0.10782168 -0.043089587 2.9952571 4.7920218e-39
0.10685913 -0.038187981 2.9970529 4.6094284e-39
0.10412496 -0.034327209 2.9973431 4.1480971e-39
0.10493414 -0.028384877 3.0006449 4.7920218e-39
0.10196275 -0.024644382 3.0007427 4.5157936e-39
0.11625633 -0.11922103 2.9636548 4.8845761e-39
0.11530222 -0.11436208 2.965435 5.434873e-39
0.11434801 -0.10950334 2.9672155 4.8838671e-39
0.11339391 -0.10464446 2.9689958 4.9767718e-39
0.1124397 -0.099785656 2.9707763 4.8845761e-39
0.11148561 -0.094926842 2.9725564 4.8845761e-39
0.12087374 -0.08766526 2.981369 5.434873e-39
0.11991131 -0.082763642 2.983165 5.434873e-39
0.11894853 -0.077862337 2.9849613 4.9767718e-39
0.11322241 -0.07405863 2.9835222 4.2402871e-39
0.11702365 -0.068059094 2.9885528 4.8845761e-39
0.1160611 -0.063157573 2.9903491 5.434873e-39
0.11509854 -0.058256086 2.9921451 4.7920218e-39
0.11158346 -0.054022621 2.9921691 4.423242e-39
0.11317345 -0.048453029 2.9957371 4.7920218e-39
0.10942107 -0.044340152 2.9955685 4.423598e-39
0.11124846 -0.038649797 2.9993291 4.6094284e-39
0.10909005 -0.034674756 3.0000017 4.332131e-39
0.12156155 -0.12453783 2.9641311 4.8845761e-39
0.12060755 -0.11967888 2.9659109 4.7920218e-39
0.11965324 -0.11482009 2.9676917 5.2504818e-39
0.11679094 -0.10024349 2.9730325 4.9767718e-39
0.12066421 -0.093710087 2.9783602 4.5157936e-39
0.12526298 -0.0881273 2.9836454 4.7001793e-39
0.11850923 -0.084049247 2.9817529 4.5157936e-39
0.12333798 -0.078324199 2.9872377 4.8845761e-39
0.12237543 -0.073422663 2.9890335 4.7920218e-39
0.12141299 -0.068521045 2.9908295 4.8845761e-39
0.12045033 -0.063619614 2.9926255 5.434873e-39
0.11948789 -0.058718033 2.9944215 5.2504818e-39
0.11654583 -0.0543686 2.9948268 4.423242e-39
0.11506817 -0.04818058 2.9969454 4.5154377e-39
0.12782076 -0.13471343 2.9628265 4.7916714e-39
0.12591256 -0.12499572 2.966387 4.8845761e-39
0.12305004 -0.11041924 2.9717281 4.7920218e-39
0.13253985 -0.1032938 2.9805336 4.9767718e-39
0.1315773 -0.098392256 2.9823298 4.9767718e-39
0.13061476 -0.093490735 2.9841256 4.7920218e-39
0.1296522 -0.088589206 2.9859219 4.7923749e-39
0.12868965 -0.083687678 2.9877176 4.7920218e-39
0.12772711 -0.078786194 2.9895139 4.7920218e-39
0.12400006 -0.074061707 2.9896522 4.5154363e-39
0.12580211 -0.068983041 2.9931056 4.6998261e-39
0.12183656 -0.064379863 2.9930503 4.7902239e-39
0.12387701 -0.059180032 2.9966977 5.2504818e-39
0.13312596 -0.14003018 2.9633026 5.3426774e-39
0.13217197 -0.1351712 2.9650829 5.3423271e-39
0.13789171 -0.10865728 2.981014 4.9767718e-39
0.13692927 -0.10375571 2.9828098 4.8845761e-39
0.13500416 -0.093952641 2.986402 4.7916714e-39
0.1307679 -0.0902628 2.9857562 4.4232462e-39
0.13307919 -0.084149487 2.9899938 4.7916714e-39
0.1286045 -0.080580711 2.9891546 4.5157964e-39
0.13115409 -0.074346483 2.9935858 5.2501315e-39
0.13019153 -0.069444947 2.9953816 4.6994758e-39
0.14228083 -0.10911927 2.9832902 4.8845761e-39
0.14131838 -0.10421771 2.9850862 4.8845761e-39
0.13939328 -0.094414644 2.9886782 4.7916714e-39
0.13843085 -0.089513019 2.990474 4.8838671e-39
0.13746831 -0.08461149 2.99227 4.7916714e-39
0.13356601 -0.080928683 2.9918108 4.5157964e-39
0.13208555 -0.074733399 2.9939308 4.7898722e-39
0.15327765 -0.19925201 2.9464512 5.2504818e-39
0.15232356 -0.1943931 2.9482315 5.2508349e-39
0.14278214 -0.14580478 2.9660349 4.7920218e-39
0.14763249 -0.11448275 2.9837706 4.6076305e-39
0.14317973 -0.11030163 2.9832361 4.4228889e-39
0.14570761 -0.10467955 2.9873621 4.7920218e-39
0.14101502 -0.10062034 2.9866333 4.606913e-39
0.14378242 -0.094876587 2.9909544 4.7920218e-39
0.13885051 -0.090939038 2.990031 4.423598e-39
0.14185743 -0.085073441 2.9945462 4.7920218e-39
0.14913452 -0.10023992 2.9914343 4.6998261e-39
0.14817196 -0.095338404 2.9932303 4.7920218e-39
0.14381337 -0.091284677 2.9926889 4.423242e-39
0.1423301 -0.085083395 2.9948103 4.3317625e-39
0.14909242 -0.10129365 2.990907 4.3310464e-39
0.15256107 -0.0958004 2.9955068 4.6998261e-39
0.15159863 -0.090898782 2.9973025 4.7916714e-39
0.16018593 -0.13686705 2.9802091 4.423598e-39
0.16368817 -0.13057314 2.9852109 4.7920218e-39
0.16272572 -0.12567157 2.9870069 5.1582861e-39
0.16176318 -0.12077003 2.9888027 5.0657402e-39
0.16080062 -0.11586843 2.9905989 5.0657402e-39
0.15983807 -0.1109669 2.9923949 4.6994758e-39
0.15887551 -0.10606541 2.9941909 4.6998261e-39
0.15791307 -0.10116378 2.9959869 4.6998261e-39
0.15695041 -0.096262351 2.9977829 4.6998261e-39
0.16366342 -0.13100468 2.9849906 4.4232378e-39
0.16711484 -0.12613356 2.9892831 4.6994758e-39
0.16615239 -0.12123194 2.9910791 5.1579358e-39
0.16326486 -0.10652722 2.9964669 4.7920218e-39
0.16010401 -0.10132119 2.9971583 4.3310436e-39
0.16133974 -0.096724167 3.0000589 4.6998261e-39
0.17246661 -0.13149695 2.9897633 4.7920218e-39
0.17150405 -0.12659548 2.9915593 4.6994758e-39
0.17054151 -0.12169395 2.9933553 5.2501315e-39
0.16957907 -0.11679224 2.9951513 5.1582861e-39
0.16861641 -0.1118908 2.9969473 5.0660905e-39
0.16765396 -0.10698923 2.9987431 4.6998261e-39
0.16669153 -0.10208759 3.0005391 4.6076305e-39
0.17685603 -0.13195886 2.9920392 4.6076305e-39
0.17404397 -0.12763014 2.9925096 4.3314023e-39
0.17493081 -0.12215593 2.9956317 4.6994758e-39
0.17300572 -0.1123528 2.9992237 4.6998261e-39
0.18220769 -0.13732238 2.9925196 4.6998261e-39
0.18124525 -0.13242076 2.9943156 4.6076305e-39
0.18028247 -0.12751947 2.9961119 4.7920218e-39
0.17835762 -0.11771615 2.9997036 4.6076305e-39
0.17739496 -0.11281471 3.0014997 4.6998261e-39
0.18563448 -0.1328828 2.996592 4.6079836e-39
0.18467194 -0.12798133 2.9983881 4.7001793e-39
0.18297359 -0.11799393 3.0021973 4.2392067e-39
0.19772388 -0.17255709 2.9845004 4.6076305e-39
0.19579878 -0.16275403 2.9880924 4.6076305e-39
0.19291134 -0.14804931 2.99348 4.6076305e-39
0.19194868 -0.14314787 2.9952762 4.6076305e-39
0.19098616 -0.13824634 2.9970722 4.7923749e-39
0.20018791 -0.16321604 2.9903686 4.6076305e-39
0.19922547 -0.15831441 2.9921646 4.6076305e-39
0.19826303 -0.15341282 2.9939604 4.3314023e-39
0.21049783 -0.15423924 3.0005257 4.1470139e-39
0.21881919 -0.15404044 3.0053549 3.9629842e-39
0.21729332 -0.14770484 3.0075157 4.1470139e-39
0.22873701 -0.22349668 2.9777884 4.1470139e-39
0.22640784 -0.20917764 2.9833095 4.5154335e-39
0.23464727 -0.2292456 2.9784017 4.5154335e-39
0.2336846 -0.22434418 2.9801977 4.5154335e-39
0.23379579 -0.19378208 2.9948735 3.9633415e-39
0.23159239 -0.18400836 2.9982927 3.8711515e-39
0.22938882 -0.17423484 3.0017123 3.9629828e-39
-0.57691902 0.2378214 2.7400188 1.2900326e-39
-0.58325297 0.25012112 2.7422965 1.1074392e-39
-0.58401018 0.25802037 2.7456424 1.1985488e-39
-0.58476639 0.26591957 2.7489889 1.1067217e-39
-0.59871787 0.30770093 2.761029 2.0315409e-39
-0.60334909 0.32345849 2.7659283 2.8569729e-39
-0.60566479 0.33133727 2.7683778 2.5814776e-39
-0.60798055 0.33921602 2.7708273 2.3970864e-39
-0.60208678 0.35745916 2.782903 1.0145219e-39
-0.60835946 0.37466389 2.7875607 1.0145219e-39
-0.61346853 0.38920557 2.7916064 2.3970864e-39
-0.61816609 0.40518796 2.796576 2.6711551e-39
-0.62286335 0.42117056 2.8015454 2.3970864e-39
-0.62521219 0.42916179 2.8040299 2.3970864e-39
-0.62756079 0.43715331 2.8065143 2.0283039e-39
-0.56021726 0.20088241 2.731859 1.1981957e-39
-0.5654726 0.20974536 2.7331069 1.1070818e-39
-0.57007152 0.23674609 2.7434003 1.1063588e-39
-0.57539129 0.24568032 2.7446456 1.2903913e-39
-0.57616377 0.25358003 2.7479832 1.1992747e-39
-0.58406115 0.27614588 2.7542796 2.5814776e-39
-0.59100807 0.29978201 2.7616286 2.6736733e-39
-0.59563953 0.31553954 2.7665279 2.5814776e-39
-0.60027087 0.33129716 2.7714272 2.5814776e-39
-0.59942031 0.34419209 2.7780766 2.489282e-39
-0.6017524 0.35212719 2.7805438 2.489282e-39
-0.60057992 0.36547089 2.7875907 1.1063588e-39
-0.60131884 0.37352321 2.7910206 1.1974754e-39
-0.60493523 0.40413722 2.8036008 1.1056399e-39
-0.61269498 0.40514737 2.7996688 2.6711551e-39
-0.61504382 0.41313851 2.8021533 2.3970864e-39
-0.61739248 0.42112976 2.8046381 2.3970864e-39
-0.56792766 0.25431782 2.7530215 1.1985544e-39
-0.574036 0.26034802 2.7524297 2.6736733e-39
-0.57403576 0.27118319 2.7576103 1.1067175e-39
-0.57259667 0.28168491 2.7634501 1.1063588e-39
-0.59632003 0.35208669 2.7836151 2.3970864e-39
-0.59865242 0.36002165 2.7860823 2.2126951e-39
-0.5978291 0.37314162 2.7928233 2.7633522e-39
-0.60017788 0.38113284 2.7953079 2.9473833e-39
-0.59924144 0.3918072 2.8009446 1.0141687e-39
-0.60487539 0.39711538 2.8002772 2.6711551e-39
-0.60342056 0.41220102 2.8083177 1.1056385e-39
-0.60650045 0.41856369 2.809608 2.2126951e-39
-0.60886562 0.42661124 2.8121099 2.2126951e-39
-0.61359626 0.44270644 2.8171144 1.7510079e-39
-0.56756562 0.27269608 2.7620144 2.5814776e-39
-0.56989801 0.28063101 2.7644818 2.5814776e-39
-0.5722301 0.28856593 2.7669489 2.0315409e-39
-0.57038343 0.29959747 2.7732739 1.1067175e-39
-0.57689452 0.30443597 2.771883 2.5814776e-39
-0.57922673 0.31237113 2.7743502 2.5814776e-39
-0.59088778 0.35204622 2.7866859 2.489282e-39
-0.58496106 0.3700856 2.7986829 1.0145219e-39
-0.59235835 0.37310076 2.7959163 2.2126951e-39
-0.58986175 0.38953763 2.8051956 9.2196751e-40
-0.59063637 0.39763513 2.8086262 9.2196751e-40
-0.60410196 0.41305694 2.8083394 2.0283039e-39
-0.60134596 0.43068773 2.8183372 8.2977048e-40
-0.55323189 0.24873354 2.7587121 1.1985544e-39
-0.55858958 0.27551913 2.7684708 1.1985558e-39
-0.56912988 0.29646051 2.7724872 3.0399377e-39
-0.57845861 0.32820073 2.7823558 1.848216e-39
-0.58218986 0.35707751 2.79404 2.3970864e-39
-0.57796031 0.36898398 2.8021386 1.197474e-39
-0.58365518 0.37824419 2.8033266 2.2126951e-39
-0.58280921 0.38844591 2.8086855 9.2268077e-40
-0.58838576 0.39433926 2.8083308 2.489282e-39
-0.58694184 0.40879118 2.8160622 1.0141631e-39
-0.5931164 0.41043425 2.8133352 2.0283039e-39
-0.59324598 0.42614666 2.8207738 8.2977188e-40
-0.55558401 0.29395249 2.7789943 1.198553e-39
-0.56027764 0.30109778 2.7797403 3.0399377e-39
-0.57135582 0.35347915 2.7984827 1.0141631e-39
-0.56852323 0.36661437 2.8063745 1.0141631e-39
-0.57578051 0.37015554 2.8039393 2.3970864e-39
-0.57476038 0.38386342 2.8110733 1.289671e-39
-0.57556343 0.39196086 2.8144882 9.2196751e-40
-0.58287632 0.39429823 2.8114457 2.3970864e-39
-0.58524144 0.40234578 2.8139477 2.1201492e-39
-0.58045036 0.42044109 2.8253253 9.2232624e-40
-0.58616173 0.4250102 2.8242607 9.219591e-40
-0.5644027 0.35240772 2.8019264 1.1063574e-39
-0.56790572 0.3620671 2.8045518 2.7633522e-39
-0.57027096 0.37011459 2.8070538 2.5814776e-39
-0.57263625 0.37816209 2.809556 2.3970864e-39
-0.57500142 0.3862097 2.8120582 2.1204995e-39
-0.57973194 0.4023048 2.8170621 2.1204995e-39
-0.58209723 0.41035226 2.8195646 2.0283039e-39
-0.58446246 0.41839966 2.8220665 2.5789595e-39
-0.58342898 0.432293 2.8292973 1.9361082e-39
-0.5495736 0.34090748 2.8048639 1.3818653e-39
-0.55489832 0.34998739 2.8061762 1.1063574e-39
-0.56003106 0.3539786 2.8051643 2.489282e-39
-0.56239641 0.36202604 2.8076665 2.9480895e-39
-0.56712693 0.37812108 2.8126709 2.3970864e-39
-0.56949216 0.3861686 2.8151729 2.3970864e-39
-0.57185739 0.39421621 2.8176749 3.1321333e-39
-0.57422262 0.40226367 2.8201773 2.4867639e-39
-0.57895321 0.41835853 2.8251815 2.3970864e-39
-0.57787883 0.43225172 2.8324349 1.751717e-39
-0.54159337 0.33618748 2.8071473 9.2341225e-40
-0.5497911 0.33784243 2.8032751 2.489282e-39
-0.55215633 0.3458899 2.8057768 2.5814776e-39
-0.56041473 0.39167503 2.8229697 2.2126951e-39
-0.56518024 0.40788925 2.828011 2.2126951e-39
-0.56756294 0.41599625 2.8305318 2.1204995e-39
-0.56994569 0.42410335 2.8330524 2.0283039e-39
-0.38807592 -0.244174 2.616997 4.6843278e-39
-0.39039156 -0.23629519 2.6194463 4.6843278e-39
-0.51983154 0.25715929 2.7817421 1.3818653e-39
-0.53245533 0.29756364 2.7938788 2.5814776e-39
-0.54191631 0.32975399 2.8038874 2.5814776e-39
-0.5442816 0.3378014 2.8063896 2.489282e-39
-0.54901206 0.3538965 2.8113937 2.9473833e-39
-0.55137736 0.36194399 2.8138959 2.7633522e-39
-0.54415935 0.37839243 2.8258669 1.3818583e-39
-0.54481936 0.39093071 2.8314865 1.1063574e-39
-0.55486447 0.39163366 2.8261077 2.3970864e-39
-0.55385554 0.405036 2.8330896 2.7633522e-39
-0.55625486 0.41319931 2.8356278 2.1204995e-39
-0.51984996 0.27338016 2.7894871 2.5814776e-39
-0.52221513 0.2814278 2.7919891 2.5814776e-39
-0.52458066 0.28947517 2.7944915 2.5814776e-39
-0.52694577 0.29752266 2.7969937 2.5814776e-39
-0.52931118 0.30557013 2.7994957 2.5814776e-39
-0.53167623 0.31361774 2.8019977 2.6736733e-39
-0.53740042 0.35105696 2.8166418 2.489282e-39
-0.53978318 0.35916403 2.8191626 2.7633522e-39
-0.54216594 0.36727116 2.8216834 2.3970864e-39
-0.54454881 0.37537819 2.8242042 2.7633522e-39
-0.54693151 0.38348526 2.8267245 2.489282e-39
-0.54586738 0.39683115 2.8337107 2.3970864e-39
-0.54248393 0.40955195 2.8417177 1.0145149e-39
-0.49305326 0.20091137 2.7700827 2.6736733e-39
-0.49541846 0.20895894 2.7725847 2.6736733e-39
-0.49778381 0.21700642 2.7750869 2.9484623e-39
-0.50014895 0.22505406 2.7775888 2.5814776e-39
-0.50487965 0.24114899 2.7825933 2.6736733e-39
-0.50724477 0.24919653 2.7850955 2.9484679e-39
-0.50961012 0.25724405 2.7875977 2.489282e-39
-0.50802243 0.2699447 2.7945733 2.6736733e-39
-0.51040518 0.27805182 2.7970939 2.5814776e-39
-0.51278794 0.28615889 2.7996144 2.5814776e-39
-0.51517069 0.29426602 2.8021352 2.9473833e-39
-0.51755351 0.30237299 2.8046558 2.7633522e-39
-0.5199362 0.31048015 2.8071761 2.5814776e-39
-0.52231896 0.31858712 2.8096972 2.5814776e-39
-0.52470183 0.32669437 2.8122177 2.5814776e-39
-0.52348357 0.3396461 2.8191035 2.7633522e-39
-0.52588278 0.34780952 2.8216414 2.489282e-39
-0.52828223 0.35597271 2.8241796 2.2126951e-39
-0.53068161 0.36413604 2.8267179 2.6711551e-39
-0.533081 0.37229934 2.8292561 2.2126951e-39
-0.53900534 0.41055891 2.8441784 2.6711551e-39
-0.29415414 -0.47434062 2.5603802 2.8469004e-39
-0.48517826 0.19282286 2.770695 3.2250478e-39
-0.49055818 0.22936805 2.7851076 2.6736733e-39
-0.4953239 0.2455821 2.790149 2.6736733e-39
-0.49770665 0.2536892 2.7926695 2.9484623e-39
-0.50008941 0.26179636 2.7951903 3.0410167e-39
-0.50247228 0.2699033 2.7977109 2.6736733e-39
-0.50485504 0.27801052 2.8002315 2.5814776e-39
-0.50349891 0.29062447 2.807034 2.6736733e-39
-0.50589836 0.29878771 2.8095725 2.8562667e-39
-0.50221485 0.31180605 2.8178921 1.2896696e-39
-0.51069695 0.31511432 2.8146484 2.489282e-39
-0.50833207 0.32901418 2.8226399 1.198553e-39
-0.51549542 0.33144119 2.8197246 2.5814776e-39
-0.5226934 0.35593116 2.8273392 2.489282e-39
-0.52129161 0.36940253 2.8345776 2.9473833e-39
-0.52370852 0.37762538 2.8371344 2.7633522e-39
-0.52612543 0.38584816 2.8396912 2.3970864e-39
-0.52854216 0.39407119 2.8422477 2.3970864e-39
-0.53095901 0.40229398 2.8448043 2.7633522e-39
-0.53101403 0.4154177 2.8510478 1.3815065e-39
-0.53192747 0.42359385 2.8544371 1.014875e-39
-0.27302498 -0.54501528 2.5386093 0
-0.27768916 -0.52914518 2.5435433 2.5713939e-39
-0.27459085 -0.52232903 2.5485651 2.0203809e-39
-0.47785982 0.20500527 2.7806835 2.7658689e-39
-0.4802427 0.21311235 2.7832043 2.6736733e-39
-0.48262537 0.22121952 2.7857249 3.0413642e-39
-0.485008 0.22932667 2.7882452 2.6743795e-39
-0.48739088 0.23743372 2.7907662 2.9484623e-39
-0.48977363 0.24554078 2.7932868 2.947033e-39
-0.49043065 0.28726235 2.8128612 1.2907472e-39
-0.49791044 0.29058272 2.8101935 2.6736733e-39
-0.50030959 0.29874617 2.8127315 2.5814776e-39
-0.50270891 0.30690941 2.8152699 2.489282e-39
-0.50510836 0.3150726 2.8178082 2.6736733e-39
-0.50750756 0.32323593 2.8203461 2.5814776e-39
-0.50990695 0.33139944 2.8228843 2.5814776e-39
-0.51230615 0.33956274 2.8254225 2.2126951e-39
-0.51668888 0.39123321 2.8476341 2.2126951e-39
-0.52291268 0.3940292 2.8454304 2.3970864e-39
-0.26759243 -0.54505575 2.5416803 9.5858274e-39
-0.27225682 -0.52918577 2.5466146 4.5100006e-39
-0.26365077 -0.52348894 2.5542343 2.390234e-39
-0.26601604 -0.51544136 2.5567365 0
-0.27074659 -0.49934629 2.5617409 1.6530389e-39
-0.27311194 -0.49129879 2.5642428 1.4693679e-39
-0.27547699 -0.48325115 2.566745 8.2651947e-40
-0.29439932 -0.41887105 2.5867622 2.4795584e-39
-0.46992677 0.19685675 2.7813005 3.2250478e-39
-0.4746922 0.21307114 2.7863419 2.9484623e-39
-0.47707507 0.2211782 2.7888625 3.0424558e-39
-0.47945783 0.22928534 2.791383 2.6743795e-39
-0.48184073 0.23739237 2.7939041 2.6736733e-39
-0.48032501 0.24972457 2.8006623 2.6736733e-39
-0.48272434 0.25788781 2.8032005 2.6736733e-39
-0.48752302 0.27421445 2.8082769 2.6736733e-39
-0.48361084 0.28628007 2.8162711 1.2907472e-39
-0.48868489 0.29530668 2.8177001 1.3822184e-39
-0.48966351 0.30339453 2.8210108 1.473705e-39
-0.49064139 0.31148213 2.8243213 1.2911004e-39
-0.50191879 0.32319435 2.8235056 3.0399377e-39
-0.50431824 0.33135778 2.8260441 2.5811245e-39
-0.49857444 0.3508254 2.8386195 1.1981901e-39
-0.50519919 0.35287282 2.8358295 2.9473833e-39
-0.50615007 0.37462604 2.8456893 2.9473833e-39
-0.51244944 0.37754157 2.8434997 2.9473833e-39
-0.51486623 0.38576448 2.846056 2.3970864e-39
-0.51588726 0.40775582 2.8559899 2.9480895e-39
-0.52075589 0.42432082 2.8611405 1.8439126e-39
-0.26130009 -0.53040183 2.5522664 1.2908833e-38
-0.25814125 -0.52352983 2.557349 1.3185774e-38
-0.26523703 -0.49938726 2.5648553 1.2904864e-38
-0.26760244 -0.49133965 2.5673578 1.2165134e-38
-0.26996779 -0.48329231 2.5698597 1.0600331e-38
-0.27233288 -0.47524464 2.5723617 9.495424e-39
-0.45007989 0.14817308 2.7693143 3.4094404e-39
-0.45722827 0.17249435 2.7768764 2.7658689e-39
-0.45961094 0.18060139 2.7793968 3.0410167e-39
-0.46199375 0.18870836 2.7819178 2.7658689e-39
-0.47233707 0.24151947 2.8012838 2.6743795e-39
-0.47473639 0.2496828 2.803822 2.7658689e-39
-0.47298455 0.26237911 2.8108888 3.1314242e-39
-0.47953486 0.26600954 2.8088982 2.6733201e-39
-0.48193422 0.27417278 2.8114364 2.6736733e-39
-0.48433346 0.28233618 2.8139744 2.6736733e-39
-0.48673278 0.29049945 2.8165126 2.8569729e-39
-0.49153125 0.3068262 2.8215888 2.7633522e-39
-0.48690695 0.32197195 2.8314614 1.3825771e-39
-0.49632996 0.32315275 2.8266652 2.5814776e-39
-0.4865793 0.34072158 2.8406124 1.2907472e-39
-0.49956942 0.35283104 2.8390119 2.489282e-39
-0.49804541 0.3663013 2.8463199 2.5814776e-39
-0.50291407 0.38286623 2.85147 2.2126951e-39
-0.50534838 0.39114875 2.8540454 2.3970864e-39
-0.50860232 0.42191246 2.8669031 2.6711551e-39
-0.51105517 0.4302578 2.8694978 1.751717e-39
-0.24317098 -0.55576098 2.5504553 1.2536438e-38
-0.25113183 -0.5464251 2.55039 1.2538608e-38
-0.25348043 -0.53843373 2.5528748 1.1985437e-38
-0.25582933 -0.5304426 2.5553596 1.1895404e-38
-0.25263193 -0.52357095 2.5604637 1.2079069e-38
-0.25867349 -0.48422101 2.5758412 1.2355659e-38
-0.26105624 -0.47611392 2.5783617 1.2724086e-38
-0.26343891 -0.46800679 2.5808821 1.2632969e-38
-0.2658217 -0.4598996 2.5834029 1.3091426e-38
-0.43023306 0.09948919 2.7573283 3.2250478e-39
-0.4326157 0.10759638 2.7598488 3.3172448e-39
-0.45715109 0.20882453 2.7942908 2.7658689e-39
-0.45955044 0.21698777 2.796829 2.9484623e-39
-0.4619498 0.22515106 2.7993672 2.9484623e-39
-0.464349 0.23331454 2.8019049 3.0413642e-39
-0.46674827 0.24147791 2.8044431 2.6736733e-39
-0.46914759 0.24964127 2.8069816 2.6736733e-39
-0.4673551 0.26233715 2.8140714 2.6736733e-39
-0.46977195 0.27055991 2.8166282 2.6736733e-39
-0.47218865 0.27878284 2.8191848 3.0399377e-39
-0.47460538 0.28700587 2.8217416 2.5814776e-39
-0.47279742 0.2997486 2.8288627 1.4740525e-39
-0.47943905 0.3034516 2.8268547 2.5814776e-39
-0.4818559 0.31167436 2.8294113 2.7633522e-39
-0.47986755 0.32503289 2.8369298 1.4740595e-39
-0.48668945 0.32812014 2.8345246 2.5814776e-39
-0.4891063 0.33634326 2.8370814 2.5814776e-39
-0.49062505 0.38014317 2.8571596 2.7633522e-39
-0.49281225 0.38864657 2.8599808 1.198546e-39
-0.49967811 0.39110649 2.8572509 2.7633522e-39
-0.24566099 -0.54646581 2.5534828 1.2630098e-38
-0.24800968 -0.5384745 2.5559676 1.1710293e-38
-0.24475715 -0.53165954 2.5610764 1.1618813e-38
-0.24712241 -0.5236119 2.5635784 1.1802843e-38
-0.24835771 -0.50047648 2.5739374 1.1800687e-38
-0.25074038 -0.49236923 2.576458 1.216947e-38
-0.25788885 -0.46804824 2.5840199 1.171101e-38
-0.26027164 -0.45994109 2.5865407 1.1800687e-38
-0.43956578 0.16796619 2.7847595 3.0424558e-39
-0.44916293 0.20061944 2.7949119 3.2250478e-39
-0.45396149 0.21694624 2.7999885 2.8562723e-39
-0.45636097 0.22510955 2.8025267 2.6736733e-39
-0.4587602 0.23327294 2.8050647 2.9484623e-39
-0.45689186 0.24584939 2.8121407 2.0315409e-39
-0.45930871 0.25407231 2.8146973 2.5811245e-39
-0.45749313 0.26682726 2.8218288 2.5814776e-39
-0.45992732 0.27510977 2.824404 2.9491685e-39
-0.46236166 0.28339222 2.8269792 2.8562667e-39
-0.46897593 0.28696391 2.824924 2.5814776e-39
-0.47139266 0.29518682 2.8274806 2.8569729e-39
-0.47209883 0.31652191 2.83728 2.489282e-39
-0.47453305 0.32480448 2.839855 2.5814776e-39
-0.4794018 0.34136945 2.8450055 2.8569729e-39
-0.48491168 0.38010073 2.8603892 2.7633522e-39
-0.48981747 0.39679119 2.8655789 2.7633522e-39
-0.49227017 0.40513664 2.8681736 2.0283039e-39
-0.49472278 0.41348207 2.8707681 2.7633522e-39
-0.2285108 -0.54916024 2.5619512 1.2079069e-38
-0.23089345 -0.54105306 2.564472 1.1802487e-38
-0.2332764 -0.53294623 2.5669925 1.2078369e-38
-0.2404248 -0.50862503 2.5745547 1.2170912e-38
-0.24280757 -0.5005179 2.5770752 1.2445707e-38
-0.24519032 -0.49241072 2.5795958 1.2261315e-38
-0.24757299 -0.48430356 2.5821164 1.1617744e-38
-0.24995595 -0.47619662 2.5846374 1.2353864e-38
-0.25233847 -0.46808946 2.5871577 1.2261668e-38
-0.25472134 -0.45998245 2.5896785 1.1986877e-38
-0.25882781 -0.42799923 2.6026344 1.2261668e-38
-0.43397698 0.16792464 2.787919 3.0424558e-39
-0.43637642 0.17608789 2.7904575 3.0410167e-39
-0.44401181 0.22113881 2.8076532 2.6736733e-39
-0.44208539 0.23365523 2.8147335 2.6733201e-39
-0.44884557 0.23758459 2.8127668 3.2250478e-39
-0.44695404 0.25022021 2.8198838 1.8475097e-39
-0.44938847 0.25850254 2.8224595 2.5814776e-39
-0.4518227 0.26678512 2.8250344 2.6736733e-39
-0.45669147 0.28334996 2.8301849 2.9484623e-39
-0.45912579 0.29163235 2.8327601 2.8562667e-39
-0.46156001 0.29991493 2.8353353 2.6736733e-39
-0.46399432 0.30819738 2.8379104 2.5814776e-39
-0.46642843 0.31647989 2.8404856 2.5814776e-39
-0.46886286 0.32476225 2.8430607 2.5814776e-39
-0.47183993 0.35502207 2.855835 2.3970864e-39
-0.47674561 0.37171271 2.8610246 2.5814776e-39
-0.4865568 0.40509403 2.8714037 2.6711551e-39
-0.48900953 0.41343945 2.8739982 2.4867639e-39
-0.22057788 -0.55730873 2.5625684 1.3367996e-38
-0.22296053 -0.54920161 2.565089 1.1988303e-38
-0.22772616 -0.53298748 2.5701303 1.1618816e-38
-0.23010883 -0.52488035 2.5726509 1.1986521e-38
-0.23249155 -0.51677322 2.5751717 1.180249e-38
-0.23884302 -0.47702083 2.590565 1.171029e-38
-0.24124239 -0.46885753 2.5931032 1.1892886e-38
-0.24364182 -0.46069428 2.5956414 1.2260962e-38
-0.43596575 0.21287379 2.8082793 3.0410167e-39
-0.43838236 0.22109687 2.8108356 2.6736733e-39
-0.43641508 0.23361307 2.8179393 2.6736733e-39
-0.43884942 0.24189544 2.8205144 2.6736733e-39
-0.44128385 0.25017795 2.8230898 2.6736733e-39
-0.44371808 0.25846046 2.8256648 2.9484623e-39
-0.44159868 0.27152616 2.8331177 2.6736733e-39
-0.44405153 0.27987155 2.8357124 2.947033e-39
-0.44650424 0.28821683 2.8383071 2.9484623e-39
-0.44895709 0.29656219 2.8409021 2.9484623e-39
-0.45588982 0.29987267 2.838541 2.6736733e-39
-0.45832402 0.30815521 2.841116 2.5814776e-39
-0.46075824 0.31643754 2.8436911 2.5814776e-39
-0.45876819 0.32994342 2.8512807 1.8475097e-39
-0.46122113 0.33828866 2.8538756 2.5814776e-39
-0.46367386 0.34663427 2.8564703 2.9484623e-39
-0.46612671 0.35497952 2.8590651 2.3970864e-39
-0.46857938 0.36332482 2.8616598 2.5814776e-39
-0.47103223 0.37167022 2.8642547 2.5814776e-39
-0.47348505 0.38001555 2.8668492 2.7633522e-39
-0.47204983 0.38994086 2.8724117 1.2907402e-39
-0.47658524 0.41084081 2.8798239 2.7633522e-39
-0.20686188 -0.56685901 2.565805 1.1519043e-38
-0.20926136 -0.55869585 2.5683432 1.3552388e-38
-0.21741036 -0.54924297 2.5682268 1.1987953e-38
-0.22217588 -0.53302884 2.5732682 1.1895051e-38
-0.22455864 -0.52492177 2.5757887 1.171066e-38
-0.22845575 -0.49338907 2.5886483 1.1525548e-38
-0.23085511 -0.48522577 2.5911865 1.1618816e-38
-0.23325431 -0.47706237 2.5937245 1.1434426e-38
-0.23565379 -0.46889919 2.5962627 1.1525901e-38
-0.30795571 -0.2411736 2.6640117 9.0294166e-39
-0.41825187 0.17171754 2.7986784 2.8580701e-39
-0.42066884 0.17994036 2.8012352 2.9484623e-39
-0.42308554 0.18816316 2.8037918 3.2250478e-39
-0.43033618 0.21283185 2.8114617 2.7658689e-39
-0.42831066 0.22528826 2.8185699 3.2250478e-39
-0.43074501 0.23357072 2.8211451 3.1314242e-39
-0.43317932 0.24185309 2.8237205 2.6736733e-39
-0.43561354 0.25013572 2.8262954 2.6736733e-39
-0.43804798 0.25841805 2.8288705 3.0399377e-39
-0.43588546 0.27148354 2.8363478 2.6736733e-39
-0.43833816 0.27982897 2.8389425 2.9473833e-39
-0.44079101 0.28817427 2.8415372 3.2239786e-39
-0.44324362 0.29651976 2.8441317 3.0392286e-39
-0.44569656 0.30486497 2.8467267 2.1237421e-39
-0.45060211 0.32155555 2.8519161 2.8562667e-39
-0.4530549 0.32990089 2.8545108 2.5811245e-39
-0.45550776 0.33824617 2.8571055 2.9473833e-39
-0.45353001 0.35194039 2.8647783 2.5814776e-39
-0.45600125 0.36034879 2.8673925 2.2126951e-39
-0.4584727 0.36875689 2.870007 2.5814776e-39
-0.4683578 0.40238965 2.8804641 2.3970864e-39
-0.20847121 -0.54241073 2.5765791 1.1618816e-38
-0.2166256 -0.53307015 2.576406 1.1250754e-38
-0.21900836 -0.52496308 2.5789263 1.1066722e-38
-0.21566913 -0.51792079 2.5841935 1.1434432e-38
-0.21806847 -0.50975746 2.5867314 1.1342236e-38
-0.22046772 -0.50159407 2.5892694 1.1342236e-38
-0.30240554 -0.24121498 2.6671498 7.466767e-39
-0.41020584 0.16345257 2.7993045 3.2250478e-39
-0.40803432 0.17555131 2.8063242 2.8580701e-39
-0.41046873 0.18383364 2.8088996 3.0410167e-39
-0.42020595 0.21696362 2.8192003 2.8562667e-39
-0.42264026 0.22524606 2.8217754 2.9484623e-39
-0.42036062 0.23805985 2.8291986 2.6736733e-39
-0.42281368 0.24640502 2.8317938 2.9484623e-39
-0.42526641 0.25475043 2.8343883 2.9484623e-39
-0.42771924 0.26309574 2.836983 2.764071e-39
-0.43017209 0.27144107 2.8395777 2.9484623e-39
-0.43262482 0.27978644 2.8421724 2.7633522e-39
-0.43507764 0.28813168 2.8447673 2.8562667e-39
-0.43753034 0.29647723 2.8473618 2.9473833e-39
-0.43998316 0.3048225 2.8499565 1.8475097e-39
-0.44488871 0.321513 2.8551462 2.9484623e-39
-0.44734156 0.32985836 2.8577409 2.489282e-39
-0.44530225 0.34348932 2.8654182 3.0399377e-39
-0.44777358 0.35189757 2.8680327 2.5814776e-39
-0.4502449 0.36030585 2.870647 2.2126951e-39
-0.45271614 0.36871412 2.8732612 2.5814776e-39
-0.45518738 0.37712231 2.8758755 2.489282e-39
-0.46013007 0.39393872 2.8811042 2.3970864e-39
-0.20048316 -0.55061579 2.5772004 7.932064e-39
-0.2086927 -0.54121846 2.577023 1.189577e-38
-0.21008031 -0.5179624 2.587353 1.0882344e-38
-0.21247977 -0.50979912 2.5898912 1.0790148e-38
-0.20881429 -0.50264424 2.595397 1.106529e-38
-0.21848175 -0.46975288 2.6056237 1.0881625e-38
-0.22089845 -0.46152979 2.6081805 1.106529e-38
-0.27648523 -0.27240315 2.6669838 0
-0.39249209 0.12229622 2.7897036 3.3172448e-39
-0.40236399 0.1755091 2.80953 3.2246947e-39
-0.40479821 0.18379159 2.8121052 3.0406635e-39
-0.40723276 0.19207378 2.8146803 2.9484623e-39
-0.40966696 0.20035632 2.8172555 3.0410167e-39
-0.407289 0.21298112 2.8246443 2.7655158e-39
-0.40974206 0.22132637 2.8272395 3.0406635e-39
-0.41219479 0.22967181 2.829834 2.6736733e-39
-0.41464737 0.23801723 2.8324287 2.6733201e-39
-0.42200577 0.2630533 2.8402128 2.9484623e-39
-0.42445871 0.27139851 2.8428078 2.9484623e-39
-0.42691153 0.27974385 2.8454025 3.0392286e-39
-0.42936414 0.28808925 2.847997 2.8562667e-39
-0.4318172 0.29643443 2.8505921 2.764071e-39
-0.43426991 0.30477989 2.8531866 2.5814776e-39
-0.43672264 0.31312522 2.8557813 2.5814776e-39
-0.43917525 0.32147056 2.8583758 2.9491685e-39
-0.43707472 0.33503813 2.8660583 2.9473833e-39
-0.43954593 0.34344628 2.8686726 2.764071e-39
-0.44201726 0.35185465 2.8712869 2.8562667e-39
-0.43999034 0.36567408 2.8790474 2.5814776e-39
-0.44695973 0.36867127 2.8765154 2.5814776e-39
-0.44943094 0.37707943 2.8791296 1.6627667e-39
-0.45190218 0.38548771 2.8817439 2.4889317e-39
-0.44994938 0.39955837 2.8895826 2.7633522e-39
-0.45243922 0.40802941 2.8922164 2.489282e-39
-0.20449172 -0.518004 2.5905125 1.0605761e-38
-0.20689085 -0.50984061 2.5930505 1.0972024e-38
-0.26280624 -0.28006861 2.6711006 0
-0.28366876 -0.24861376 2.6742713 5.2486671e-39
-0.38939083 0.15061948 2.8050101 3.4094404e-39
-0.39182517 0.15890196 2.8075852 3.0424558e-39
-0.39425936 0.16718437 2.8101604 3.2250478e-39
-0.39176443 0.1795574 2.8174953 2.8580645e-39
-0.39421737 0.18790261 2.8200903 2.6736733e-39
-0.40156224 0.19203173 2.8178859 3.0410167e-39
-0.3991228 0.20459327 2.82528 3.0410167e-39
-0.40157562 0.21293864 2.8278747 2.6736733e-39
-0.40402856 0.22128396 2.8304691 3.0410167e-39
-0.40648139 0.22962926 2.8330641 2.6736733e-39
-0.40907681 0.25932163 2.8457842 3.1314242e-39
-0.41629252 0.26301071 2.8434429 3.0406635e-39
-0.41874546 0.27135593 2.8460379 2.6736733e-39
-0.42119807 0.27970132 2.8486326 2.9484623e-39
-0.4236508 0.28804669 2.851227 2.8569729e-39
-0.42143318 0.30136266 2.8588555 2.9491685e-39
-0.42390451 0.30977085 2.86147 2.5814776e-39
-0.42637584 0.31817907 2.8640842 2.5814776e-39
-0.42884707 0.32658708 2.8666985 3.0399377e-39
-0.43131828 0.33499536 2.8693125 2.764071e-39
-0.43378949 0.34340352 2.8719268 2.7633522e-39
-0.43170127 0.35715982 2.8796921 2.9484623e-39
-0.43419099 0.36563084 2.8823259 2.5814776e-39
-0.43668085 0.37410194 2.8849597 2.5814776e-39
-0.43917054 0.38257301 2.8875937 3.0399377e-39
-0.44166031 0.39104411 2.8902276 2.3970864e-39
-0.19410422 -0.53437227 2.5885956 8.2974806e-40
-0.19890301 -0.51804566 2.593672 4.9835638e-39
-0.20130226 -0.50988233 2.59621 7.4660538e-39
-0.21331814 -0.42919514 2.6279528 1.1525548e-38
-0.24869449 -0.28782398 2.6754205 7.4674705e-39
-0.25713602 -0.28011093 2.6743062 0
-0.25957024 -0.27182841 2.6768813 0
-0.38615486 0.15885973 2.8107908 2.8580645e-39
-0.38858905 0.16714214 2.8133662 2.7658689e-39
-0.3860513 0.17951466 2.8207257 2.8580645e-39
-0.38850412 0.18786001 2.8233204 3.0410167e-39
-0.39095673 0.19620532 2.8259149 2.7655158e-39
-0.39340955 0.20455058 2.8285098 3.0410167e-39
-0.39586225 0.21289606 2.8311043 2.7655158e-39
-0.39831522 0.2212414 2.8336992 3.0410167e-39
-0.40076792 0.22958681 2.8362939 2.6743795e-39
-0.41303197 0.27131346 2.8492677 2.5814776e-39
-0.41548467 0.27965885 2.8518624 2.5814776e-39
-0.41320553 0.29291168 2.8594954 2.5814776e-39
-0.41567683 0.30131984 2.8621099 2.5814776e-39
-0.41814816 0.309728 2.8647242 2.5814776e-39
-0.4206194 0.31813616 2.8673384 1.7553141e-39
-0.42556188 0.3349525 2.8725669 2.9491685e-39
-0.42341214 0.3486453 2.8803372 3.0399377e-39
-0.42590186 0.35711664 2.8829708 3.2250478e-39
-0.43133217 0.39660001 2.8987598 2.3970864e-39
-0.43384019 0.40513402 2.901413 2.3970864e-39
-0.19442485 -0.53323567 2.5889571 1.1060239e-38
-0.19091475 -0.52625048 2.5942934 1.0413071e-38
-0.19919036 -0.51702136 2.5939982 9.4003571e-39
-0.20764796 -0.4292374 2.6311586 1.1249334e-38
-0.24903138 -0.28843564 2.6749365 5.0732764e-39
-0.25717983 -0.28075182 2.673975 0
-0.38033804 0.17947215 2.8239558 2.7655158e-39
-0.38279074 0.18781745 2.8265502 3.0403132e-39
-0.39014912 0.21285337 2.8343344 2.6736733e-39
-0.39260185 0.22119895 2.8369291 2.6736733e-39
-0.40250653 0.27605239 2.8575213 2.9484623e-39
-0.40497789 0.28446048 2.8601356 2.6736733e-39
-0.40992054 0.30127686 2.8653646 2.2126951e-39
-0.41239178 0.30968511 2.8679786 2.7658689e-39
-0.41512281 0.34013113 2.8809817 2.489282e-39
-0.41761267 0.34860218 2.8836155 2.9473833e-39
-0.41545668 0.36242056 2.8914492 2.5814776e-39
-0.42259213 0.36554453 2.8888834 1.7553141e-39
-0.42508197 0.37401557 2.8915172 2.5814776e-39
-0.42298117 0.38802266 2.8994091 2.5814776e-39
-0.42548949 0.39655659 2.9020624 2.5814776e-39
-0.1829268 -0.53445548 2.5949147 1.0601418e-38
-0.18532616 -0.52629226 2.5974529 1.0415232e-38
-0.19364008 -0.51706266 2.597136 1.0507784e-38
-0.19732253 -0.4854753 2.6101437 1.0414513e-38
-0.19224036 -0.46240959 2.6240635 6.0809641e-39
-0.19467479 -0.45412719 2.6266384 2.6772634e-39
-0.1971091 -0.44584471 2.6292138 7.5333805e-42
-0.20804755 -0.4288058 2.6311374 2.9686228e-39
-0.2044121 -0.4209972 2.6369393 1.1527698e-38
-0.24336098 -0.28847775 2.6781421 7.3721471e-40
-0.25155026 -0.28079367 2.6771574 0
-0.36709493 0.17511094 2.8294044 3.1321333e-39
-0.37462452 0.1794297 2.8271854 2.6736733e-39
-0.37707737 0.18777494 2.8297803 3.2239786e-39
-0.38443589 0.21281077 2.8375645 2.6736733e-39
-0.38439375 0.23396845 2.8477039 2.6736733e-39
-0.38686508 0.24237661 2.8503184 2.7658689e-39
-0.38933644 0.25078478 2.8529329 2.6743795e-39
-0.39180765 0.25919309 2.855547 2.6736733e-39
-0.39427888 0.26760125 2.8581612 2.9484623e-39
-0.39189523 0.28079051 2.8658235 2.6736733e-39
-0.39922157 0.2844176 2.86339 2.9484623e-39
-0.39687482 0.29773268 2.8710911 2.9484623e-39
-0.39936441 0.30620378 2.8737252 2.8562667e-39
-0.40185428 0.31467482 2.876359 2.0315409e-39
-0.40434387 0.32314599 2.8789928 3.0399377e-39
-0.40683371 0.33161691 2.8816266 2.5814776e-39
-0.40710586 0.35384303 2.8920987 2.9473833e-39
-0.40961403 0.36237732 2.8947518 2.3970864e-39
-0.41212237 0.37091118 2.8974054 2.489282e-39
-0.41463083 0.37944493 2.900059 2.0311905e-39
-0.41713896 0.38797897 2.9027121 2.5811245e-39
-0.41503236 0.4021112 2.9106679 2.5814776e-39
-0.17493886 -0.54266047 2.5955362 1.0591695e-38
-0.17733821 -0.53449726 2.5980744 1.0785812e-38
-0.17973745 -0.52633387 2.6006126 1.0601418e-38
-0.18213668 -0.51817048 2.6031506 1.1060957e-38
-0.18791741 -0.47818527 2.6189802 1.0508137e-38
-0.18413571 -0.47073424 2.6246936 1.0232989e-38
-0.18657015 -0.46245193 2.627269 1.1429015e-38
-0.19758466 -0.44529372 2.6292067 1.1709586e-38
-0.20000139 -0.43707067 2.6317632 1.0782592e-38
-0.20241821 -0.42884776 2.6343198 8.4798694e-39
-0.19874176 -0.42103943 2.6401451 1.124646e-38
-0.19721532 -0.40478629 2.6487842 1.2893364e-38
-0.19966835 -0.39644107 2.6513791 1.1703119e-38
-0.20212111 -0.38809571 2.6539738 1.0970223e-38
-0.21800454 -0.31260777 2.6810303 9.3059979e-39
-0.22664906 -0.30464229 2.6799212 8.8475379e-39
-0.23525666 -0.29680258 2.6787729 1.0322668e-38
-0.2401251 -0.28023753 2.683923 0
-0.3541944 0.12931515 2.814847 2.6736733e-39
-0.35664713 0.13766052 2.8174417 3.0424558e-39
-0.37616611 0.22551736 2.8483443 2.6736733e-39
-0.37863752 0.23392543 2.8509588 2.6743795e-39
-0.38110867 0.24233383 2.8535726 2.1244427e-39
-0.37862641 0.25533408 2.8612008 2.8569729e-39
-0.38111615 0.26380518 2.8638346 2.6743795e-39
-0.3836059 0.27227625 2.8664687 2.6736733e-39
-0.38609582 0.28074726 2.8691025 2.5814776e-39
-0.38858548 0.28921837 2.871736 2.6736733e-39
-0.39123061 0.31966391 2.8847883 1.848216e-39
-0.39373875 0.32819787 2.8874414 2.9491685e-39
-0.39624712 0.33673164 2.8900948 2.5814776e-39
-0.39875534 0.34526554 2.8927484 2.5814776e-39
-0.40126356 0.35379946 2.8954017 2.5814776e-39
-0.39903989 0.36768031 2.9033031 2.6711551e-39
-0.40156662 0.37627715 2.9059761 2.489282e-39
-0.40409338 0.38487384 2.908649 2.3970864e-39
-0.41129652 0.38793549 2.9060152 3.0399377e-39
-0.15412225 -0.55360109 2.6021476 1.0876914e-38
-0.16295341 -0.5440104 2.6017094 1.0686061e-38
-0.16537014 -0.53578746 2.6042657 1.0601071e-38
-0.16778696 -0.52756459 2.6068227 1.0693614e-38
-0.18228775 -0.47822702 2.6221626 1.1153153e-38
-0.1784654 -0.4707765 2.6278994 9.7727368e-39
-0.17433259 -0.46324632 2.6338513 9.9564022e-39
-0.18169084 -0.43821007 2.6416352 6.9135834e-39
-0.19063702 -0.42936409 2.6407754 7.1905136e-39
-0.18659663 -0.42151949 2.6468248 7.3755957e-39
-0.19150218 -0.40482903 2.6520143 1.704252e-38
-0.19395489 -0.39648354 2.654609 2.2581821e-38
-0.20730579 -0.32946733 2.6790562 9.7485532e-39
-0.2209357 -0.30468476 2.683151 9.9513617e-39
-0.23545769 -0.29732332 2.6784091 9.2170449e-39
-0.22829399 -0.27964884 2.6909351 0
-0.34112278 0.10423645 2.810293 3.3172448e-39
-0.35063967 0.15820889 2.8306842 2.8580645e-39
-0.35311088 0.1666171 2.8332984 3.0421027e-39
-0.35558212 0.17502531 2.8359129 2.7655158e-39
-0.35805345 0.18343349 2.8385272 2.7658689e-39
-0.36052468 0.19184165 2.8411415 2.9491685e-39
-0.3803716 0.30255246 2.8827846 3.0392286e-39
-0.38287982 0.31108648 2.8854377 2.5814776e-39
-0.38052091 0.32465225 2.893266 2.5811245e-39
-0.38304764 0.33324909 2.8959389 2.5811245e-39
-0.38557419 0.34184584 2.8986118 2.5814776e-39
-0.38810104 0.35044262 2.9012845 2.5814776e-39
-0.39062768 0.35903949 2.9039576 2.5814776e-39
-0.3931545 0.36763632 2.9066308 2.9473833e-39
-0.39568114 0.37623322 2.9093034 2.7633522e-39
-0.3982079 0.38483006 2.9119763 2.5814776e-39
-0.40073463 0.39342681 2.9146495 2.7633522e-39
-0.40326136 0.40202358 2.9173222 3.0402852e-39
-0.13673274 -0.57177812 2.6033494 4.3303051e-39
-0.1391857 -0.56343281 2.6059442 4.4232196e-39
-0.14163862 -0.55508757 2.6085391 9.5872693e-39
-0.15088639 -0.54536092 2.6079283 1.1332853e-38
-0.15332061 -0.53707838 2.6105034 1.0876561e-38
-0.1621574 -0.52760649 2.6100049 1.0601772e-38
-0.16457415 -0.51938355 2.6125617 1.0876914e-38
-0.16940781 -0.50293767 2.6176751 0
-0.17182475 -0.49471492 2.6202319 0
-0.17279521 -0.47081882 2.6311049 9.3106796e-39
-0.1686191 -0.46328875 2.6370809 1.0232989e-38
-0.17597781 -0.43825287 2.6448655 7.9234124e-39
-0.18496685 -0.4294064 2.6439812 5.0732764e-39
-0.18088314 -0.42156202 2.6500547 4.9771347e-39
-0.18333609 -0.41321686 2.6526496 8.8479036e-39
-0.18578891 -0.40487152 2.6552444 1.5386591e-38
-0.18824165 -0.3965261 2.6578391 2.3509168e-38
-0.19069436 -0.38818067 2.6604335 2.3509886e-38
-0.1931473 -0.37983555 2.6630287 2.3509886e-38
-0.19560002 -0.37149 2.6656232 2.33136e-38
-0.20050557 -0.35479927 2.6708124 2.3508809e-38
-0.20295829 -0.34645408 2.6734073 2.2031163e-38
-0.21276963 -0.31307262 2.6837864 9.0293858e-39
-0.21522257 -0.30472741 2.6863811 1.0686767e-38
-0.22391593 -0.29688692 2.685184 5.9977578e-39
-0.22635026 -0.28860453 2.6877594 0
-0.22258085 -0.27969146 2.694165 0
-0.34488332 0.1581659 2.8339386 2.8580645e-39
-0.34735444 0.16657415 2.8365531 3.4094404e-39
-0.3498258 0.17498232 2.8391674 2.7658689e-39
-0.35476822 0.19179879 2.8443956 2.6736733e-39
-0.35971081 0.20861503 2.8496244 3.2250478e-39
-0.36218214 0.21702319 2.8522387 2.7658689e-39
-0.35955825 0.22983451 2.8598566 3.0413642e-39
-0.35947976 0.25130531 2.870167 2.9491685e-39
-0.36449623 0.26837325 2.8754737 3.2228786e-39
-0.3721087 0.31601167 2.8939204 2.9473833e-39
-0.37463555 0.32460836 2.8965933 3.0399377e-39
-0.37716204 0.33320528 2.8992662 2.9473833e-39
-0.3796888 0.34180197 2.9019389 2.8569729e-39
-0.38474217 0.35899574 2.907285 2.5814776e-39
-0.38726905 0.36759251 2.9099579 3.0399377e-39
-0.38979554 0.37618947 2.9126306 2.5814776e-39
-0.39232242 0.38478616 2.9153039 2.947033e-39
-0.39484915 0.393383 2.9179766 2.7630018e-39
-0.13592514 -0.55513 2.6117687 1.013863e-38
-0.13837808 -0.5467847 2.6143639 1.2623241e-38
-0.14083081 -0.53843951 2.6169586 1.1152803e-38
-0.15008485 -0.52883834 2.6162844 1.0694343e-38
-0.15251908 -0.52055585 2.6188595 1.0694696e-38
-0.15495341 -0.51227337 2.6214349 9.4939793e-39
-0.15738773 -0.50399089 2.6240098 5.8061541e-39
-0.15309465 -0.49671268 2.6299322 4.8852894e-39
-0.15554747 -0.48836735 2.6325269 1.0227601e-38
-0.16045313 -0.47167665 2.6377163 1.0600687e-38
-0.15872376 -0.45567611 2.6463506 1.0693614e-38
-0.161195 -0.44726783 2.6489646 1.0786163e-38
-0.17271717 -0.42994994 2.6506901 6.0921044e-39
-0.16860899 -0.42204317 2.6568077 9.954261e-39
-0.19233948 -0.36318725 2.671448 1.6595216e-38
-0.19724503 -0.3464967 2.6766374 2.3509886e-38
-0.19969776 -0.33815125 2.6792319 2.3509886e-38
-0.19579293 -0.32955301 2.685565 2.3509886e-38
-0.19826414 -0.32114476 2.6881793 2.1469343e-38
-0.20073538 -0.31273642 2.6907933 7.5578416e-39
-0.21196179 -0.29642457 2.6922059 4.8892452e-39
-0.221773 -0.26304331 2.7025847 2.8504877e-39
-0.32677042 0.11608209 2.8241215 3.0424558e-39
-0.32924178 0.12449028 2.8267357 3.0406635e-39
-0.33171302 0.13289854 2.8293498 3.2250478e-39
-0.33418435 0.14130659 2.8319645 3.5913136e-39
-0.34159824 0.16653121 2.8398073 3.2246947e-39
-0.34406936 0.17493951 2.8424215 3.2250478e-39
-0.34654081 0.18334758 2.8450358 3.2250478e-39
-0.34379998 0.19590691 2.8526001 2.7658689e-39
-0.3462896 0.20437804 2.8552337 2.9484623e-39
-0.35126919 0.22132006 2.8605015 2.8580645e-39
-0.35375899 0.22979125 2.8631353 2.6736733e-39
-0.35112908 0.24272785 2.8708167 2.9484623e-39
-0.35614568 0.25979567 2.8761234 3.5913136e-39
-0.35611644 0.28158048 2.8865559 3.0392286e-39
-0.36617848 0.29393157 2.8867369 2.8580645e-39
-0.36868677 0.30246547 2.8893902 3.5913136e-39
-0.38391015 0.37614554 2.9159582 2.8569729e-39
-0.38643691 0.38474238 2.9186311 2.7633522e-39
-0.13021177 -0.5551725 2.6149988 9.3092153e-39
-0.13511744 -0.53848201 2.6201885 7.4638803e-39
-0.13757026 -0.53013659 2.6227832 7.2813038e-39
-0.14002287 -0.52179116 2.6253777 7.928827e-39
-0.14247581 -0.51344591 2.6279726 1.0324485e-38
-0.14492854 -0.50510055 2.6305673 1.2163362e-38
-0.14738137 -0.49675521 2.6331623 1.1429381e-38
-0.14983422 -0.48840988 2.635757 1.1614131e-38
-0.15049602 -0.46412712 2.6469905 9.6819887e-39
-0.16038126 -0.43049422 2.6574473 4.7030912e-39
-0.16779502 -0.40526965 2.6652904 1.3638469e-38
