# .PCD v0.7 - Point Cloud Data file format
VERSION 0.7
FIELDS x y z rgb
SIZE 4 4 4 4
TYPE F F F F
COUNT 1 1 1 1
WIDTH 1044
HEIGHT 1
VIEWPOINT 0 0 0 1 0 0 0
POINTS 1044
DATA ascii
-1.4015923 1.1350954 -1.753188 7.187271e-39
-1.4025162 1.1421179 -1.7495458 6.7263069e-39
-1.4018215 1.1518167 -1.7475145 6.5415583e-39
-1.4056811 1.1540877 -1.7409189 6.2642483e-39
-1.4080296 1.1620685 -1.7348038 4.0529952e-39
-1.406226 1.1733931 -1.733941 3.3165189e-39
-1.4059875 1.1821038 -1.7315298 2.9473791e-39
-1.4021938 1.195783 -1.7329458 5.5266777e-39
-1.4049931 1.2021086 -1.7266723 2.8548303e-39
-1.4047714 1.2109413 -1.7241963 3.222887e-39
-1.4030395 1.2216225 -1.7234294 4.5136202e-39
-1.4083586 1.2228757 -1.7149378 3.2210933e-39
-1.4118046 1.2242832 -1.7092465 3.8660956e-39
-1.4096483 1.2368327 -1.7085301 5.0650045e-39
-1.4107956 1.2446247 -1.7043029 2.3927662e-39
-1.4117239 1.25234 -1.7004341 3.9579269e-39
-1.4124295 1.2593516 -1.6971271 4.694759e-39
-1.4120201 1.2698196 -1.6944162 3.0356203e-39
-1.4127296 1.2770448 -1.6910361 3.6824162e-39
-1.410585 1.290024 -1.6901649 4.6029319e-39
-1.4096407 1.3006821 -1.688208 5.4308765e-39
-1.4112269 1.3090688 -1.6831235 4.6025942e-39
-1.4153963 1.3107996 -1.6762282 2.9463127e-39
-1.4161078 1.317908 -1.672882 3.4984005e-39
-1.4146056 1.3308614 -1.6710424 2.9462987e-39
-1.4124539 1.3443754 -1.6700125 3.3150756e-39
-1.4137341 1.3526729 -1.6654221 4.2337921e-39
-1.4165357 1.3590678 -1.6591223 3.8657256e-39
-1.420647 1.4271353 -1.6311896 1.4712064e-39
-1.4260527 1.4343951 -1.620653 8.8475561e-39
-1.4324236 1.432032 -1.6117116 7.374193e-39
-1.4294074 1.447912 -1.611244 7.3738329e-39
-1.4299102 1.4556376 -1.6080184 6.7288517e-39
-1.428417 1.4699215 -1.6057413 7.4664195e-39
-1.4270304 1.4827763 -1.6037575 7.9270193e-39
-1.4293549 1.485064 -1.5994918 4.3310282e-39
-1.4323815 1.4912016 -1.5929319 4.2399116e-39
-1.4330977 1.4985305 -1.5895083 3.5963568e-39
-1.4340321 1.5115776 -1.5839317 6.174938e-39
-1.4354105 1.5159531 -1.5804409 4.6976639e-39
-1.4354914 1.5266594 -1.5769082 5.5292155e-39
-1.4376754 1.533687 -1.5713471 5.2536964e-39
-1.4334873 1.5568445 -1.5703448 5.1593511e-39
-1.4318968 1.5686337 -1.56901 5.9880216e-39
-1.4344685 1.5720838 -1.5639981 6.3567971e-39
-1.4360725 1.5785476 -1.5594989 5.7139598e-39
-1.4360342 1.5906974 -1.5556885 4.7005114e-39
-1.43563 1.6023083 -1.5526055 4.7923749e-39
-1.4369625 1.6096461 -1.5482413 5.1615063e-39
-1.437691 1.6190311 -1.5441443 5.0678618e-39
-1.4384353 1.6267771 -1.5405447 4.6065333e-39
-1.43918 1.6345234 -1.5369449 4.0533609e-39
-1.4399244 1.6422697 -1.5333447 6.8221095e-39
-1.4433886 1.6509287 -1.5253164 6.8217619e-39
-1.4806759 2.0426259 -1.3438387 6.4450144e-39
-1.3861835 0.90464556 -1.8500245 2.3509886e-38
-1.3890887 0.92539853 -1.838995 2.3509886e-38
-1.393055 0.93805814 -1.8289281 2.0192663e-38
-1.3908659 0.95563823 -1.8266606 2.2312437e-38
-1.3893796 0.97279733 -1.8234572 2.3509886e-38
-1.3952731 0.97384751 -1.8141558 2.3509886e-38
-1.3947105 0.99205065 -1.8092146 1.5490326e-38
-1.3973813 0.99471903 -1.8043013 1.8344479e-38
-1.3933556 1.0111761 -1.805185 1.6223599e-38
-1.3945401 1.0163704 -1.8017287 1.3364813e-38
-1.3937844 1.0271876 -1.7994331 9.4054592e-39
-1.3937724 1.0350507 -1.7969482 9.6849426e-39
-1.3944051 1.0409646 -1.7941016 1.2075144e-38
-1.3971199 1.0426403 -1.7894373 1.2535077e-38
-1.398188 1.0503854 -1.7853458 7.9245474e-39
-1.3982441 1.0580626 -1.782815 6.3608118e-39
-1.3980236 1.066348 -1.7805122 6.0838886e-39
-1.3982159 1.0775998 -1.7766361 4.237783e-39
-1.3973694 1.0852903 -1.7754747 4.6044089e-39
-1.4000173 1.0893052 -1.7701675 2.6672231e-39
-1.3989033 1.1001099 -1.7684214 4.4232561e-39
-1.3995997 1.1071295 -1.7651268 4.8849503e-39
-1.3998637 1.1171879 -1.7615215 7.5578794e-39
-1.400686 1.1232587 -1.7583367 6.8177851e-39
-1.4046254 1.1283005 -1.7507373 5.1593581e-39
-1.4059714 1.1330253 -1.7471846 5.9876895e-39
-1.4092506 1.1370417 -1.7409165 4.8813321e-39
-1.4122219 1.1774087 -1.7235395 2.3023852e-39
-1.4128425 1.1821053 -1.7210994 2.4878485e-39
-1.4114609 1.1964207 -1.7186422 2.3920529e-39
-1.4121625 1.2035295 -1.7153109 1.5662495e-39
-1.4121798 1.2135254 -1.7121016 1.6562815e-39
-1.4127618 1.2202777 -1.7090654 2.7615599e-39
-1.415025 1.2298858 -1.7025625 2.0236319e-39
-1.4181452 1.2370194 -1.6955429 1.3807778e-39
-1.4172325 1.2472947 -1.6936595 1.3804177e-39
-1.4167484 1.2567923 -1.6913711 9.2016544e-40
-1.4157691 1.2680578 -1.6892737 2.5782561e-39
-1.4203047 1.2701491 -1.6817062 1.2889508e-39
-1.4163661 1.285385 -1.6828471 1.0116422e-39
-1.4161495 1.2955924 -1.6799257 1.104205e-39
-1.4190631 1.3015496 -1.6735952 9.1981371e-40
-1.4178675 1.3104862 -1.6725681 2.3005677e-39
-1.4198018 1.3294984 -1.6635708 1.4733308e-39
-1.4215646 1.3342755 -1.6593668 1.8413987e-39
-1.4232283 1.3606461 -1.6484371 1.2882361e-39
-1.4224156 1.371354 -1.6462637 1.1967495e-39
-1.4216075 1.383875 -1.6435056 1.0109205e-39
-1.4251077 1.4413599 -1.6198725 9.5879826e-39
-1.4318869 1.4401236 -1.6099521 8.2068614e-39
-1.4327073 1.4467201 -1.6066031 8.9422698e-39
-1.4343182 1.4538028 -1.6018962 9.2159659e-39
-1.4367743 1.4573658 -1.5970244 5.9937837e-39
-1.433877 1.4749734 -1.5958251 7.9284654e-39
-1.4323872 1.489624 -1.5934265 7.6522373e-39
-1.4364139 1.4894646 -1.5873505 7.8366285e-39
-1.4401103 1.4961915 -1.5795835 7.0986936e-39
-1.4396516 1.5069202 -1.5768646 7.3745476e-39
-1.440376 1.514446 -1.5733658 6.8185025e-39
-1.4402609 1.5243289 -1.5703934 6.5437247e-39
-1.440335 1.5369333 -1.5662664 6.2678623e-39
-1.4410659 1.544516 -1.5627395 5.804331e-39
-1.4425259 1.6150806 -1.5380459 6.8217507e-39
-1.4438584 1.6224182 -1.5336816 6.9139464e-39
-1.4451908 1.6297559 -1.5293171 6.911445e-39
-1.4455881 1.6352793 -1.5269536 7.1894487e-39
-1.4500974 1.6370416 -1.5195314 7.5593116e-39
-1.4490323 1.6540455 -1.5157365 5.530663e-39
-1.4863902 2.0366228 -1.3370563 5.800008e-39
-1.3823251 0.8529017 -1.8723741 2.3509886e-38
-1.383204 0.85961562 -1.8688984 2.3509886e-38
-1.3824081 0.86792058 -1.8674651 2.3509886e-38
-1.3849622 0.87304389 -1.8619469 2.3509886e-38
-1.3902318 0.87304622 -1.8539282 2.3509886e-38
-1.3863568 0.88250965 -1.8568106 2.3509886e-38
-1.3869643 0.89085525 -1.8532281 1.4750247e-38
-1.3903042 0.89643562 -1.8463696 1.7238446e-38
-1.3909773 0.90315306 -1.8432066 1.6315792e-38
-1.3884141 0.91242194 -1.8441542 1.3179005e-38
-1.3916359 0.91727698 -1.837706 1.4650887e-38
-1.392807 0.92372584 -1.8338704 1.1887205e-38
-1.3877081 0.93649507 -1.8375617 1.2262065e-38
-1.3931512 0.94071031 -1.8279377 7.1895089e-39
-1.3929464 0.94853699 -1.8257567 6.7328608e-39
-1.3937997 0.9551276 -1.8223596 6.368767e-39
-1.3910315 0.96597958 -1.823115 7.8366566e-39
-1.3919312 0.97285479 -1.8195566 7.6511835e-39
-1.3961084 0.97604513 -1.8121852 5.6236055e-39
-1.3994771 0.97870576 -1.8062118 6.6341351e-39
-1.400656 0.98519611 -1.8023517 7.2805877e-39
-1.3985707 0.9963997 -1.8019564 6.2689441e-39
-1.3976842 1.0072871 -1.7998378 6.9143247e-39
-1.39801 1.0174408 -1.796108 7.744091e-39
-1.3974609 1.0260143 -1.7942134 7.6518912e-39
-1.3981456 1.032951 -1.7909623 7.2852638e-39
-1.3979231 1.0411487 -1.7886903 6.8228592e-39
-1.3979743 1.046037 -1.7870557 8.2950886e-39
-1.3980943 1.0515091 -1.7851301 6.9154009e-39
-1.4004456 1.102392 -1.7653478 6.268584e-39
-1.4016345 1.1099606 -1.761129 6.0834794e-39
-1.4047824 1.1143241 -1.7549492 6.7281342e-39
-1.4051648 1.1207079 -1.7523345 5.5292267e-39
-1.4114172 1.1223605 -1.7422948 4.6990989e-39
-1.412974 1.1279267 -1.7381539 5.619979e-39
-1.4211977 1.2029573 -1.7017467 3.7753167e-39
-1.4205328 1.2158312 -1.6986581 3.958266e-39
-1.424665 1.2309202 -1.687565 2.0236333e-39
-1.4238179 1.2410418 -1.6856308 1.8413945e-39
-1.4233408 1.2504971 -1.6833453 1.4726161e-39
-1.4240379 1.2576483 -1.6800073 2.2094511e-39
-1.4251509 1.2659233 -1.6756788 1.8377931e-39
-1.4230578 1.278813 -1.6747583 8.268838e-40
-1.4221365 1.2893943 -1.6727898 9.1835917e-40
-1.4229282 1.2985265 -1.668677 4.5918168e-40
-1.4244924 1.3039503 -1.6645699 1.6577193e-39
-1.4263974 1.307178 -1.6606436 2.393485e-39
-1.4272527 1.3211321 -1.6548983 1.6573633e-39
-1.4260101 1.3326885 -1.6531081 1.9335943e-39
-1.4251273 1.3435454 -1.6509943 2.1172695e-39
-1.4246429 1.3535918 -1.6485314 3.6950419e-40
-1.4259591 1.3619239 -1.643875 9.327463e-41
-1.428362 1.3657022 -1.6390163 3.6878252e-40
-1.4269062 1.393263 -1.6324537 1.102756e-39
-1.4284769 1.3963141 -1.6290922 5.5209478e-40
-1.4272677 1.4069052 -1.6275588 5.5101858e-40
-1.4285789 1.4140161 -1.6232992 3.6734759e-40
-1.4303069 1.4271984 -1.6164724 5.9919999e-39
-1.4326705 1.4319115 -1.6113751 8.2987039e-39
-1.439324 1.4308231 -1.6015983 6.6427783e-39
-1.439009 1.4358366 -1.6004808 7.2838233e-39
-1.4431319 1.4414961 -1.5924056 7.1905403e-39
-1.442721 1.4640056 -1.585862 7.0068763e-39
-1.4390405 1.4814684 -1.5859007 7.7448015e-39
-1.4400216 1.488951 -1.5820243 8.8486197e-39
-1.4418204 1.4947461 -1.5774422 8.0206695e-39
-1.4451523 1.5002912 -1.5706071 7.3741972e-39
-1.4458581 1.5076237 -1.5671978 6.4522381e-39
-1.4472723 1.518919 -1.5614488 6.5430044e-39
-1.4460148 1.5320811 -1.5591702 6.0831277e-39
-1.4431957 1.5485364 -1.5582188 4.4250385e-39
-1.4450363 1.5542411 -1.5536016 3.410881e-39
-1.4461195 1.5806643 -1.5435388 4.1480789e-39
-1.4483588 1.587664 -1.5379024 7.9248739e-39
-1.4481604 1.5974433 -1.5350899 8.2050383e-39
-1.449483 1.6047279 -1.530757 7.4667698e-39
-1.448089 1.620515 -1.5278505 7.4678502e-39
-1.4509392 1.623686 -1.5225043 6.4515305e-39
-1.4502392 1.6357102 -1.5197395 8.4812749e-39
-1.4520867 1.6425282 -1.5147575 8.7593261e-39
-1.4515127 1.6494153 -1.5134373 6.2689511e-39
-1.3817955 0.77278936 -1.8986932 1.4565498e-38
-1.3797007 0.78161401 -1.8990707 1.4842438e-38
-1.3794137 0.78915066 -1.8971065 1.5211221e-38
-1.3814405 0.79490685 -1.8921897 1.6040984e-38
-1.3818471 0.80191851 -1.8893383 1.6962942e-38
-1.3814805 0.80958551 -1.8874542 1.5948102e-38
-1.3823532 0.81625795 -1.8840015 1.6959732e-38
-1.3815306 0.82436848 -1.8826696 1.7328517e-38
-1.382406 0.83106714 -1.8792049 1.9079489e-38
-1.3899349 0.83036393 -1.8679738 1.6314704e-38
-1.3852586 0.84024763 -1.8719405 6.0827802e-39
-1.3888106 0.84979558 -1.8634959 1.0417404e-38
-1.3878579 0.85798281 -1.8623374 1.0139387e-38
-1.3866279 0.86648852 -1.8615006 1.0047192e-38
-1.3862745 0.87386453 -1.8596895 5.8984001e-39
-1.3953675 0.86928284 -1.8473133 3.2334149e-39
-1.393574 0.88036829 -1.8465118 8.6631802e-39
-1.3955692 0.88625228 -1.8416016 4.2363509e-39
-1.3964473 0.89270955 -1.8382096 4.883528e-39
-1.3901198 0.90535337 -1.8438107 8.3880002e-39
-1.3940338 0.90979278 -1.8364412 6.5502618e-39
-1.392312 0.9197765 -1.835881 6.7302922e-39
-1.3922799 0.92735237 -1.8335174 6.9135988e-39
-1.3953511 0.93231916 -1.8272629 4.7927644e-39
-1.3937432 0.94287294 -1.8263481 7.8359055e-39
-1.3944248 0.9497326 -1.8231262 7.6515142e-39
-1.3944021 0.9574104 -1.8207158 7.3756518e-39
-1.3950843 0.96428096 -1.81749 6.7306565e-39
-1.3964703 0.970312 -1.8134602 6.7310139e-39
-1.3963631 0.97895843 -1.8108693 7.8369887e-39
-1.396345 0.98671216 -1.8084276 7.5596885e-39
-1.4003661 0.99014187 -1.8012174 5.991651e-39
-1.3995858 0.99874896 -1.7996633 5.7147137e-39
-1.3994542 1.0430061 -1.7857687 6.8221291e-39
-1.4048545 1.1065528 -1.7573143 5.2540845e-39
-1.4110348 1.1065402 -1.7479155 3.6853141e-39
-1.4107872 1.1166801 -1.7450625 4.7001877e-39
-1.41658 1.1173294 -1.736042 6.5426513e-39
-1.4193615 1.1191329 -1.731236 6.3560656e-39
-1.4241952 1.1936467 -1.7001506 9.1208527e-39
-1.4299717 1.2271357 -1.6806965 2.0243466e-39
-1.429175 1.2820051 -1.6644342 6.5397338e-39
-1.4295889 1.2919105 -1.6606504 5.8007338e-39
-1.4322957 1.2981609 -1.6545409 2.5775232e-39
-1.4320734 1.3052467 -1.6526229 2.4874855e-39
-1.4324701 1.3127065 -1.6496434 3.6860329e-39
-1.4337211 1.3195953 -1.6455458 3.6856826e-39
-1.4335693 1.3394542 -1.6394526 8.9415692e-39
-1.4333744 1.3533775 -1.6353147 5.9869482e-39
-1.435424 1.3574667 -1.6308942 3.8686095e-39
-1.4320918 1.3727081 -1.6311102 4.6965625e-39
-1.4319419 1.3778982 -1.6296852 9.1980531e-40
-1.4357384 1.3874922 -1.6208533 5.5174025e-40
-1.4348644 1.3977002 -1.6189324 2.7551209e-40
-1.4331896 1.4103683 -1.6174458 1.8367379e-40
-1.4375505 1.4143403 -1.6095459 1.8367099e-40
-1.43641 1.4241928 -1.6081437 4.610136e-39
-1.4399554 1.4245592 -1.6026324 6.7317271e-39
-1.4473356 1.4213738 -1.5924181 5.0740289e-39
-1.4461336 1.4293355 -1.5917109 6.9175631e-39
-1.4483926 1.4498111 -1.581753 5.7175864e-39
-1.445538 1.4642694 -1.5814916 7.7451588e-39
-1.4454618 1.4762906 -1.5777791 7.3752875e-39
-1.4454192 1.4858052 -1.5748138 7.8348307e-39
-1.4461379 1.4933084 -1.571331 7.7422707e-39
-1.4482712 1.5000782 -1.5659292 8.3861898e-39
-1.448522 1.5071586 -1.5632927 9.3085146e-39
-1.4520437 1.5165967 -1.5549287 3.7789306e-39
-1.4511119 1.5214207 -1.55481 6.6369909e-39
-1.4523562 1.5286673 -1.5506088 4.7008911e-39
-1.4522289 1.5387115 -1.5476037 5.4373744e-39
-1.4514081 1.5507829 -1.5450078 4.2384752e-39
-1.4493768 1.5679778 -1.5426227 4.6998373e-39
-1.4503757 1.5755934 -1.5386776 5.0675339e-39
-1.4541919 1.5776968 -1.5322013 5.1611616e-39
-1.4563175 1.5876096 -1.5258102 7.0018414e-39
-1.4562688 1.5976175 -1.5226972 6.727044e-39
-1.4574605 1.6027757 -1.5192413 6.7299124e-39
-1.4546852 1.6224761 -1.5171897 7.7437028e-39
-1.456129 1.6318328 -1.5120133 7.5589528e-39
-1.4576499 1.6479627 -1.5045623 7.0072154e-39
-1.4983302 2.0292149 -1.3212488 6.1684248e-39
-1.3803833 0.75976354 -1.9049908 8.0196087e-39
-1.382414 0.76604319 -1.899901 1.1338295e-38
-1.3850687 0.76967132 -1.8947062 6.8239914e-39
-1.3813876 0.78061664 -1.8968214 5.708981e-39
-1.3836997 0.79334903 -1.8892483 5.5274274e-39
-1.3836282 0.80186576 -1.8866448 6.7284817e-39
-1.3848517 0.80812889 -1.8827891 6.550259e-39
-1.386664 0.82763803 -1.8738182 7.8359125e-39
-1.3878276 0.83404559 -1.8700069 8.2043321e-39
-1.3882333 0.83936012 -1.8676972 7.0987174e-39
-1.3894917 0.85007101 -1.8623714 7.6504492e-39
-1.3885323 0.85589147 -1.8619777 8.4798273e-39
-1.3884064 0.86626887 -1.8588641 8.6649445e-39
-1.3955903 0.86389351 -1.8486903 6.0845402e-39
-1.3898028 0.87581843 -1.8536986 8.7578548e-39
-1.3953913 0.88062966 -1.8436633 6.4522522e-39
-1.3927385 0.88934499 -1.8449242 6.8221179e-39
-1.4136701 1.1069756 -1.7437673 3.9644247e-39
-1.4150575 1.1136014 -1.7395457 3.5034395e-39
-1.4225844 1.114301 -1.7278708 6.5422674e-39
-1.4203151 1.1216199 -1.7289926 9.5821882e-39
-1.4308623 1.2084451 -1.685294 7.4616789e-39
-1.4308541 1.2188356 -1.6819977 3.499827e-39
-1.4310261 1.2351516 -1.6765393 3.130334e-39
-1.4322288 1.2413927 -1.672722 2.3924172e-39
-1.4355193 1.2502642 -1.6648902 5.5248588e-39
-1.43507 1.259747 -1.6625538 7.738263e-39
-1.4349219 1.2686713 -1.6599369 7.828665e-39
-1.436184 1.2767195 -1.6554533 7.8293726e-39
-1.4357462 1.2863123 -1.6530646 5.6177845e-39
-1.4339401 1.2971419 -1.6523638 4.6054655e-39
-1.4335215 1.3065454 -1.6500056 3.8711389e-39
-1.432372 1.3199376 -1.6474895 2.6704391e-39
-1.4364567 1.3255477 -1.6394883 3.0395719e-39
-1.4371598 1.3328514 -1.6360922 6.4478997e-39
-1.437863 1.3401551 -1.632696 7.6457437e-39
-1.438828 1.3445913 -1.6298152 8.4751218e-39
-1.4387645 1.3524858 -1.6273977 7.0921873e-39
-1.4383087 1.362536 -1.6248904 6.7241391e-39
-1.4387357 1.3843647 -1.6172891 1.1960335e-39
-1.439592 1.3956776 -1.6123832 3.6734759e-40
-1.4397095 1.4069492 -1.6086148 9.1841101e-41
-1.4427001 1.4158504 -1.60123 4.2377634e-39
-1.4446484 1.4222803 -1.5962179 7.2856212e-39
-1.448892 1.4205409 -1.5903152 9.4997456e-39
-1.4462166 1.4309056 -1.5910852 9.3135705e-39
-1.4475961 1.4426683 -1.5852398 7.0093972e-39
-1.4519008 1.4474359 -1.5771713 5.71865e-39
-1.4513228 1.458966 -1.5743794 7.5600543e-39
-1.45218 1.4685967 -1.5700082 7.7426336e-39
-1.4493617 1.4845337 -1.5692203 8.4812861e-39
-1.4510683 1.4861531 -1.566108 7.0057903e-39
-1.4512824 1.493191 -1.5635412 7.9266648e-39
-1.4548563 1.4995756 -1.5560697 7.7408246e-39
-1.4527153 1.5081984 -1.5565811 6.0813158e-39
-1.4534305 1.5361112 -1.5466032 6.5437289e-39
-1.4532464 1.5471778 -1.5433598 7.0036379e-39
-1.4561522 1.5717109 -1.5311253 3.5938331e-39
-1.4611728 1.5851511 -1.519206 4.6062012e-39
-1.4611299 1.5952296 -1.5160617 4.9767802e-39
-1.4601442 1.6163561 -1.5108334 7.7440588e-39
-1.4592155 1.631384 -1.5074599 8.2064999e-39
-1.4620333 1.6460993 -1.4984868 8.2047076e-39
-1.5081376 2.0246751 -1.3077729 6.9067073e-39
-1.3827852 0.74456149 -1.9061776 6.0856557e-39
-1.388024 0.77059209 -1.8899164 4.1506334e-39
-1.3918941 0.81051451 -1.871314 4.9785668e-39
-1.4162893 1.0995839 -1.7421364 4.6098053e-39
-1.4208453 1.1004423 -1.7349304 3.0439229e-39
-1.4223632 1.1060613 -1.7308319 3.0432027e-39
-1.4268351 1.1086749 -1.7231953 6.0802018e-39
-1.4374038 1.2124391 -1.674069 4.5096587e-39
-1.4372967 1.2210917 -1.6714761 2.1165478e-39
-1.4373206 1.2302966 -1.6685084 2.0268731e-39
-1.4400306 1.2375277 -1.6620823 2.6668433e-39
-1.440037 1.2480714 -1.6587144 5.3390382e-39
-1.4395993 1.2575485 -1.6563625 8.105598e-39
-1.4402878 1.2647024 -1.6530368 7.9212109e-39
-1.4390793 1.2753303 -1.6514903 9.1186737e-39
-1.4403089 1.2840955 -1.6468278 5.8028961e-39
-1.4410012 1.2912992 -1.6434808 2.6686328e-39
-1.4381459 1.3063279 -1.6430389 3.962603e-39
-1.4421953 1.3098526 -1.6357552 2.7629878e-39
-1.4410837 1.3232969 -1.633165 2.9466504e-39
-1.4405862 1.3328727 -1.630872 7.2754968e-39
-1.4454144 1.329394 -1.6246339 5.8958246e-39
-1.444235 1.3393281 -1.6232649 6.6326511e-39
-1.4442036 1.3483156 -1.6204501 6.9078003e-39
-1.4441117 1.3575414 -1.6176519 5.9862237e-39
-1.4429398 1.3693182 -1.6156847 2.0254354e-39
-1.447069 1.3749677 -1.6076025 1.562658e-39
-1.4418364 1.3928415 -1.6098719 3.6734899e-40
-1.4472022 1.3955965 -1.6008302 1.8367379e-40
-1.4463192 1.4070023 -1.5985414 2.7586522e-40
-1.4477959 1.4125495 -1.5945278 2.2108958e-39
-1.4519751 1.4110854 -1.5886352 8.2039901e-39
-1.4526783 1.4184546 -1.5852188 8.1153832e-39
-1.4527926 1.429047 -1.5816715 9.4968814e-39
-1.4564228 1.4343779 -1.5744501 6.3643921e-39
-1.4552375 1.4489944 -1.5715984 6.8228494e-39
-1.4558482 1.4597695 -1.567238 7.6522429e-39
-1.4554131 1.470368 -1.5645251 7.6508023e-39
-1.4546709 1.4805108 -1.5624237 8.7578688e-39
-1.459511 1.4729701 -1.5574607 7.098709e-39
-1.4571167 1.491044 -1.5553473 8.7571345e-39
-1.4570421 1.5008258 -1.552346 8.8471651e-39
-1.4600731 1.5046883 -1.5465041 3.9622709e-39
-1.4619896 1.5141124 -1.5405874 3.8740115e-39
-1.459728 1.5292652 -1.5392027 6.6330547e-39
-1.4591475 1.5414497 -1.5362049 6.4522381e-39
-1.4606998 1.5469822 -1.532081 5.5302903e-39
-1.4598898 1.5710586 -1.5256457 4.8849278e-39
-1.4593331 1.5834559 -1.5225452 4.4246588e-39
-1.4652264 1.5952144 -1.5098331 3.5938513e-39
-1.4640815 1.6089004 -1.5072166 7.3727581e-39
-1.464779 1.6368188 -1.4972647 1.2540055e-38
-1.5115733 2.0308583 -1.3005762 6.7223146e-39
-1.5147834 2.0267332 -1.2970054 7.2736947e-39
-1.3932829 0.803092 -1.8715645 4.3307017e-39
-1.3958933 0.80858123 -1.8658448 3.6885637e-39
-1.394156 0.8181631 -1.8654362 4.4239693e-39
-1.3959548 0.83049428 -1.8587728 4.242092e-39
-1.420766 1.0973967 -1.7360213 4.9793081e-39
-1.4261011 1.0969292 -1.7280525 1.7542813e-39
-1.4275054 1.1027434 -1.7240645 1.5698831e-39
-1.4269561 1.1124576 -1.7218068 7.9262864e-39
-1.4413325 1.2282718 -1.6630495 2.1161877e-39
-1.4397109 1.2411859 -1.6614038 3.2246947e-39
-1.4445387 1.2438492 -1.6532102 3.9575583e-39
-1.4441119 1.2533227 -1.6508423 8.3818303e-39
-1.4447986 1.2604779 -1.6475189 7.7389819e-39
-1.4454857 1.267633 -1.6441951 8.3821989e-39
-1.4454252 1.2738481 -1.6423074 6.8173787e-39
-1.4463576 1.2815791 -1.6384267 4.5125272e-39
-1.4451455 1.2929784 -1.6366405 4.141958e-39
-1.441788 1.3132488 -1.6352932 3.871513e-39
-1.4461335 1.3142165 -1.6283739 2.9466672e-39
-1.4474725 1.3224467 -1.6237149 4.6022131e-39
-1.4481695 1.3297518 -1.6203276 6.4464592e-39
-1.4488672 1.337057 -1.6169401 6.9081562e-39
-1.4488375 1.3460525 -1.6141206 6.8170354e-39
-1.4480299 1.3569663 -1.6118736 5.9883565e-39
-1.4482263 1.3681475 -1.608014 1.7463206e-39
-1.4511824 1.3809869 -1.5994272 3.6734899e-40
-1.4507422 1.3962283 -1.5952426 2.7550649e-40
-1.4533191 1.4081386 -1.5875288 1.2885934e-39
-1.4555429 1.4116503 -1.583027 1.0970202e-38
-1.4562457 1.4190433 -1.5796036 9.6816229e-39
-1.4569482 1.4264362 -1.57618 1.0048973e-38
-1.462474 1.4407214 -1.563223 9.2184812e-39
-1.4644302 1.4421972 -1.5597765 8.8507931e-39
-1.4620001 1.4606911 -1.5575844 8.4801931e-39
-1.4645305 1.4600425 -1.5539411 7.6500779e-39
-1.4623737 1.4745325 -1.5526073 8.387287e-39
-1.4597578 1.4919769 -1.5510322 9.9553484e-39
-1.4607347 1.4994754 -1.5471578 1.1612699e-38
-1.4625274 1.5060151 -1.5423473 7.0025463e-39
-1.4634467 1.515872 -1.5378098 5.4417128e-39
-1.4659842 1.523721 -1.5314494 5.3466151e-39
-1.4666983 1.5312811 -1.5279548 5.4395338e-39
-1.4648662 1.5467877 -1.5258042 6.7288461e-39
-1.4658542 1.5543628 -1.5218884 5.9919887e-39
-1.4668422 1.5619379 -1.5179727 5.3451829e-39
-1.4673595 1.5720561 -1.5139633 4.4243182e-39
-1.467289 1.5822109 -1.5108365 5.3444851e-39
-1.4690379 1.5962374 -1.5037085 3.317249e-39
-1.4697628 1.6039474 -1.5001498 6.7284691e-39
-1.5142016 2.0264881 -1.2979686 7.1843774e-39
-1.5199444 2.0241945 -1.2899615 7.0903825e-39
-1.3936327 0.73810345 -1.8917297 4.5180203e-39
-1.3991702 0.80095774 -1.8632869 3.2275827e-39
-1.4002643 0.80631185 -1.8599172 3.1360934e-39
-1.4027162 0.8261084 -1.8498819 3.8729479e-39
-1.4025501 0.83227748 -1.8481698 4.2435353e-39
-1.4021133 0.84411699 -1.845064 5.5313987e-39
-1.4029908 0.85085434 -1.8415831 5.8087044e-39
-1.4291228 1.0889386 -1.7259998 5.2566097e-39
-1.432457 1.0916049 -1.720078 1.2000272e-39
-1.4327295 1.0992357 -1.7172328 1.5702306e-39
-1.4345224 1.1043155 -1.7128874 6.4511493e-39
-1.4372504 1.1090155 -1.7072402 8.4736672e-39
-1.4473302 1.2145815 -1.6582837 4.9717075e-39
-1.4469539 1.2237926 -1.6559229 4.3270513e-39
-1.4465153 1.2331799 -1.6536003 3.4973005e-39
-1.4495758 1.2385142 -1.6472447 5.3394138e-39
-1.4504955 1.2471663 -1.6430906 4.4203231e-39
-1.4506745 1.2575547 -1.6395096 3.866806e-39
-1.4513574 1.2647107 -1.6361916 5.4330471e-39
-1.4519911 1.2705792 -1.6333581 6.1741631e-39
-1.4509102 1.2793498 -1.6322099 4.0501393e-39
-1.4497743 1.2905543 -1.6303699 4.9716991e-39
-1.4523997 1.2991716 -1.6236305 3.4072838e-39
-1.4498603 1.3103259 -1.623942 3.4036895e-39
-1.4503917 1.3216666 -1.619522 7.0918314e-39
-1.4486737 1.3352298 -1.6178166 6.6304973e-39
-1.4496294 1.3425683 -1.6140248 6.9978533e-39
-1.4505856 1.3499072 -1.6102332 6.8156131e-39
-1.4515648 1.3573898 -1.6063601 5.5255903e-39
-1.4514248 1.3672425 -1.6034355 2.7597536e-39
-1.4549395 1.3716193 -1.5966941 1.1949517e-39
-1.4531944 1.383401 -1.5955967 8.2652367e-40
-1.4573702 1.3890656 -1.5874395 8.268824e-40
-1.4573212 1.3984134 -1.5845371 3.6734899e-40
-1.4565132 1.4093657 -1.5822783 8.4077908e-45
-1.4602276 1.4093567 -1.5766294 1.0970561e-38
-1.4609715 1.415107 -1.573667 1.1247514e-38
-1.4645115 1.4134244 -1.5688163 9.6801838e-39
-1.4637433 1.4307896 -1.5644546 9.8638478e-39
-1.4647757 1.4360572 -1.561206 1.032556e-38
-1.4688823 1.4400266 -1.553694 8.5738306e-39
-1.4638838 1.4539336 -1.5568708 1.0600687e-38
-1.4689825 1.4578896 -1.5478529 7.5586081e-39
-1.4661154 1.4746939 -1.5468631 8.7571471e-39
-1.4670846 1.4821385 -1.5430175 8.7564226e-39
-1.4684346 1.4884963 -1.5389392 9.3988998e-39
-1.4653174 1.5079536 -1.5374855 9.8598835e-39
-1.4672774 1.5133259 -1.5327923 3.8715004e-39
-1.4702221 1.521558 -1.5256901 7.2820114e-39
-1.4736319 1.5209681 -1.5206897 4.9774794e-39
-1.4711301 1.5397843 -1.5185039 5.1611364e-39
-1.4705861 1.5521264 -1.5154006 6.7270244e-39
-1.4721384 1.5798386 -1.5042135 4.4239539e-39
-1.4751973 1.5822977 -1.4987762 2.1187058e-39
-1.4753566 1.5968589 -1.4938967 5.6221257e-39
-1.4753714 1.6013105 -1.4924568 7.0061364e-39
-1.4767823 1.6234149 -1.4832698 6.9150408e-39
-1.4761389 1.6347826 -1.4806283 1.1064573e-38
-1.5222352 2.0205746 -1.287629 7.5517221e-39
-1.4022026 0.78508919 -1.8637269 2.3031377e-39
-1.4035048 0.79036695 -1.8600646 2.3052803e-39
-1.4034542 0.79878843 -1.8574597 2.3056418e-39
-1.4055624 0.8043049 -1.852495 1.9368593e-39
-1.4043015 0.8126018 -1.8517715 2.028699e-39
-1.404899 0.81979108 -1.8485731 2.5808106e-39
-1.4093368 0.82182723 -1.8411721 2.8580912e-39
-1.4088544 0.82932192 -1.839519 2.8620414e-39
-1.4090612 0.84090769 -1.8355149 3.5974527e-39
-1.4072034 0.84886658 -1.8358066 4.7952826e-39
-1.4072005 0.86720228 -1.8299721 3.7821984e-39
-1.4104543 0.88715547 -1.8186668 2.1230372e-39
-1.4353985 1.0829983 -1.7183435 4.8881676e-39
-1.4371105 1.0869941 -1.714466 8.2982373e-40
-1.437694 1.0975958 -1.7102016 1.5709621e-39
-1.439415 1.101988 -1.7061843 7.5578584e-39
-1.4522125 1.2115825 -1.6518101 8.4740442e-39
-1.4521919 1.2200433 -1.6491472 8.1059721e-39
-1.4510182 1.2309783 -1.6474501 8.1981565e-39
-1.4530344 1.2373855 -1.6423422 7.9208634e-39
-1.4539236 1.2472935 -1.6378342 2.4835157e-39
-1.4522132 1.2604229 -1.6362549 3.6820617e-39
-1.4548229 1.2648519 -1.6308734 2.9444952e-39
-1.4563046 1.2684758 -1.6274656 2.4857031e-39
-1.4544356 1.2793515 -1.6268455 4.0497526e-39
-1.456391 1.2851959 -1.6220088 6.7259145e-39
-1.4523518 1.3013295 -1.6230167 8.3832863e-39
-1.4548727 1.3049872 -1.6180159 6.3553384e-39
-1.4581726 1.3109102 -1.6111091 5.4348296e-39
-1.4582082 1.3233837 -1.6070822 4.9713613e-39
-1.4542124 1.3404044 -1.6077411 5.4290955e-39
-1.4551678 1.3477442 -1.6039503 5.338339e-39
-1.456987 1.3532466 -1.59943 4.6022131e-39
-1.4569163 1.36245 -1.5966064 4.0497442e-39
-1.4578866 1.381115 -1.5891858 2.2094343e-39
-1.4599249 1.3853624 -1.5847317 2.4845806e-39
-1.458744 1.3987435 -1.5822669 6.4287089e-40
-1.4637296 1.4063123 -1.572271 1.1247517e-38
-1.4677918 1.4055755 -1.5663249 1.0048606e-38
-1.4684865 1.4129474 -1.5629205 8.4809232e-39
-1.4680898 1.4347669 -1.5565747 9.0355319e-39
-1.4675317 1.4443636 -1.554368 1.0048606e-38
-1.4727702 1.4484921 -1.5450824 8.6638781e-39
-1.4697706 1.4614213 -1.5455287 8.1110504e-39
-1.472872 1.4664477 -1.5392091 7.0976244e-39
-1.4727342 1.4770042 -1.5360571 7.834095e-39
-1.4739301 1.4839487 -1.5320258 8.1074379e-39
-1.4710699 1.5025628 -1.5304494 9.3988984e-39
-1.4720449 1.5100638 -1.5265766 7.0025449e-39
-1.4763187 1.5167531 -1.5179443 6.3568181e-39
-1.4738737 1.5285856 -1.5178958 4.7956133e-39
-1.4743353 1.5423105 -1.5128226 7.190892e-39
-1.4770498 1.5510021 -1.5059247 5.2529831e-39
-1.4783654 1.5557621 -1.502407 5.1601008e-39
-1.480549 1.5833787 -1.4902893 3.8632355e-39
-1.4805174 1.5875213 -1.4890182 4.2381179e-39
-1.4814442 1.6106708 -1.4802356 8.2039635e-39
-1.4821427 1.6286869 -1.4734353 1.0051136e-38
-1.5338249 2.0608401 -1.2571719 2.787533e-40
-1.4079968 0.78181195 -1.8559545 1.568081e-39
-1.4046078 0.79105121 -1.8581688 2.1205345e-39
-1.4108295 0.79265553 -1.8481911 1.6599039e-39
-1.4118171 0.80051476 -1.8441858 9.2451227e-40
-1.4112723 0.80817062 -1.842577 1.3844114e-39
-1.4103787 0.81616575 -1.8413903 1.6599207e-39
-1.4146761 0.81866699 -1.8340551 2.8584429e-39
-1.4107262 0.827595 -1.8372214 2.9538853e-39
-1.413496 0.83387917 -1.8310056 3.2293778e-39
-1.4125422 0.84579474 -1.8286619 4.4272189e-39
-1.4141598 0.84838629 -1.8253758 3.0431915e-39
-1.4135103 0.85569173 -1.8240373 3.1372018e-39
-1.416768 0.90881479 -1.8021625 3.2297533e-39
-1.4394428 1.0885177 -1.7104323 9.5480273e-41
-1.4439886 1.0922848 -1.7023164 1.0163548e-39
-1.4446511 1.0992192 -1.6990998 6.0823668e-39
-1.456336 1.2101099 -1.6460049 8.0134136e-39
-1.4563098 1.2256093 -1.6411089 9.0304704e-39
-1.4588045 1.2412858 -1.6323208 2.3016523e-39
-1.4594595 1.248235 -1.6291109 2.8551849e-39
-1.4624126 1.2539928 -1.6227843 2.6707964e-39
-1.4606228 1.2663677 -1.6215663 2.6700817e-39
-1.460059 1.2747549 -1.6197535 4.5089216e-39
-1.4596797 1.2843379 -1.6172786 7.275501e-39
-1.4599348 1.2921829 -1.6143919 7.6475401e-39
-1.4598129 1.3019191 -1.6114767 6.3553496e-39
-1.4594672 1.3137615 -1.6082309 6.4468179e-39
-1.4600549 1.3226526 -1.6045052 5.4327248e-39
-1.4603428 1.334507 -1.6002921 5.5223673e-39
-1.4616687 1.3419069 -1.5959178 4.0511945e-39
-1.4607072 1.3529204 -1.5938733 4.6965653e-39
-1.4616617 1.3602613 -1.5900836 5.4315898e-39
-1.4644336 1.3627801 -1.5850637 4.4181539e-39
-1.4640664 1.3750564 -1.5817125 2.7611689e-39
-1.4640058 1.3843396 -1.5788482 1.563716e-39
-1.4652196 1.3905344 -1.5750287 1.8367099e-40
-1.4640745 1.4039505 -1.5724983 4.2038954e-45
-1.467756 1.4045011 -1.5667216 9.496538e-39
-1.4717346 1.4052184 -1.5604392 1.0047164e-38
-1.4731395 1.4106447 -1.556574 9.4025179e-39
-1.4738294 1.4180182 -1.553176 9.4043144e-39
-1.4734732 1.4282802 -1.5504501 9.4950723e-39
-1.4727217 1.439692 -1.5479589 8.9422586e-39
-1.4731058 1.4495751 -1.5442269 1.0233723e-38
-1.4744701 1.4568979 -1.5398191 7.9273752e-39
-1.4779425 1.4629385 -1.5326124 8.1103344e-39
-1.4790143 1.4710279 -1.5284052 6.7277614e-39
-1.478635 1.4816588 -1.5255967 7.3688177e-39
-1.4786439 1.4912179 -1.5225385 9.3978292e-39
-1.4786159 1.5009354 -1.5194867 5.9869552e-39
-1.482017 1.5051907 -1.5129566 3.4116012e-39
-1.4791164 1.5292794 -1.5096982 5.433078e-39
-1.4829582 1.5372192 -1.5013245 5.5317252e-39
-1.4826409 1.5461812 -1.498953 5.7139682e-39
-1.483083 1.5535085 -1.4959465 5.9855231e-39
-1.4824647 1.568079 -1.4922472 5.9008706e-39
-1.4869584 1.5695915 -1.4849285 3.3150994e-39
-1.4875805 1.5796059 -1.4807925 4.5085923e-39
-1.4863771 1.5896225 -1.4794337 8.0199436e-39
-1.488539 1.61054 -1.4694825 7.2823842e-39
-1.4894756 1.6178499 -1.4657295 9.3128474e-39
-1.4869881 1.6365986 -1.4635432 7.6551324e-39
-1.5304947 2.016196 -1.2764566 6.2606162e-39
-1.5335507 2.0201321 -1.2705532 6.8119963e-39
-1.412093 0.78551096 -1.8485439 2.213456e-39
-1.4132346 0.79179746 -1.8448048 1.1121279e-39
-1.4185284 0.79518437 -1.8356718 1.1067441e-39
-1.4180299 0.80255294 -1.8340843 1.289685e-39
-1.4165767 0.81277728 -1.8330389 1.4751679e-39
-1.4151355 0.81937826 -1.833129 4.5194005e-39
-1.416132 0.82446891 -1.8299917 2.6773012e-39
-1.4152012 0.83763641 -1.8272142 3.4123411e-39
-1.4202576 0.83726412 -1.8196397 2.6747691e-39
-1.4195927 0.845043 -1.8181744 2.3996199e-39
-1.4184222 0.85298425 -1.8174262 2.859896e-39
-1.4224993 0.88747495 -1.8002384 3.596368e-39
-1.4198618 0.89645249 -1.8013922 2.5836525e-39
-1.4269061 0.96854186 -1.7677158 2.1183933e-39
-1.4430012 1.0911127 -1.7041917 1.2943682e-39
-1.4476197 1.0914561 -1.6970556 1.1996628e-39
-1.4490467 1.0970836 -1.6930922 6.0820067e-39
-1.4619005 1.2056859 -1.6389483 7.9212137e-39
-1.4614898 1.2149942 -1.6366085 7.8293768e-39
-1.4601761 1.22387 -1.6357801 9.0308235e-39
-1.4624231 1.2321651 -1.6297202 7.4609712e-39
-1.4623797 1.2408333 -1.6270252 2.8519395e-39
-1.4638296 1.2439877 -1.6238148 5.0664436e-39
-1.4620278 1.2530148 -1.6236815 3.4958725e-39
-1.4612842 1.2642856 -1.6212232 4.5085881e-39
-1.4660181 1.2672062 -1.6130904 3.9546815e-39
-1.4644796 1.28057 -1.6111751 7.8275916e-39
-1.4649035 1.2872062 -1.6084169 6.8199262e-39
-1.465871 1.2962595 -1.6040615 6.2642329e-39
-1.4651171 1.3090624 -1.6011312 6.6319351e-39
-1.4647646 1.3187947 -1.5985684 5.0649919e-39
-1.468158 1.3261467 -1.5910635 4.7862386e-39
-1.4658664 1.3396482 -1.5902508 5.8922288e-39
-1.4668168 1.3469583 -1.5864764 5.3401355e-39
-1.4672742 1.3554851 -1.5830648 5.5238008e-39
-1.4682239 1.3628075 -1.5792879 5.1560721e-39
-1.4691736 1.3701303 -1.5755111 3.9579059e-39
-1.4675987 1.3840485 -1.5734744 2.9426875e-39
-1.467544 1.3941135 -1.570352 8.2652647e-40
-1.4717822 1.4026899 -1.5611722 8.3890961e-39
-1.4744014 1.4064128 -1.556002 1.0969119e-38
-1.477816 1.4083568 -1.5501873 9.5872623e-39
-1.4785037 1.4157314 -1.5467925 9.6790964e-39
-1.4791915 1.4231056 -1.5433974 9.7716536e-39
-1.4788494 1.4333848 -1.5406443 9.1259282e-39
-1.4803776 1.4382983 -1.5367547 8.573832e-39
-1.4816049 1.4533598 -1.5300901 8.9422502e-39
-1.4825649 1.4607543 -1.5262747 8.1103302e-39
-1.4844568 1.4666491 -1.5215188 6.1738744e-39
-1.4840904 1.4772584 -1.5186975 7.2740983e-39
-1.4840642 1.4868432 -1.5156846 9.2137896e-39
-1.4845318 1.4988322 -1.5111552 7.0021651e-39
-1.4852282 1.5063518 -1.5077012 5.4352234e-39
-1.4848813 1.5151608 -1.5054232 3.8704172e-39
-1.4867139 1.5214176 -1.5006425 4.4214246e-39
-1.4850727 1.5369978 -1.4981773 8.6642536e-39
-1.4853519 1.5484316 -1.4941117 6.9064046e-39
-1.4881555 1.5490873 -1.4896369 4.5107363e-39
-1.4866052 1.5662165 -1.4865408 5.1626021e-39
-1.4892133 1.5805787 -1.4779983 3.1289061e-39
-1.4906915 1.5846069 -1.4744661 4.5150621e-39
-1.4899998 1.5994215 -1.470801 8.018859e-39
-1.4936228 1.6053934 -1.4633863 7.55932e-39
-1.4943327 1.6130853 -1.459857 8.3890975e-39
-1.4933957 1.6233476 -1.4580144 8.6674696e-39
-1.5403284 2.0182459 -1.2608416 6.9956673e-39
-1.4163222 0.77702677 -1.8448116 9.2093195e-40
-1.4171772 0.78361201 -1.8414137 2.8570051e-39
-1.42071 0.78781295 -1.8347002 3.9630108e-39
-1.4213803 0.79542851 -1.8312547 5.254816e-39
-1.4219784 0.80064005 -1.8286854 3.1332333e-39
-1.4219576 0.80968243 -1.825837 1.5723942e-39
-1.4215109 0.81581557 -1.8245637 2.4896604e-39
-1.4203578 0.82241404 -1.8242164 2.6762208e-39
-1.4184289 0.83543473 -1.8230047 3.6896455e-39
-1.4222316 0.83672059 -1.8168094 4.058428e-39
-1.4208924 0.84433752 -1.8164215 2.952086e-39
-1.4234833 0.85010165 -1.8106436 2.7669745e-39
-1.4260198 0.89339232 -1.7929971 2.9524392e-39
-1.4266632 0.9000091 -1.7899114 1.8475322e-39
-1.4276026 0.91497558 -1.7837155 2.2163147e-39
-1.4467041 1.0902276 -1.6988392 2.9517273e-39
-1.4509666 1.0911299 -1.6920667 3.7169862e-40
-1.4534454 1.0949452 -1.6870804 5.4366443e-39
-1.4543953 1.0974793 -1.6848284 1.0409802e-38
-1.4639804 1.1854182 -1.642238 3.7789642e-39
-1.4639953 1.2036859 -1.6363972 8.9375461e-39
-1.4650118 1.2232543 -1.6286186 9.0293577e-39
-1.4659286 1.2303272 -1.6249716 9.3970767e-39
-1.4665575 1.2507875 -1.6174986 3.6795533e-39
-1.4716388 1.2538881 -1.6087801 3.679898e-39
-1.4712756 1.2633771 -1.6063102 3.7717335e-39
-1.4704189 1.2750745 -1.6038888 7.0914769e-39
-1.471553 1.2826099 -1.5997633 6.6348343e-39
-1.4715439 1.2914423 -1.5969646 6.1727632e-39
-1.4724361 1.2979404 -1.5935374 6.3582208e-39
-1.4711016 1.3101505 -1.5916793 5.8936624e-39
-1.4737878 1.3191477 -1.5847268 5.1553827e-39
-1.472477 1.3323644 -1.582512 5.9840685e-39
-1.4724054 1.3422129 -1.5794847 5.2501034e-39
-1.4728595 1.3507367 -1.5760788 5.8000276e-39
-1.4744428 1.3563906 -1.5718694 4.6021921e-39
-1.4737469 1.3679808 -1.569237 4.5085671e-39
-1.4770954 1.379648 -1.5604267 9.1907803e-40
-1.4758089 1.4008785 -1.5556227 7.5589655e-39
-1.4818106 1.3986908 -1.5471874 1.0322664e-38
-1.4824959 1.4060662 -1.5437962 9.1252009e-39
-1.4838656 1.4114999 -1.5399822 9.03372e-39
-1.4845484 1.4188614 -1.5365986 9.7709333e-39
-1.4852977 1.4294585 -1.5320835 9.2181182e-39
-1.4859821 1.4368492 -1.5286885 9.1277261e-39
-1.4867325 1.4455497 -1.5247756 6.8210403e-39
-1.488236 1.4499122 -1.5210991 7.8337545e-39
-1.4891307 1.4644274 -1.515115 5.8058023e-39
-1.488775 1.4750314 -1.5122788 6.6272771e-39
-1.4888023 1.4845444 -1.5092081 9.1194346e-39
-1.4871086 1.5002989 -1.5067673 9.3045545e-39
-1.4899993 1.5040251 -1.5011826 7.0936601e-39
-1.4882632 1.5191852 -1.4989955 6.2559877e-39
-1.49125 1.5190955 -1.49448 5.064643e-39
-1.4879222 1.5357406 -1.4942425 5.8922512e-39
-1.4910787 1.5429357 -1.4871484 7.9137056e-39
-1.4920584 1.5504951 -1.4832501 7.4516526e-39
-1.4930382 1.5580546 -1.4793521 6.6262093e-39
-1.4933246 1.5653586 -1.4765905 7.2787562e-39
-1.4933538 1.5787163 -1.4722915 3.312954e-39
-1.4948677 1.58456 -1.4681273 4.3292275e-39
-1.4957118 1.5916673 -1.4645796 7.0050616e-39
-1.4985062 1.6029937 -1.4567207 7.7433525e-39
-1.4985536 1.6130459 -1.4534472 8.2039789e-39
-1.5421485 2.0133348 -1.2596368 6.44429e-39
-1.4214741 0.77423638 -1.8378612 1.1960475e-39
-1.4223254 0.78080642 -1.834474 4.3325094e-39
-1.4231764 0.78737664 -1.8310863 7.745184e-39
-1.4241393 0.79483867 -1.8272456 2.9499042e-39
-1.426165 0.80763727 -1.8200871 2.2141693e-39
-1.4255018 0.81388044 -1.8191077 2.5822161e-39
-1.4241832 0.82576472 -1.8173292 2.4925372e-39
-1.4261833 0.8344593 -1.8115166 2.2148699e-39
-1.4276197 0.84114474 -1.8072026 2.1226771e-39
-1.4265134 0.84921485 -1.8063157 3.5045606e-39
-1.4278332 0.85590464 -1.8021768 3.6874861e-39
-1.4284382 0.87011141 -1.7967321 4.9818248e-39
-1.4283153 0.87770796 -1.7944993 3.4159425e-39
-1.4295015 0.88458407 -1.7905052 3.5996149e-39
-1.452235 1.086247 -1.691692 3.9669344e-39
-1.4543453 1.0894393 -1.6874647 9.6203343e-41
-1.4587332 1.0863613 -1.6817683 2.6722509e-39
-1.459578 1.0923142 -1.6785867 6.7259257e-39
-1.4678364 1.2019582 -1.6311036 8.2921767e-39
-1.4702556 1.2152811 -1.6231793 8.5691195e-39
-1.4728436 1.2274584 -1.615364 4.9720592e-39
-1.4735069 1.2345439 -1.6120981 4.3259835e-39
-1.4728134 1.2446676 -1.6099293 3.773523e-39
-1.4768456 1.2500873 -1.6020681 6.2627756e-39
-1.4754066 1.2624667 -1.6003149 8.563007e-39
-1.474885 1.2729588 -1.5977674 5.6199565e-39
-1.4766271 1.2789984 -1.5931933 5.5302973e-39
-1.4743439 1.2929935 -1.5922102 6.2649798e-39
-1.4753784 1.2997463 -1.5884858 6.5397506e-39
-1.4767885 1.3053507 -1.5845554 6.6323442e-39
-1.4792898 1.311538 -1.5787787 4.972083e-39
-1.4787519 1.3215054 -1.5764228 4.5118237e-39
-1.48049 1.3257337 -1.5724319 5.8033052e-39
-1.479484 1.3377773 -1.5701274 7.185106e-39
-1.4798369 1.3522549 -1.5649794 4.0486722e-39
-1.4797776 1.3614813 -1.5621312 3.036681e-39
-1.4808307 1.3652008 -1.5593446 2.2087252e-39
-1.4808984 1.3856881 -1.5527164 0
-1.4821584 1.3926241 -1.5485911 6.4533382e-39
-1.4834177 1.3995603 -1.5444655 1.1983649e-38
-1.4878533 1.4018612 -1.536984 9.1251939e-39
-1.4885336 1.4092239 -1.5336039 9.4021438e-39
-1.4884907 1.4186084 -1.5306809 9.7720109e-39
-1.4913713 1.4231809 -1.5248418 9.3099523e-39
-1.4913342 1.4326 -1.5218986 9.2191916e-39
-1.4896431 1.446956 -1.5198995 7.7437168e-39
-1.4903275 1.454386 -1.5164919 6.7281174e-39
-1.4934946 1.4550493 -1.5114617 6.4515445e-39
-1.4947544 1.4619853 -1.5073364 6.5372409e-39
-1.494036 1.4780914 -1.5032998 8.5651706e-39
-1.4941844 1.4905668 -1.4991009 9.577173e-39
-1.496322 1.489851 -1.4960771 9.5825455e-39
-1.4951452 1.5037383 -1.4934449 8.2831775e-39
-1.494257 1.5160131 -1.4908867 7.5424147e-39
-1.4964308 1.5203269 -1.4862053 6.6254947e-39
-1.4987175 1.5313011 -1.4792309 7.6331418e-39
-1.4977516 1.5444183 -1.4765236 6.8952194e-39
-1.5000008 1.5512112 -1.4709383 6.1648627e-39
-1.4997121 1.5621619 -1.4678897 6.1695374e-39
-1.498773 1.5742408 -1.4654719 4.0515616e-39
-1.5013678 1.5764775 -1.4608115 4.4210672e-39
-1.4997065 1.5922941 -1.4583019 8.0184933e-39
-1.5036429 1.5955489 -1.4512762 7.0987006e-39
-1.5043077 1.6030593 -1.4478728 7.0065189e-39
-1.5038857 1.6146958 -1.4448088 9.7723906e-39
-1.5500232 2.0136495 -1.2475549 7.4566454e-39
-1.425328 0.7205562 -1.8490936 3.2257891e-39
-1.4247373 0.76571643 -1.83561 3.9673156e-39
-1.4255874 0.77228767 -1.8322238 1.0127674e-39
-1.4265128 0.77875912 -1.8287547 2.7680493e-39
-1.4265459 0.78482848 -1.8267716 1.8734099e-40
-1.4276804 0.79107654 -1.8230554 4.1198175e-43
-1.4292095 0.79823762 -1.8184482 4.6606346e-40
-1.4304579 0.8055017 -1.8142353 1.2911382e-39
-1.4321173 0.80951506 -1.8104322 2.3056292e-39
-1.4307318 0.81650978 -1.8103129 2.3996353e-39
-1.428372 0.8299765 -1.8096143 3.5052542e-39
-1.4322563 0.83144826 -1.8032357 1.9382816e-39
-1.430128 0.83947062 -1.8039196 2.7669787e-39
-1.4322712 0.84570551 -1.7986728 1.9364992e-39
-1.4327164 0.86803013 -1.7908853 4.5215656e-39
-1.4333634 0.87478471 -1.7877501 3.968396e-39
-1.4345548 0.88164753 -1.7837515 4.4275721e-39
-1.4333163 0.89807016 -1.7804056 3.1386409e-39
-1.4428035 0.96527964 -1.7445668 2.3059768e-39
-1.4438782 0.97185242 -1.7408384 4.7045163e-39
-1.4458237 0.97774982 -1.7360001 2.9527923e-39
-1.4453726 0.98618257 -1.734001 2.7673375e-39
-1.4557623 1.078154 -1.6889031 3.1386227e-39
-1.4572531 1.0850428 -1.6844403 1.8663754e-40
-1.4640572 1.0822767 -1.6749687 2.2116189e-39
-1.463618 1.090803 -1.6729214 6.3593068e-39
-1.476418 1.2084545 -1.6159781 5.341974e-39
-1.4762411 1.2267756 -1.6104118 5.8000122e-39
-1.4771531 1.2338325 -1.6067775 9.1201226e-39
-1.478664 1.239426 -1.6026968 7.5542347e-39
-1.4801741 1.2489893 -1.5973538 7.6457128e-39
-1.4793787 1.2614576 -1.5945926 9.1190422e-39
-1.4803175 1.270213 -1.590376 4.3252605e-39
-1.4802794 1.277983 -1.5879595 5.8040045e-39
-1.4806539 1.2870039 -1.5845175 4.1455635e-39
-1.4813221 1.2942153 -1.5812036 5.1568344e-39
-1.4812886 1.3031172 -1.5784199 5.8014527e-39
-1.4801372 1.3161807 -1.5760112 7.6493114e-39
-1.4831735 1.3171772 -1.571074 7.5585717e-39
-1.4837655 1.326493 -1.5672066 6.5400883e-39
-1.4844059 1.3335927 -1.5639713 4.5107405e-39
-1.4845368 1.343755 -1.5605358 3.5913192e-39
-1.4857179 1.3490194 -1.5570617 2.3927606e-39
-1.4855676 1.3738264 -1.5493904 1.1027462e-39
-1.4838662 1.385157 -1.5483701 6.4284847e-40
-1.4859142 1.391364 -1.5432777 2.4878625e-39
-1.4881704 1.393147 -1.5392767 1.0508507e-38
-1.4931892 1.3976862 -1.5301948 9.9553204e-39
-1.4948545 1.4021996 -1.5262244 1.0045713e-38
-1.4945407 1.4123864 -1.5234572 9.8642121e-39
-1.4959906 1.4210153 -1.5185033 9.2184742e-39
-1.4948765 1.4310541 -1.5170013 1.0048962e-38
-1.4959817 1.4397857 -1.5125391 8.2046824e-39
-1.4950361 1.4520998 -1.5100561 6.9117842e-39
-1.4974941 1.4532502 -1.50595 6.4515445e-39
-1.5005965 1.4568033 -1.5000981 6.3550133e-39
-1.4992769 1.4744411 -1.4964883 7.9151377e-39
-1.4991583 1.4793034 -1.49512 7.7332576e-39
-1.4993417 1.4894425 -1.4916122 8.098087e-39
-1.5015512 1.4961336 -1.4861197 7.1685707e-39
-1.5024945 1.5035685 -1.4823165 6.8037525e-39
-1.5006062 1.5186472 -1.4803876 7.7235466e-39
-1.5041076 1.5243635 -1.4732393 6.7111981e-39
-1.5042131 1.5365217 -1.469207 6.8044657e-39
-1.5034436 1.5503304 -1.4659797 5.8886443e-39
-1.5034778 1.561137 -1.4624869 6.721279e-39
-1.5055089 1.5664876 -1.4576924 4.6065431e-39
-1.5062044 1.5741125 -1.4542058 5.068589e-39
-1.5052166 1.5876164 -1.451408 8.0188548e-39
-1.5068613 1.5967674 -1.4459912 7.7429882e-39
-1.5089556 1.6007833 -1.4415259 7.0054343e-39
-1.5084969 1.612433 -1.4385138 8.8511532e-39
-1.5512221 1.9917865 -1.2526934 4.8755518e-39
-1.4288543 0.76376462 -1.8299673 3.968403e-39
-1.4300466 0.77015579 -1.8261175 9.3299853e-41
-1.4313828 0.77616006 -1.8221725 3.1350424e-39
-1.4301484 0.78320789 -1.8218064 9.5862197e-39
-1.4312829 0.78945595 -1.8180902 8.1157546e-39
-1.4352646 0.79575861 -1.8100252 5.1662203e-39
-1.4385184 0.79995483 -1.803738 1.2925675e-39
-1.4385581 0.8052898 -1.8019788 2.122317e-39
-1.4349415 0.81446183 -1.8045599 2.3081502e-39
-1.4336091 0.82698029 -1.8026003 3.3205042e-39
-1.4387873 0.82704014 -1.7947026 1.9386334e-39
-1.4354925 0.83630037 -1.796767 2.5832979e-39
-1.4350218 0.84410232 -1.7949988 2.4907562e-39
-1.4366248 0.85078037 -1.790433 4.7956427e-39
-1.4388441 0.87956166 -1.77789 4.3361051e-39
-1.4394871 0.88632888 -1.7747562 3.9698351e-39
-1.4383118 0.89520079 -1.773719 3.138285e-39
-1.4414278 0.90575904 -1.7656151 1.9397208e-39
-1.44484 0.91784 -1.7565764 2.3085019e-39
-1.4464179 0.92312288 -1.7524933 3.2297421e-39
-1.4445608 0.93836308 -1.7504654 2.2141623e-39
-1.4440886 0.94665724 -1.748542 2.2145182e-39
-1.4447376 0.95351368 -1.7453715 2.0304871e-39
-1.4499271 0.95176101 -1.738034 7.3759306e-40
-1.4477427 0.96065336 -1.7385249 2.6754908e-39
-1.4526547 0.97217649 -1.7273817 2.6762096e-39
-1.4532998 0.97901195 -1.7242231 2.4918296e-39
-1.4521918 0.98835528 -1.7229332 3.7818397e-39
-1.4517536 0.99681139 -1.7209072 5.2580516e-39
-1.4557678 1.0370104 -1.701997 2.7673276e-39
-1.4546092 1.0549127 -1.6980591 2.3067124e-39
-1.4592806 1.0810575 -1.6826247 3.0471417e-39
-1.4633206 1.0793339 -1.6770266 6.4867647e-40
-1.4653997 1.0826916 -1.6727936 1.2000061e-39
-1.4680094 1.0886562 -1.666924 5.8068603e-39
-1.4778299 1.1935037 -1.6185912 5.2501315e-39
-1.4807428 1.1974169 -1.612913 4.9706425e-39
-1.4816483 1.2044146 -1.6093063 5.7078404e-39
-1.4814348 1.2133554 -1.6067837 5.9855287e-39
-1.4825001 1.2300829 -1.5998356 8.1970817e-39
-1.4838562 1.2380348 -1.59524 8.1056064e-39
-1.4828486 1.2490116 -1.5932771 8.473684e-39
-1.4827241 1.2593298 -1.5901806 7.6442625e-39
-1.4841666 1.2638535 -1.5865455 5.615684e-39
-1.4861958 1.2735978 -1.5803545 5.2504692e-39
-1.4862119 1.2823697 -1.5775366 5.0642744e-39
-1.4858948 1.2919869 -1.5749556 5.1564729e-39
-1.4858638 1.300896 -1.5721658 5.9851265e-39
-1.4880563 1.3030015 -1.5681593 8.0181261e-39
-1.4892821 1.3097515 -1.5641445 7.9259305e-39
-1.4881408 1.324378 -1.5612228 6.6337189e-39
-1.4863646 1.3345966 -1.560671 5.8021814e-39
-1.4856164 1.344748 -1.5585765 4.0472414e-39
-1.4867361 1.3525828 -1.554378 2.9419729e-39
-1.4902364 1.362358 -1.545939 2.298044e-39
-1.4895284 1.3734946 -1.5434694 1.1945817e-39
-1.4922597 1.3844564 -1.5358227 1.9350236e-39
-1.4958429 1.3851596 -1.5301467 1.004824e-38
-1.4980174 1.3928306 -1.5243959 1.1337167e-38
-1.4994828 1.3976625 -1.5206274 9.217384e-39
-1.4991817 1.4078442 -1.517843 9.9560392e-39
-1.5006645 1.4187548 -1.5121114 9.4946995e-39
-1.5013368 1.426122 -1.5087422 9.1262715e-39
-1.5006691 1.4375193 -1.506129 8.3883492e-39
-1.500437 1.446373 -1.5036621 8.111049e-39
-1.5014085 1.4496682 -1.5011345 5.2519181e-39
-1.5027528 1.4583873 -1.4963126 7.0021819e-39
-1.5043374 1.4670209 -1.4911524 6.8112886e-39
-1.5059284 1.4756832 -1.4859728 7.7310883e-39
-1.5068847 1.4830686 -1.4821655 6.8044727e-39
-1.5075285 1.4903735 -1.4788595 6.6186395e-39
-1.5062975 1.5034982 -1.4765527 7.7228221e-39
-1.5076629 1.5087032 -1.4728174 7.1714462e-39
-1.5061817 1.5277923 -1.4689918 7.6306279e-39
-1.508242 1.5332357 -1.4641235 6.3452854e-39
-1.5095544 1.5433055 -1.4589199 6.2563366e-39
-1.5102947 1.5542574 -1.4543052 4.7905686e-39
-1.5103515 1.5641183 -1.4510787 5.5284938e-39
-1.511045 1.5717442 -1.4475952 6.3578915e-39
-1.5110258 1.581851 -1.4444056 7.6500667e-39
-1.510746 1.5941217 -1.4409231 8.4809161e-39
-1.5108209 1.6050684 -1.4373227 8.3880045e-39
-1.5142314 1.6019264 -1.4331347 7.9266802e-39
-1.5136421 1.6139326 -1.4302076 8.2983256e-39
-1.5596775 1.9987677 -1.2376053 6.7230377e-39
-1.4329746 0.76181096 -1.8243204 2.8652868e-39
-1.4314816 0.76909113 -1.8242739 1.0152856e-39
-1.432616 0.77533907 -1.8205575 2.765932e-39
-1.4378486 0.77900255 -1.8114299 2.0315689e-39
-1.4372711 0.78573936 -1.8101628 1.4787777e-39
-1.4426731 0.78856611 -1.8010439 3.8747654e-39
-1.4447219 0.8013261 -1.7938627 2.0304787e-39
-1.4409026 0.81077802 -1.7966632 2.2152413e-39
-1.4421624 0.81864345 -1.7922417 1.6616962e-39
-1.4405373 0.82613802 -1.7923274 2.4910981e-39
-1.4421949 0.83273786 -1.7877034 1.7538918e-39
-1.4393823 0.84190089 -1.789065 2.0308486e-39
-1.4393293 0.84930563 -1.786787 2.9520889e-39
-1.4437889 0.85358602 -1.778639 4.1506194e-39
-1.4419667 0.86311352 -1.7783768 4.7048722e-39
-1.4426068 0.86985844 -1.7752548 4.0591595e-39
-1.4465773 0.90436804 -1.7582237 3.1386339e-39
-1.4500018 0.90982348 -1.7512754 3.4123537e-39
-1.4536947 0.90990049 -1.7456321 2.1222974e-39
-1.4538648 0.91704643 -1.7430977 2.2152315e-39
-1.4511513 0.93192106 -1.7424896 2.6769453e-39
-1.452022 0.93868679 -1.73901 2.6765866e-39
-1.4536361 0.94099838 -1.7358183 7.3865805e-40
-1.4532459 0.94926196 -1.7337801 1.8453868e-39
-1.4538873 0.95607328 -1.7306348 2.3996255e-39
-1.4538099 0.96386081 -1.7282721 3.1375437e-39
-1.4563938 0.96954602 -1.7225302 2.3060076e-39
-1.4572557 0.97743213 -1.7187078 2.1237575e-39
-1.4578983 0.98427695 -1.7155499 2.4907506e-39
-1.458541 0.99112195 -1.7123921 2.3081544e-39
-1.4574263 1.0006093 -1.7110665 2.3074453e-39
-1.4587238 1.0077832 -1.7068074 1.2929262e-39
-1.4576241 1.0173756 -1.705426 1.4762441e-39
-1.4568875 1.0264541 -1.7036555 1.3847758e-39
-1.4616964 1.0285763 -1.6956632 6.439597e-40
-1.4601841 1.0413643 -1.6938913 1.9393775e-39
-1.4617723 1.0498238 -1.6887804 1.4773105e-39
-1.4616904 1.0640116 -1.6843867 9.2414793e-40
-1.4613639 1.0732278 -1.6819485 1.6599263e-39
-1.4653965 1.071897 -1.6762364 2.2137811e-39
-1.4654236 1.0784644 -1.6741037 1.9386586e-39
-1.4717573 1.0795842 -1.6641105 1.8435763e-39
-1.4740682 1.083498 -1.6593481 5.6221103e-39
-1.4818771 1.1849102 -1.61517 8.5676944e-39
-1.4839312 1.1868 -1.6114426 5.7111096e-39
-1.4842857 1.2048597 -1.6051521 4.3270695e-39
-1.4872853 1.2105249 -1.5987842 4.5103818e-39
-1.4873407 1.218542 -1.5961466 5.8900512e-39
-1.4879931 1.2256089 -1.5929033 8.1038057e-39
-1.4854474 1.2493138 -1.5892271 9.3037908e-39
-1.4863636 1.256422 -1.585569 9.7633256e-39
