# .PCD v0.7 - Point Cloud Data file format
VERSION 0.7
FIELDS x y z rgb
SIZE 4 4 4 4
TYPE F F F F
COUNT 1 1 1 1
WIDTH 410
HEIGHT 1
VIEWPOINT 0 0 0 1 0 0 0
POINTS 410
DATA ascii
-0.40051627 -0.65216005 2.8298876 1.1316246e-38
-0.37783498 -0.72830331 2.8547628 2.2572785e-38
-0.37653434 -0.76966107 2.8625875 2.3498356e-38
-0.37543145 -0.75401402 2.8604503 2.3501234e-38
-0.37506378 -0.74879837 2.8597379 2.3499799e-38
-0.3746962 -0.74358267 2.8590257 2.3500882e-38
-0.37432852 -0.73836696 2.8583133 2.3501601e-38
-0.37302771 -0.77972496 2.8661375 1.5458552e-38
-0.37229261 -0.76929343 2.864713 2.350484e-38
-0.37192482 -0.76407784 2.8640003 2.3507005e-38
-0.37082192 -0.74843079 2.8618634 2.3504482e-38
-0.37045422 -0.74321514 2.861151 2.3505917e-38
-0.37008655 -0.73799944 2.8604386 2.3505923e-38
-0.369719 -0.73278368 2.8597264 2.3509886e-38
-0.36935133 -0.72756809 2.859014 2.3509886e-38
-0.3691535 -0.78457302 2.8689754 1.5456031e-38
-0.36878607 -0.77935719 2.8682632 1.5550747e-38
-0.35804749 -0.70128858 2.8603032 1.5944446e-38
-0.35384089 -0.70092404 2.8624108 1.5391631e-38
-0.34963444 -0.70055944 2.8645189 1.4840622e-38
-0.34542796 -0.70019484 2.866627 1.4103057e-38
-0.34122127 -0.69983029 2.8687346 1.2628287e-38
-0.34848118 -0.68328762 2.8621268 1.2439919e-38
-0.3370147 -0.69946569 2.8708427 1.2443895e-38
-0.32195592 -0.71309251 2.8809717 1.3831149e-38
-0.31383982 -0.71757293 2.8859351 1.3636691e-38
-0.29382929 -0.78379077 2.9077156 1.685594e-38
-0.28839186 -0.76749831 2.9077039 1.6020418e-38
-0.28801781 -0.76219219 2.9069791 1.6295544e-38
-0.24782179 -0.73726541 2.9234133 1.4837681e-38
-0.26774484 -0.66173971 2.9000678 3.2314713e-39
-0.26737729 -0.656524 2.8993556 1.6145761e-41
-0.41096357 -0.70711941 2.8340013 1.0497699e-38
-0.32075161 -0.70268875 2.8797939 1.2907388e-38
-0.30861869 -0.70853883 2.8870673 1.0513542e-38
-0.26974156 -0.73872072 2.9123523 5.7895823e-39
-0.35428664 -0.68233764 2.8589664 1.4007975e-38
-0.41576472 -0.66947645 2.8250127 1.1327468e-38
-0.39826047 -0.68216485 2.8362415 9.4799551e-39
-0.41151369 -0.63235688 2.8207867 6.1529782e-39
-0.40741003 -0.63200128 2.8228428 6.4284847e-39
-0.40366217 -0.63669121 2.8255885 6.0611427e-39
-0.4033066 -0.63164556 2.8248994 5.7856363e-39
-0.39865419 -0.68424547 2.8363976 1.6018684e-38
-0.40399522 -0.65984005 2.8294201 4.5917748e-39
-0.39517692 -0.69422531 2.8399184 1.4909748e-38
-0.39481249 -0.68905306 2.8392124 1.7122116e-38
-0.39444783 -0.68388081 2.8385057 1.7770041e-38
-0.39408317 -0.67870855 2.8377993 1.4547125e-38
-0.39371863 -0.67353624 2.8370929 6.6121557e-39
-0.39982411 -0.65947855 2.8315105 3.9489263e-39
-0.39298958 -0.66319168 2.8356802 5.7856363e-39
-0.39097047 -0.69386071 2.8420265 1.3531486e-38
-0.39060581 -0.68868858 2.84132 1.4455611e-38
-0.39673734 -0.67450362 2.8357019 2.0078837e-38
-0.39637592 -0.6693747 2.8350017 1.9800067e-38
-0.38951209 -0.6731717 2.8392007 6.8876622e-39
-0.40188721 -0.65060472 2.8289111 5.0509523e-39
-0.38878289 -0.66282719 2.8377879 6.1529782e-39
-0.39348382 -0.62834388 2.8293979 5.051311e-39
-0.3931222 -0.62321508 2.8286972 5.2346233e-39
-0.38749319 -0.70384067 2.8455474 1.3535436e-38
-0.38712853 -0.69866848 2.844841 1.5464705e-38
-0.38676399 -0.69349611 2.8441346 1.3900629e-38
-0.38639921 -0.68832397 2.8434279 1.3257427e-38
-0.3925662 -0.67414206 2.8377924 1.832748e-38
-0.3922047 -0.66901314 2.8370922 1.9800067e-38
-0.40027422 -0.64629918 2.8289986 4.9591168e-39
-0.38004091 -0.75959736 2.8590372 2.2946265e-38
-0.37967312 -0.75438172 2.8583245 2.2851543e-38
-0.37930557 -0.74916607 2.8576124 2.2851549e-38
-0.37857032 -0.7387346 2.8561876 2.2484208e-38
-0.3840158 -0.71382064 2.8490682 1.5102994e-38
-0.38365102 -0.70864838 2.8483615 1.0676594e-38
-0.3832866 -0.70347607 2.8476553 1.3348171e-38
-0.38292193 -0.69830388 2.8469489 1.5468321e-38
-0.38255742 -0.69313151 2.8462424 1.5475157e-38
-0.38219276 -0.68795937 2.845536 1.5014552e-38
-0.38839486 -0.67378062 2.8398826 1.6578637e-38
-0.39432964 -0.66006202 2.8344474 1.8512593e-38
-0.39397094 -0.65497482 2.8337524 1.7314398e-38
-0.37516949 -0.77758735 2.8646624 2.1093331e-38
-0.37584704 -0.76554853 2.8622308 2.0550618e-38
-0.37675589 -0.75776994 2.8604162 1.9996004e-38
-0.3798092 -0.71345603 2.851176 2.1556689e-38
-0.38091332 -0.70595926 2.8493094 1.0494008e-38
-0.37908003 -0.70311153 2.8497632 1.2426215e-38
-0.37871528 -0.69793934 2.8490565 1.5468321e-38
-0.37835094 -0.6927669 2.8483505 1.7042124e-38
-0.38458523 -0.67854786 2.8426733 1.6673714e-38
-0.3842237 -0.67341906 2.8419728 1.7039255e-38
-0.37155727 -0.75886214 2.8632882 2.3504125e-38
-0.37118959 -0.75364643 2.8625758 2.3504125e-38
-0.37523809 -0.70791918 2.8525774 1.6765196e-38
-0.37487355 -0.70274699 2.8518713 1.33518e-38
-0.37450889 -0.69757473 2.8511646 1.4553551e-38
-0.37414438 -0.69240236 2.8504584 1.778186e-38
-0.38041419 -0.6781863 2.8447638 1.7689663e-38
-0.36840323 -0.77468938 2.8676534 2.1555022e-38
-0.37693474 -0.75571305 2.8599682 2.2673998e-38
-0.37431282 -0.75410503 2.8610432 2.3505204e-38
-0.36731535 -0.7584945 2.8654137 2.3503763e-38
-0.3669478 -0.75327873 2.8647015 2.3502324e-38
-0.36658022 -0.74806315 2.8639894 2.35034e-38
-0.36621243 -0.74284744 2.8632767 2.3504116e-38
-0.36584476 -0.73763174 2.8625643 2.3504484e-38
-0.36547729 -0.73241603 2.8618524 2.3509886e-38
-0.36510953 -0.72720039 2.8611398 2.3509886e-38
-0.37103164 -0.70755458 2.8546855 2.0360466e-38
-0.37066689 -0.70238245 2.8539789 1.399717e-38
-0.37030247 -0.69721013 2.8532727 1.4184768e-38
-0.36993769 -0.69203788 2.852566 1.7320881e-38
-0.36957327 -0.68686557 2.8518598 1.7413436e-38
-0.36491176 -0.78420532 2.8711011 1.453988e-38
-0.37120005 -0.76925719 2.8652704 1.3990291e-38
-0.37262642 -0.76092452 2.8630929 1.9715793e-38
-0.37047085 -0.75891268 2.8638575 2.3411191e-38
-0.37208945 -0.75086063 2.8616297 2.2765107e-38
-0.37184477 -0.74488258 2.8607221 2.239669e-38
-0.36937723 -0.74339586 2.8617387 2.2765118e-38
-0.37130782 -0.73481941 2.8592587 2.184388e-38
-0.36197057 -0.7424798 2.8654025 2.3042777e-38
-0.3616029 -0.7372641 2.8646901 2.2859832e-38
-0.36791864 -0.72270691 2.8589125 2.3508805e-38
-0.36755425 -0.71753454 2.8582063 2.3509886e-38
-0.36718959 -0.71236235 2.8574998 2.2582885e-38
-0.36682516 -0.70718992 2.8567936 1.8527006e-38
-0.36646038 -0.70201784 2.856087 1.5665351e-38
-0.3756496 -0.68566108 2.8485155 1.3912886e-38
-0.36573121 -0.69167322 2.8546741 1.6402522e-38
-0.37207171 -0.67746329 2.8489442 1.6861345e-38
-0.36066988 -0.78383762 2.8732269 1.5000499e-38
-0.36699343 -0.76889265 2.8673782 1.4359433e-38
-0.36662892 -0.76372033 2.866672 2.0914696e-38
-0.36626437 -0.75854808 2.8659656 2.2120452e-38
-0.36589983 -0.75337577 2.8652594 2.3224642e-38
-0.36553517 -0.74820358 2.8645527 2.258072e-38
-0.36517042 -0.74303138 2.8638461 2.2765118e-38
-0.364806 -0.73785901 2.8631399 2.2673638e-38
-0.36444125 -0.73268682 2.8624332 2.3134974e-38
-0.36407691 -0.72751445 2.8617272 2.2952027e-38
-0.36371213 -0.72234231 2.8610206 2.3508085e-38
-0.36334774 -0.71716994 2.8603144 2.3509886e-38
-0.36298296 -0.71199781 2.8596077 2.2859832e-38
-0.36261842 -0.70682544 2.8589013 1.9448603e-38
-0.36898503 -0.69248825 2.8531358 1.631072e-38
-0.36862338 -0.68735945 2.8524354 1.5756815e-38
-0.36826187 -0.68223059 2.8517349 1.621813e-38
-0.35642797 -0.78347003 2.8753524 1.5287503e-38
-0.36278692 -0.7685281 2.8694863 1.3906011e-38
-0.36474386 -0.75987333 2.8669798 1.852046e-38
-0.36205772 -0.75818354 2.8680735 2.2209401e-38
-0.3616932 -0.75301129 2.867367 2.2579622e-38
-0.36396459 -0.74382794 2.8646064 2.1568017e-38
-0.360964 -0.74266672 2.8659542 2.2857682e-38
-0.36059946 -0.73749447 2.865248 2.2674011e-38
-0.3602348 -0.73232222 2.8645413 2.2952027e-38
-0.35311925 -0.73652881 2.8689413 2.3227904e-38
-0.35950574 -0.72197765 2.8631287 2.3508444e-38
-0.35914108 -0.7168054 2.8624222 2.3508809e-38
-0.35877654 -0.71163315 2.8617158 2.2769084e-38
-0.35841203 -0.70646083 2.8610094 1.9360006e-38
-0.36661732 -0.68414998 2.8529158 1.4744087e-38
-0.36409068 -0.68186909 2.8538251 1.5848624e-38
-0.35218623 -0.78310239 2.8774781 1.5379699e-38
-0.35858053 -0.76816344 2.8715944 1.3906011e-38
-0.3582159 -0.76299119 2.8708878 1.9811909e-38
-0.35785136 -0.75781894 2.8701816 2.0549879e-38
-0.35965228 -0.74904257 2.8677342 2.1197773e-38
-0.35712215 -0.74747443 2.8687687 2.1475098e-38
-0.35911754 -0.73898244 2.8662703 2.1106327e-38
-0.35887477 -0.73299372 2.8653595 2.1015569e-38
-0.35863239 -0.72700262 2.8644483 2.1477617e-38
-0.34887749 -0.73616117 2.871067 2.2490339e-38
-0.35529935 -0.72161305 2.8652368 2.3507362e-38
-0.3549346 -0.71644086 2.8645301 2.3508451e-38
-0.35457006 -0.7112686 2.8638237 2.304531e-38
-0.3542054 -0.70609629 2.8631172 1.9544399e-38
-0.3602812 -0.68663627 2.856616 1.5572407e-38
-0.35991967 -0.68150747 2.8559155 1.5848624e-38
-0.35437399 -0.76779884 2.8737023 1.4089679e-38
-0.35686719 -0.75881857 2.870862 1.7319407e-38
-0.35364479 -0.75745434 2.8722894 2.1283482e-38
-0.35328028 -0.75228202 2.871583 2.1288186e-38
-0.35291561 -0.74710983 2.8708766 2.1197788e-38
-0.35255116 -0.74193752 2.8701704 2.1475445e-38
-0.35431606 -0.7322157 2.8675778 2.0463464e-38
-0.35407406 -0.72621834 2.8666654 2.0371281e-38
-0.3446357 -0.73579347 2.8731928 2.1567662e-38
-0.3510927 -0.72124851 2.8673444 2.2121915e-38
-0.35072815 -0.7160762 2.8666382 2.2766212e-38
-0.35036364 -0.71090394 2.8659317 2.2401024e-38
-0.34999898 -0.70573169 2.8652253 1.9178864e-38
-0.35880876 -0.68310517 2.856765 1.4100168e-38
-0.35574839 -0.68114597 2.8580058 1.4558625e-38
-0.34076679 -0.78106242 2.883019 1.2801104e-38
-0.35231185 -0.75804335 2.8730791 1.6859147e-38
-0.34943831 -0.75708973 2.8743975 2.0361525e-38
-0.35177815 -0.74798512 2.8716149 2.0459145e-38
-0.34870902 -0.74674529 2.8729844 2.0552419e-38
-0.3512443 -0.73792678 2.8701508 2.0093235e-38
-0.34112909 -0.74585724 2.8767431 2.0739328e-38
-0.34076139 -0.74064159 2.8760307 2.0370199e-38
-0.34039372 -0.73542589 2.8753183 2.036912e-38
-0.34688622 -0.72088391 2.8694525 2.1291795e-38
-0.34652147 -0.71571171 2.8687458 2.2397071e-38
-0.34615704 -0.7105394 2.8680396 2.2308827e-38
-0.34579238 -0.70536709 2.8673332 1.8256549e-38
-0.35157704 -0.68078452 2.8600957 1.4466429e-38
-0.3459608 -0.76706976 2.877918 1.3626535e-38
-0.34559628 -0.76189744 2.8772118 1.8056256e-38
-0.34523174 -0.75672519 2.8765054 2.0270418e-38
-0.34486708 -0.75155294 2.8757989 2.1380016e-38
-0.34450245 -0.74638069 2.8750923 2.0736458e-38
-0.34413791 -0.74120837 2.8743861 2.0829373e-38
-0.33688715 -0.74548966 2.8788686 2.073718e-38
-0.33651945 -0.74027395 2.8781562 2.0093252e-38
-0.33615178 -0.73505831 2.8774438 1.990994e-38
-0.33578423 -0.72984254 2.8767316 2.1015192e-38
-0.33541667 -0.72462684 2.8760192 2.1200326e-38
-0.33504912 -0.71941113 2.8753071 2.0741499e-38
-0.34158579 -0.70500255 2.869441 1.724564e-38
-0.34740594 -0.6804229 2.8621862 1.2807242e-38
-0.33958247 -0.77037227 2.8817813 1.2799299e-38
-0.34318271 -0.75879335 2.8779206 1.6858793e-38
-0.3410252 -0.75636059 2.8786132 2.045517e-38
-0.34265065 -0.74872208 2.8764532 2.027403e-38
-0.340296 -0.74601609 2.8772004 2.0552065e-38
-0.333013 -0.7503376 2.8817067 2.0184003e-38
-0.33264533 -0.74512202 2.8809943 2.009181e-38
-0.33227775 -0.73990625 2.8802819 1.972483e-38
-0.33191007 -0.73469055 2.8795695 1.9633353e-38
-0.33154252 -0.72947484 2.8788574 2.1107389e-38
-0.33117482 -0.7242592 2.878145 2.1200326e-38
-0.33080715 -0.71904349 2.8774326 2.028052e-38
-0.33737937 -0.70463789 2.8715491 1.5678674e-38
-0.33665016 -0.69429344 2.8701363 1.3268595e-38
-0.34323463 -0.68006146 2.8642764 1.2807242e-38
-0.33629397 -0.76769984 2.8830161 1.3166994e-38
-0.33807495 -0.74794799 2.8786809 1.9996714e-38
-0.33608964 -0.74565142 2.8793085 2.0364785e-38
-0.33572486 -0.74047923 2.8786018 1.9996707e-38
-0.32840356 -0.74475431 2.8831198 1.990416e-38
-0.32803601 -0.73953861 2.8824077 1.9536822e-38
-0.32766834 -0.73432291 2.8816953 1.9998879e-38
-0.32730079 -0.72910714 2.8809831 2.055205e-38
-0.32693297 -0.72389162 2.8802705 2.0460597e-38
-0.3265653 -0.71867591 2.8795581 1.8709599e-38
-0.32619774 -0.71346015 2.8788459 1.6320071e-38
-0.33280823 -0.69910115 2.8729506 1.1060942e-38
-0.33244357 -0.6939289 2.8722439 1.2345916e-38
-0.3390635 -0.6796999 2.8663666 1.2530311e-38
-0.33224747 -0.75045919 2.8821225 2.0455889e-38
-0.33188304 -0.74528688 2.8814163 1.9811611e-38
-0.32452944 -0.74960232 2.885958 1.9627923e-38
-0.32416174 -0.74438667 2.8852456 1.925879e-38
-0.32379419 -0.73917091 2.8845334 1.8891453e-38
-0.32342651 -0.73395526 2.883821 1.8892171e-38
-0.32305872 -0.72873962 2.8831084 1.9629735e-38
-0.32269114 -0.72352391 2.8823962 1.9538639e-38
-0.32232347 -0.71830827 2.8816838 1.7879838e-38
-0.32860163 -0.69873661 2.8750584 1.0783996e-38
-0.32823709 -0.6935643 2.874352 1.1792742e-38
-0.3348923 -0.6793384 2.8684571 1.2530311e-38
-0.33019763 -0.74688596 2.8825626 1.8429017e-38
-0.32767645 -0.74492228 2.8835242 1.9255543e-38
-0.32028759 -0.74923462 2.8880837 1.8980015e-38
-0.31991991 -0.74401903 2.8873713 1.861088e-38
-0.31955224 -0.73880333 2.8866589 1.8335014e-38
-0.31918457 -0.73358762 2.8859465 1.8244267e-38
-0.3188169 -0.72837198 2.8852341 1.8796723e-38
-0.31844932 -0.72315627 2.884522 1.8797456e-38
-0.31808165 -0.71794057 2.8838096 1.5019984e-38
-0.31771398 -0.71272492 2.8830972 1.3087448e-38
-0.32403064 -0.69319969 2.8764601 1.1515431e-38
-0.3236661 -0.68802732 2.8757539 1.2069699e-38
-0.32483256 -0.75800538 2.887255 1.7502714e-38
-0.32419908 -0.75490224 2.8870451 1.8242468e-38
-0.325618 -0.74610245 2.8847907 1.7783287e-38
-0.31641331 -0.75408274 2.8909216 1.8794567e-38
-0.31604564 -0.74886703 2.8902092 1.8519035e-38
-0.31567797 -0.74365139 2.8894968 1.7965511e-38
-0.3153103 -0.73843575 2.8887844 1.8058427e-38
-0.31494275 -0.73321998 2.8880723 1.7967679e-38
-0.31457505 -0.72800428 2.8873599 1.8335385e-38
-0.31420749 -0.72278863 2.8866477 1.7968056e-38
-0.31347215 -0.71235722 2.8852227 1.1796709e-38
-0.3127369 -0.70192587 2.8837981 1.1054453e-38
-0.31945944 -0.68766278 2.8778615 1.1239938e-38
-0.3190949 -0.68249059 2.8771551 1.160655e-38
-0.31290674 -0.76414645 2.8944719 1.7962288e-38
-0.31253916 -0.75893074 2.8937597 1.7777874e-38
-0.31217149 -0.7537151 2.8930473 1.7317975e-38
-0.30441317 -0.7583729 2.897857 1.7133214e-38
-0.31143615 -0.74328375 2.8916225 1.7225056e-38
-0.31106845 -0.7380681 2.8909101 1.6950262e-38
-0.31070101 -0.73285228 2.890198 1.6582208e-38
-0.31033322 -0.72763664 2.8894854 1.6674416e-38
-0.30996567 -0.72242099 2.8887732 1.6584038e-38
-0.309598 -0.71720529 2.8880608 1.187961e-38
-0.30923033 -0.71198958 2.8873484 7.8333663e-39
-0.30886278 -0.70677388 2.8866363 8.7524163e-39
-0.30849496 -0.70155829 2.8859236 1.0405824e-38
-0.31525284 -0.68729824 2.8799694 1.2246878e-38
-0.31488842 -0.68212599 2.8792632 1.1692615e-38
-0.3008762 -0.76852399 2.9014378 1.6855918e-38
-0.3005054 -0.76326305 2.9007194 1.658041e-38
-0.30013457 -0.7580021 2.9000008 1.658004e-38
-0.29976377 -0.75274122 2.8992825 1.6855915e-38
-0.29939297 -0.74748027 2.8985639 1.6304892e-38
-0.29902217 -0.74221939 2.8978455 1.5659893e-38
-0.29865137 -0.73695838 2.8971269 1.6029047e-38
-0.29828045 -0.73169756 2.8964083 1.5662442e-38
-0.29790977 -0.72643661 2.89569 8.9289911e-39
-0.29753882 -0.72117567 2.8949714 6.173845e-39
-0.29716802 -0.71591479 2.8942528 7.8300999e-39
-0.29511434 -0.74710941 2.900708 1.5468672e-38
-0.29474342 -0.74184859 2.8999894 1.4918373e-38
-0.29437262 -0.73658764 2.8992708 1.5105255e-38
-0.29400194 -0.73132664 2.8985527 1.5011286e-38
-0.27112529 -0.70842898 2.9063985 1.2431977e-38
-0.26684675 -0.70805812 2.9085429 1.5291838e-38
-0.26647595 -0.70279711 2.9078243 1.2244322e-38
-0.27795485 -0.63265896 2.8897688 1.326316e-38
-0.25519183 -0.72243094 2.9170439 1.6768389e-38
-0.26256815 -0.70768726 2.910687 1.5568426e-38
-0.26219723 -0.70242631 2.9099681 1.4364821e-38
-0.26958323 -0.68781805 2.9036298 1.2241453e-38
-0.26811263 -0.66695535 2.9007804 4.328824e-39
-0.26700962 -0.6513083 2.8986433 1.2168353e-38
-0.25885987 -0.65507805 2.9035017 1.5665662e-38
-0.27374834 -0.6322943 2.8918769 1.3908529e-38
-0.24346951 -0.73688823 2.9255941 2.0177873e-38
-0.25866032 -0.71257728 2.9135494 1.6949208e-38
-0.2582894 -0.70731646 2.9128308 1.6398189e-38
-0.2579186 -0.70205551 2.9121122 1.5288968e-38
-0.2653414 -0.68745035 2.9057555 1.3901329e-38
-0.26497373 -0.6822347 2.9050431 1.0305695e-38
-0.26460615 -0.677019 2.904331 9.384081e-39
-0.26990646 -0.63710195 2.8946912 1.520612e-38
-0.24693507 -0.72698915 2.9220936 2.2390569e-38
-0.25438181 -0.71220648 2.9156935 1.7686774e-38
-0.26183489 -0.69751418 2.9093058 1.6305994e-38
-0.2614671 -0.69229853 2.9085932 1.6026533e-38
-0.26109955 -0.68708277 2.907881 1.5376099e-38
-0.25832832 -0.70757788 2.9128561 2.3494421e-38
-0.25796065 -0.70236224 2.9121437 2.0172134e-38
-0.25759295 -0.69714653 2.9114313 1.7135418e-38
-0.25722528 -0.69193089 2.9107189 1.657969e-38
-0.26441005 -0.677751 2.9045584 1.5657378e-38
-0.25445405 -0.71242595 2.915694 2.349767e-38
-0.25408649 -0.70721018 2.9149818 2.3499103e-38
-0.25335112 -0.69677889 2.9135571 1.8518711e-38
-0.25298345 -0.69156319 2.9128447 1.6671887e-38
-0.24228746 -0.72161585 2.9235628 2.3497969e-38
-0.24984452 -0.7068426 2.9171073 2.3496558e-38
-0.24947685 -0.70162696 2.9163949 2.2019542e-38
-0.2491093 -0.69641125 2.9156828 1.9255878e-38
-0.24874161 -0.69119555 2.9149704 1.7041363e-38
-0.23763804 -0.71598405 2.9249883 2.2937262e-38
-0.24486746 -0.69604355 2.9178083 1.796514e-38
-0.24449979 -0.69082791 2.9170959 1.6856972e-38
-0.23335941 -0.71561325 2.9271324 1.5475527e-38
-0.2409934 -0.70089161 2.9206464 1.5568073e-38
-0.24062562 -0.69567597 2.9199338 1.5932167e-38
-0.24025804 -0.69046021 2.9192216 1.3631575e-38
-0.22870998 -0.7099815 2.9285579 1.372416e-38
-0.22406055 -0.70434976 2.9299836 8.5564994e-39
-0.21941113 -0.69871795 2.9314091 1.0960095e-38
-0.4406724 -0.64363903 2.8076887 2.2958874e-39
-0.40478536 -0.71400195 2.8383801 1.1605474e-38
-0.40432936 -0.70361382 2.8368187 1.2159744e-38
-0.4045231 -0.6946097 2.8351614 9.6682966e-39
-0.39819735 -0.71044528 2.8411651 8.0991688e-39
-0.40415457 -0.68432134 2.8335721 9.670086e-39
-0.39187145 -0.72628081 2.8471689 6.1529782e-39
-0.3920652 -0.71727669 2.8455117 6.6121585e-39
-0.39787585 -0.70003861 2.8395309 6.8040804e-39
-0.39806822 -0.69110167 2.8378863 4.4199602e-39
-0.38593283 -0.72410822 2.8498578 1.8519071e-38
-0.38632008 -0.70609993 2.8465431 1.547588e-38
-0.38670775 -0.68809158 2.8432288 9.4788438e-39
-0.38057551 -0.6949231 2.8475752 1.4186939e-38
-0.31934965 -0.7793957 2.893784 1.0500553e-38
-0.3073124 -0.76564151 2.8976181 1.262213e-38
-0.29483989 -0.75397557 2.9020371 1.2160447e-38
-0.30179259 -0.73557216 2.8952658 1.161015e-38
-0.30842066 -0.71774507 2.8887618 1.0783999e-38
-0.28927588 -0.72366488 2.8996663 7.2773213e-39
-0.2962729 -0.70550257 2.8929141 4.5946447e-39
-0.3029429 -0.68790519 2.8864276 7.0893119e-39
-0.29015434 -0.70326412 2.8956845 3.5823018e-39
-0.29706931 -0.67647767 2.8874826 1.5391613e-38
-0.2703737 -0.72757977 2.910099 3.8671353e-39
-0.27771798 -0.70806396 2.9029334 6.7320382e-39
-0.41561696 -0.6327126 2.8187301 6.4284847e-39
-0.38641351 -0.66443205 2.8392887 1.7687146e-38
-0.37435988 -0.66844344 2.8462033 1.6585117e-38
-0.37022236 -0.66808492 2.8482764 1.6860615e-38
-0.34376329 -0.74637491 2.875473 2.0180378e-38
-0.33959198 -0.7460134 2.877563 1.9535009e-38
-0.33542091 -0.74565184 2.8796535 1.9441011e-38
-0.42161459 -0.67161661 2.8223639 1.3261743e-38
-0.40396228 -0.69325817 2.8352172 9.2091163e-39
-0.38573909 -0.73311239 2.8515151 1.898185e-38
-0.39178962 -0.70681894 2.8438449 1.7043941e-38
-0.38018826 -0.71293139 2.8508897 1.9263492e-38
-0.38038176 -0.70392728 2.8492324 2.1654452e-38
-0.36850482 -0.69958174 2.8546107 1.9360006e-38
-0.31996524 -0.73924398 2.8865221 1.3453705e-38
