# .PCD v0.7 - Point Cloud Data file format
VERSION 0.7
FIELDS x y z rgb
SIZE 4 4 4 4
TYPE F F F F
COUNT 1 1 1 1
WIDTH 1043
HEIGHT 1
VIEWPOINT 0 0 0 1 0 0 0
POINTS 1043
DATA ascii
1.0332872 1.4975082 -1.0130179 1.4368043e-38
1.0295516 1.495002 -1.0070442 1.6393098e-38
1.010548 1.4860085 -0.98559064 1.3354628e-38
1.005358 1.4845531 -0.98211241 1.4736105e-38
1.0006262 1.4815975 -0.97506636 1.4551354e-38
0.9933157 1.4770004 -0.96410722 1.6392751e-38
0.98479086 1.4720141 -0.95221847 1.4736108e-38
0.97403824 1.4685495 -0.94394362 1.4552068e-38
0.96748871 1.4645586 -0.93442899 1.4459878e-38
0.96109182 1.4606174 -0.92503321 1.4643909e-38
0.95566934 1.458048 -0.91890365 1.4551357e-38
0.94286549 1.4525852 -0.90586865 1.2986201e-38
0.950616 1.4549979 -0.91163188 1.6115796e-38
0.93570668 1.4490596 -0.89745933 1.4367683e-38
0.92934495 1.4458981 -0.88991833 1.4643914e-38
0.92532247 1.443342 -0.88382506 1.4551717e-38
0.92077684 1.4403292 -0.87664354 1.4460245e-38
0.90851694 1.4359692 -0.86623418 1.4552444e-38
0.9057138 1.4340217 -0.86159235 1.6392751e-38
0.90066254 1.4310236 -0.85444367 1.6393115e-38
0.89026767 1.4252326 -0.84063506 1.4644634e-38
0.88200629 1.4212166 -0.8310557 1.3263511e-38
0.87277496 1.4175688 -0.82234949 1.3171673e-38
0.87003827 1.415729 -0.81796438 1.4921573e-38
0.86762881 1.4142838 -0.81451827 1.6946275e-38
1.1261812 1.5488604 -1.1354717 1.2340484e-38
1.1128149 1.541875 -1.1188123 1.3628691e-38
1.1040273 1.5372847 -1.107865 1.3536843e-38
1.1003702 1.5347757 -1.1018845 1.5375722e-38
1.0785846 1.5219995 -1.0714226 1.3260619e-38
1.0499616 1.5103468 -1.0436134 1.6025785e-38
1.0337534 1.5024798 -1.0248482 1.4275495e-38
1.0193369 1.4944814 -1.0057756 1.4644265e-38
1.013714 1.4910055 -0.99748898 1.4644267e-38
1.0049524 1.488292 -0.99100721 1.6853e-38
0.99520129 1.4828701 -0.97807848 1.4644263e-38
0.98605812 1.4771129 -0.96435344 1.4459522e-38
0.97713822 1.4717255 -0.95150918 1.4920135e-38
0.97558749 1.4722521 -0.95275766 1.7406909e-38
0.9651106 1.4680499 -0.94272864 1.4552078e-38
0.9629727 1.4660558 -0.93797773 1.7038848e-38
0.95696956 1.4632696 -0.9313311 1.4551719e-38
0.95111722 1.4595869 -0.92255157 1.6392391e-38
0.94177246 1.4546961 -0.91088796 1.436804e-38
0.92926896 1.4500871 -0.899885 1.4184019e-38
0.92424005 1.4469255 -0.89234823 1.4553164e-38
0.91949511 1.4439352 -0.88521945 1.44606e-38
0.91448188 1.4407866 -0.8777132 1.4368765e-38
0.90348923 1.4369742 -0.86861032 1.464462e-38
0.89878988 1.4340018 -0.86152452 1.445952e-38
0.89008272 1.4286437 -0.84875047 1.4552807e-38
0.88603938 1.4268076 -0.84436995 1.4644635e-38
0.87955469 1.4235718 -0.8366521 1.317168e-38
0.87738323 1.4214895 -0.83169132 1.4644638e-38
0.87059182 1.420077 -0.82831073 1.4644633e-38
0.86522543 1.416708 -0.820279 1.4829027e-38
0.85363656 1.4099392 -0.80414051 9.6679224e-39
1.1252857 1.5512174 -1.1410769 1.2433032e-38
1.1069559 1.5430958 -1.1216996 1.3628683e-38
1.0986512 1.5389 -1.1116925 1.3627958e-38
1.0898048 1.5335829 -1.0990156 1.3627241e-38
1.0880141 1.5323572 -1.096094 1.546863e-38
1.0691533 1.5243912 -1.0770853 1.3352815e-38
1.0519412 1.5147685 -1.0541399 1.3354981e-38
1.0404942 1.5078942 -1.0377501 1.3815599e-38
1.0280863 1.5028059 -1.0256077 1.2711062e-38
1.0224961 1.5002217 -1.0194427 1.6300917e-38
1.0148544 1.4961805 -1.009805 1.4551715e-38
1.0113399 1.4935797 -1.0036068 1.6760805e-38
0.99777007 1.486599 -0.98695809 1.3262791e-38
0.98946881 1.483778 -0.98022157 1.4644272e-38
0.9740994 1.4757973 -0.9611882 1.3079838e-38
0.97458434 1.4754045 -0.96025503 1.5011619e-38
0.96773827 1.4711424 -0.9500944 1.4551722e-38
0.95888412 1.4689237 -0.94478959 1.4644275e-38
0.95036066 1.463487 -0.93182939 1.4735755e-38
0.9429819 1.4589263 -0.92095637 1.4459528e-38
0.9366011 1.4557359 -0.91334671 1.4459877e-38
0.93149143 1.4550536 -0.91170835 1.6025399e-38
0.92545837 1.4506501 -0.90121347 1.6854456e-38
0.91060013 1.442718 -0.88229734 1.317095e-38
0.91417056 1.4451233 -0.88803047 1.713069e-38
0.90682256 1.440431 -0.8768447 1.4552786e-38
0.89916104 1.4387034 -0.87271184 1.6669331e-38
0.8897472 1.4335029 -0.86031109 1.4644267e-38
0.88418067 1.4299939 -0.85194546 1.4645351e-38
0.8805573 1.427665 -0.8463937 1.464535e-38
0.87332296 1.4231261 -0.83557349 1.4736471e-38
0.86437482 1.4204185 -0.82910496 1.446168e-38
0.8575024 1.4167833 -0.8204357 1.271107e-38
0.85607916 1.4163027 -0.81928813 1.2712878e-38
1.1707367 1.5792137 -1.2078212 1.4274786e-38
1.1603521 1.5731199 -1.1932918 1.4827593e-38
1.1438743 1.5667871 -1.1781762 1.4732508e-38
1.1361752 1.5622725 -1.167412 1.5100946e-38
1.1247772 1.5552417 -1.1506503 1.3536497e-38
1.1144028 1.5498044 -1.1376833 1.3812358e-38
1.0949316 1.5405493 -1.1156055 1.5561194e-38
1.0861032 1.5363555 -1.1056015 1.3443933e-38
1.0699396 1.5271889 -1.0837443 1.3444649e-38
1.0561656 1.5221255 -1.0716565 1.3168435e-38
1.0462292 1.5160891 -1.0572649 1.3170233e-38
1.0348818 1.5090166 -1.0404044 1.381524e-38
1.0276667 1.5048678 -1.0305121 1.5749904e-38
1.0179206 1.5017208 -1.0229961 1.6761186e-38
1.0099574 1.4978416 -1.013743 1.491942e-38
0.99907339 1.490783 -0.99691671 1.4827946e-38
0.98916137 1.48821 -0.99076563 1.6854082e-38
0.97890079 1.4825851 -0.97735232 1.4736109e-38
0.97109866 1.4777465 -0.96581727 1.4920142e-38
0.96476465 1.4737993 -0.95640731 1.4736111e-38
0.95037979 1.4673717 -0.94107181 1.3170967e-38
0.94624305 1.4654001 -0.93636876 1.4643914e-38
0.93828678 1.4612335 -0.92643178 1.4460238e-38
0.93226266 1.4574519 -0.91741687 1.427584e-38
0.92331004 1.4527189 -0.90612948 1.2343712e-38
0.91665244 1.4487636 -0.89669919 1.2895451e-38
0.91755271 1.4482803 -0.89555198 1.4736825e-38
0.90306342 1.4421672 -0.88096452 1.3079833e-38
0.89561415 1.4392049 -0.87389451 1.3172028e-38
0.89270288 1.4374285 -0.86965948 1.3262785e-38
0.87919629 1.4309698 -0.85425317 1.4736828e-38
0.87558722 1.4286318 -0.8486796 1.4737188e-38
0.86809963 1.4247106 -0.83932805 1.4645356e-38
0.86080605 1.4220448 -0.83296382 1.0776047e-38
0.85599554 1.4195203 -0.82694328 1.1789474e-38
0.851592 1.4173729 -0.82182121 1.5105622e-38
0.84682161 1.4143944 -0.81472057 1.1880243e-38
1.2183735 1.6083435 -1.2772686 1.8520889e-38
1.1957186 1.5964307 -1.2488586 1.3913235e-38
1.1879435 1.5916768 -1.237525 1.2989122e-38
1.164313 1.5809718 -1.2119856 1.2064605e-38
1.1553131 1.5755057 -1.1989536 1.2340832e-38
1.1462559 1.5699618 -1.1857365 1.2616338e-38
1.1380367 1.5683953 -1.1819851 1.4915075e-38
1.1179216 1.556751 -1.1542212 1.4915822e-38
1.0994693 1.5469267 -1.1307925 1.5929255e-38
1.0914958 1.5429044 -1.1211988 1.5468983e-38
1.0819951 1.5385686 -1.1108551 1.3259896e-38
1.07287 1.5338719 -1.0996535 1.3443927e-38
1.0664388 1.5298613 -1.0900924 1.3627245e-38
1.0571743 1.5241669 -1.0765166 1.31695e-38
1.0504246 1.5232732 -1.0743705 1.2985122e-38
1.0315803 1.5117064 -1.0467943 1.3539737e-38
1.0228151 1.5062474 -1.0337803 1.3908516e-38
1.0168223 1.5033609 -1.026895 1.4275501e-38
1.0092578 1.5020664 -1.0237927 1.4459884e-38
1.0018563 1.4974184 -1.0127122 1.4828302e-38
0.99485558 1.4930123 -1.0022084 1.4920498e-38
0.98236227 1.4871374 -0.98819375 1.3263509e-38
0.97117025 1.4822731 -0.97658718 1.4920858e-38
0.96470779 1.4782139 -0.96691054 1.5012698e-38
0.9594236 1.4748511 -0.95889401 1.446025e-38
0.95281571 1.4708638 -0.94938791 1.6669334e-38
0.94425619 1.4687935 -0.94443673 1.4644277e-38
0.93821663 1.4649717 -0.93532598 1.4552429e-38
0.93134993 1.4614203 -0.92685592 1.4368402e-38
0.92446923 1.4571058 -0.91657048 1.4275849e-38
0.91950572 1.4539201 -0.90897632 1.4460601e-38
0.90812922 1.4498819 -0.89933497 1.4828672e-38
0.90450531 1.4451451 -0.88805413 1.4737188e-38
0.89437228 1.4419913 -0.88052064 1.4827945e-38
0.88961828 1.4389242 -0.87320918 1.4827945e-38
0.88488871 1.43568 -0.86547637 1.4736112e-38
0.87830788 1.4348255 -0.86342424 1.4644993e-38
0.87548196 1.4329164 -0.85887361 1.4737907e-38
0.87226659 1.4310069 -0.8543207 1.685481e-38
0.8605293 1.4242055 -0.83810419 1.4829028e-38
0.85585254 1.4211724 -0.83087367 1.4829024e-38
0.84669751 1.4183109 -0.82403862 1.510562e-38
0.8449508 1.4173949 -0.82185382 1.3166979e-38
1.2201672 1.6152737 -1.2937628 1.1694384e-38
1.2004608 1.6036165 -1.2659694 1.1878043e-38
1.1580982 1.5822227 -1.2149435 1.2433377e-38
1.1491396 1.5767416 -1.201876 1.2617405e-38
1.1474135 1.576399 -1.2010555 1.5102742e-38
1.139495 1.5710512 -1.1883087 1.2891115e-38
1.1071576 1.5553921 -1.1509569 1.3074423e-38
1.0989932 1.5503783 -1.1390033 1.3443208e-38
1.0858326 1.5458956 -1.1282992 1.5099127e-38
1.0680089 1.5346134 -1.1014034 1.5377882e-38
1.065963 1.5345578 -1.1012652 1.344393e-38
1.0542768 1.5269965 -1.0832405 1.3259906e-38
1.0460436 1.5235455 -1.0750053 1.4826876e-38
1.0196319 1.5100485 -1.042815 1.3723766e-38
1.0163524 1.5078921 -1.0376747 1.4091823e-38
1.0039234 1.502746 -1.0253941 1.2710703e-38
0.99602985 1.4980282 -1.014146 1.3447545e-38
0.9930647 1.4966482 -1.0108541 1.7130312e-38
0.98443973 1.4920021 -0.9997744 1.4920501e-38
0.977808 1.48778 -0.98970932 1.4736469e-38
0.96916097 1.4837688 -0.98014021 1.7038848e-38
0.95838773 1.4785359 -0.96765798 1.3080201e-38
0.95730591 1.4781835 -0.96681643 1.4920503e-38
0.94616663 1.4711698 -0.95009631 1.2802898e-38
0.93305564 1.4648379 -0.93499249 1.326243e-38
0.93231285 1.4652694 -0.93601733 1.6761186e-38
0.92129993 1.4593685 -0.92194474 1.4367691e-38
0.91294825 1.4549161 -0.91132671 1.4460241e-38
0.90253448 1.4494854 -0.89837527 1.3080554e-38
0.89939207 1.4475317 -0.89371735 1.3079836e-38
0.89798796 1.4486301 -0.89632678 1.4829025e-38
0.89046532 1.4438533 -0.88493913 1.4735749e-38
0.88218653 1.4384408 -0.87203741 1.4736828e-38
0.87406892 1.436072 -0.86637735 1.2249365e-38
0.8699894 1.4343909 -0.86236584 1.4829027e-38
0.86551172 1.4302106 -0.8524065 1.0406552e-38
0.86276346 1.428924 -0.84933704 1.2802893e-38
0.85401362 1.4239919 -0.83757669 1.2710699e-38
0.84938776 1.4211005 -0.83068377 1.2617769e-38
1.2249341 1.6198962 -1.3047751 1.1970659e-38
1.207404 1.6095258 -1.2800497 1.2154273e-38
1.1860479 1.6000427 -1.2574241 1.0867156e-38
1.1766131 1.5951791 -1.2458247 1.1144461e-38
1.1736456 1.5930276 -1.2406969 1.3444657e-38
1.1566917 1.5867695 -1.2257572 1.2063877e-38
1.1493167 1.5821626 -1.2147746 1.2801081e-38
1.149834 1.5825657 -1.2157351 1.464175e-38
1.1277883 1.5693825 -1.1843044 1.5283517e-38
1.1091639 1.5617908 -1.1661869 1.3441771e-38
1.0991993 1.5556253 -1.1514882 1.3074061e-38
1.0845251 1.5473914 -1.1318542 1.362759e-38
1.0648012 1.5384339 -1.110484 1.5100922e-38
1.0540338 1.5318402 -1.0947644 1.3352463e-38
1.0139996 1.5111568 -1.0454353 1.3723766e-38
1.0022418 1.5045612 -1.0297079 1.4552075e-38
0.99493456 1.4999118 -1.0186244 1.4735753e-38
0.98285973 1.4958407 -1.0089028 1.5012699e-38
0.9749158 1.4908215 -0.99693751 1.4920505e-38
0.97081947 1.4879394 -0.99006772 1.4645001e-38
0.96138299 1.4830458 -0.97839707 1.473755e-38
0.95472908 1.4812282 -0.97405326 1.7038113e-38
0.94502568 1.4758493 -0.9612267 1.4735746e-38
0.93538725 1.4695978 -0.94632429 1.4828305e-38
0.92953962 1.4658494 -0.93738902 1.4828302e-38
0.92423987 1.4624256 -0.92922705 1.4552074e-38
0.91819561 1.4620249 -0.92825621 1.4828295e-38
0.91188723 1.4588128 -0.92059529 1.4184375e-38
0.90512961 1.4544582 -0.91021454 1.4644994e-38
0.90114105 1.4518439 -0.9039824 1.4828308e-38
0.89301515 1.4480594 -0.8949545 1.722216e-38
0.88320094 1.4440473 -0.88537967 1.2618501e-38
0.87873399 1.440556 -0.87705994 1.4828304e-38
0.87178081 1.4380474 -0.87107074 1.0405464e-38
0.86797255 1.4357858 -0.86567879 1.0313981e-38
0.86469191 1.4351143 -0.86407119 1.261635e-38
0.8585996 1.431259 -0.85488063 1.3263869e-38
0.84976053 1.425555 -0.84128326 1.418547e-38
0.84401751 1.4219418 -0.83266956 1.4645001e-38
1.2070698 1.6160917 -1.2956706 1.3168802e-38
1.191222 1.60913 -1.2790605 1.2431577e-38
1.1755122 1.5999993 -1.2572899 1.0683474e-38
1.1679394 1.595031 -1.2454467 1.1512871e-38
1.1483096 1.5854281 -1.2225413 1.491978e-38
1.1402243 1.5813267 -1.212759 1.5194583e-38
1.1257858 1.5732945 -1.1936059 1.5745945e-38
1.0894994 1.5557306 -1.15171 1.3351008e-38
1.0848774 1.551843 -1.142447 1.3812337e-38
1.074791 1.5464458 -1.1295761 1.3719427e-38
1.0724608 1.5447264 -1.125478 1.509983e-38
1.0554384 1.5377622 -1.1088583 1.3074068e-38
1.0414147 1.5297616 -1.0897816 1.3259551e-38
1.0264868 1.5202804 -1.0671793 1.3539015e-38
1.0075027 1.5119162 -1.0472231 1.3908508e-38
1.0062746 1.5112278 -1.0455818 1.6117251e-38
0.99330634 1.5037725 -1.0278053 1.4828664e-38
0.98751545 1.5000398 -1.0189072 1.4828302e-38
0.97733355 1.4969132 -1.0114384 1.5013055e-38
0.97046882 1.4924977 -1.0009124 1.4920861e-38
0.9640581 1.4883881 -0.99111581 1.4828304e-38
0.95597136 1.4840968 -0.98088157 1.4737185e-38
0.94591516 1.4790182 -0.96876884 1.326351e-38
0.93822509 1.475989 -0.96153897 1.317167e-38
0.93371338 1.4732308 -0.95496351 1.4643556e-38
0.9284339 1.4697855 -0.94675046 1.4644991e-38
0.92262059 1.4660274 -0.937792 1.4644988e-38
0.91401184 1.4637837 -0.93242836 1.2618869e-38
0.90577686 1.4590487 -0.92113847 1.2894023e-38
0.90083545 1.4559909 -0.9138487 1.4828666e-38
0.89284486 1.4508705 -0.90164238 1.50127e-38
0.89032525 1.4492531 -0.89778668 1.261778e-38
0.88217419 1.4466383 -0.89154154 1.3171314e-38
0.8759411 1.4427688 -0.88231665 1.3079475e-38
0.87016326 1.4408883 -0.87782526 1.4828665e-38
0.86602932 1.4382548 -0.87154734 1.3629404e-38
0.85852486 1.4355441 -0.86507583 1.3077674e-38
0.85364759 1.4324187 -0.85762542 1.3354976e-38
0.8476283 1.4285315 -0.84835899 1.5935013e-38
0.83863378 1.4234006 -0.83612514 1.6855533e-38
0.83476192 1.4209313 -0.83023834 1.6394553e-38
1.2068634 1.6203233 -1.3057381 1.3169145e-38
1.1852494 1.6093829 -1.2796444 1.1970275e-38
1.1738329 1.6040547 -1.2669339 1.0867147e-38
1.1595361 1.5961939 -1.2481891 1.1512152e-38
1.1498572 1.5907301 -1.2351605 1.215501e-38
1.146135 1.5877067 -1.2279561 1.280036e-38
1.1359963 1.5813715 -1.2128534 1.3261344e-38
1.1276398 1.5795523 -1.2085004 1.5377153e-38
1.114921 1.5718654 -1.1901741 1.3536829e-38
1.0967516 1.5615655 -1.1656144 1.3258446e-38
1.0856457 1.5564022 -1.1532967 1.5836707e-38
1.0768671 1.5526656 -1.1443806 1.4180758e-38
1.0737214 1.5504673 -1.1391411 1.574484e-38
1.0482225 1.5353618 -1.1031258 1.3166989e-38
1.036662 1.5315168 -1.0939437 1.2892564e-38
1.0252867 1.5247241 -1.0777487 1.1420322e-38
1.0262377 1.5249505 -1.0782902 1.3169159e-38
1.0226758 1.5227573 -1.0730617 1.5657703e-38
1.0044 1.5145713 -1.0535312 1.3908871e-38
0.99759066 1.510216 -1.0431489 1.436805e-38
0.98927832 1.5067476 -1.0348723 1.2435931e-38
0.98195887 1.5011092 -1.0214353 1.4828304e-38
0.97688001 1.4994898 -1.0175675 1.7038497e-38
0.97115457 1.4977585 -1.0134314 1.5196739e-38
0.96056521 1.4924536 -1.0007786 1.3264226e-38
0.95510465 1.4883277 -0.99094605 1.4829381e-38
0.94875532 1.4842138 -0.98113936 1.4921221e-38
0.94255561 1.4801995 -0.97156966 1.5105248e-38
0.93048769 1.4757819 -0.96102381 1.4735746e-38
0.924196 1.4716932 -0.95127708 1.4829018e-38
0.91830617 1.4694955 -0.94603103 1.2802902e-38
0.90953761 1.4654846 -0.93646234 1.2708558e-38
0.90421301 1.4620676 -0.92831659 1.2064263e-38
0.89756018 1.4584367 -0.91965806 1.2156453e-38
0.88773942 1.452132 -0.90462852 1.3079489e-38
0.88878149 1.4528861 -0.90642589 1.2617437e-38
0.88198751 1.4490987 -0.89739466 1.2524516e-38
0.87448901 1.4443316 -0.88603085 1.2710319e-38
0.86466038 1.4410357 -0.87816 1.4736828e-38
0.86004937 1.437952 -0.8708095 1.4829028e-38
0.85584271 1.4371397 -0.86886454 1.3996396e-38
0.84679043 1.431926 -0.85643291 1.307767e-38
0.8421185 1.4293191 -0.85021675 1.6947725e-38
0.8359133 1.4255645 -0.84126532 1.869691e-38
0.8315742 1.4231081 -0.83540815 1.7315781e-38
1.2088482 1.6260943 -1.3194751 1.2617796e-38
1.2053124 1.6248372 -1.3164734 1.3261691e-38
1.1894683 1.615234 -1.2935784 1.3168791e-38
1.181267 1.6102701 -1.2817439 1.2892564e-38
1.1682988 1.6060203 -1.2715944 1.2707818e-38
1.1550184 1.5985769 -1.2538455 1.1511794e-38
1.1440296 1.5916953 -1.2374401 1.187985e-38
1.1302211 1.5830852 -1.2169137 1.3077307e-38
1.1186806 1.5781648 -1.2051728 1.5655547e-38
1.1147338 1.5771925 -1.202848 1.5469713e-38
1.103166 1.5700513 -1.1858233 1.5744856e-38
1.0949687 1.5653244 -1.1745524 1.3442487e-38
1.0868965 1.5602214 -1.1623873 1.362759e-38
1.0614084 1.5478172 -1.1327996 1.3628314e-38
1.0472132 1.5401396 -1.1144905 1.5190969e-38
1.0422106 1.5367258 -1.1063535 1.2888602e-38
1.0288439 1.5316068 -1.094135 1.289364e-38
1.0240833 1.5284877 -1.0866997 1.3076961e-38
1.0142602 1.5221906 -1.0716885 1.3907788e-38
0.99551702 1.5138586 -1.0518093 1.1883119e-38
0.98428506 1.507443 -1.0365119 1.4829024e-38
0.97738963 1.5029855 -1.0258859 1.5012695e-38
0.97496015 1.504581 -1.0296751 1.0595281e-38
0.96923912 1.5014354 -1.0221744 1.2619957e-38
0.95770586 1.4946343 -1.0059584 1.2619595e-38
0.9535715 1.4919994 -0.99967724 1.2896542e-38
0.94573271 1.4870265 -0.98782253 1.3080213e-38
0.93802685 1.4821236 -0.97613448 1.3355717e-38
0.92673326 1.4765167 -0.96276087 1.1053724e-38
0.92097616 1.4735253 -0.95562696 1.2987656e-38
0.9125402 1.4694479 -0.94590086 1.4644635e-38
0.90459752 1.4648982 -0.93505239 1.2803253e-38
0.89957714 1.4617343 -0.92750984 1.2618861e-38
0.89637411 1.4623454 -0.92895448 1.1788013e-38
0.88914508 1.4577011 -0.9178831 1.2340105e-38
0.88387209 1.4549272 -0.91126794 1.2986553e-38
0.87750256 1.4508281 -0.90149635 1.3907075e-38
0.86993849 1.4459463 -0.88985902 1.4366976e-38
0.86170292 1.4428127 -0.88237917 1.4551362e-38
0.85537463 1.4383748 -0.8718015 1.3998198e-38
0.85373181 1.4383092 -0.8716405 1.4829387e-38
0.8483454 1.4346825 -0.8629961 1.4921589e-38
0.84062982 1.4304879 -0.85299319 1.4921582e-38
0.83458829 1.4289275 -0.84926307 1.6947358e-38
0.83386779 1.4276874 -0.84631032 1.6210886e-38
0.82520598 1.4234171 -0.83612454 1.6393826e-38
1.2015845 1.6281331 -1.3243045 1.3352462e-38
1.1879507 1.6197467 -1.3043108 1.3076595e-38
1.1750913 1.6119256 -1.2856646 1.3075878e-38
1.1510746 1.6011797 -1.2600268 1.3536483e-38
1.1269087 1.5863178 -1.2245952 1.316986e-38
1.1195115 1.5825324 -1.215567 1.3445363e-38
1.1088077 1.5787741 -1.2065936 1.5562615e-38
1.095827 1.5712937 -1.1887577 1.3813068e-38
1.0885836 1.5665708 -1.1774991 1.3626886e-38
1.0789604 1.5604461 -1.1628989 1.3627957e-38
1.0602034 1.5514413 -1.1414188 1.2156079e-38
1.0614661 1.552802 -1.1446599 1.5745945e-38
1.0366198 1.5380586 -1.1095085 1.2796404e-38
1.031473 1.534645 -1.1013714 1.2244312e-38
1.0216777 1.531917 -1.0948522 1.2708519e-38
1.0129993 1.5273025 -1.0838475 1.3078393e-38
1.0048524 1.5223368 -1.0720087 1.1515418e-38
0.99754274 1.5176899 -1.0609311 1.1792005e-38
0.98777193 1.5139691 -1.0520496 1.2067516e-38
0.98120731 1.5098013 -1.042114 1.2620685e-38
0.9695307 1.5037471 -1.0276752 1.5012336e-38
0.95717019 1.4969224 -1.0114011 1.3171674e-38
0.95487636 1.4973831 -1.0124905 1.4184037e-38
0.9487769 1.4936148 -1.0035068 1.4183317e-38
0.9423371 1.4896829 -0.994133 1.2895453e-38
0.932612 1.4833505 -0.97903776 1.3168443e-38
0.92517161 1.4793296 -0.96944892 1.2801105e-38
0.91811448 1.4757738 -0.96096814 1.1235949e-38
0.91147345 1.4734952 -0.95552707 1.5104534e-38
0.90841842 1.4708349 -0.94918859 1.2986571e-38
0.90060455 1.4662464 -0.93824822 1.4644993e-38
0.88469464 1.4593623 -0.92182267 1.3168435e-38
0.87942904 1.4565768 -0.91517997 1.2615611e-38
0.87370449 1.4528729 -0.90635014 1.5380404e-38
0.86370391 1.4463713 -0.89085186 1.5748822e-38
0.86241323 1.4463645 -0.89083213 1.786573e-38
0.85065496 1.4395404 -0.87456083 1.5932503e-38
0.84806824 1.4384723 -0.87201196 1.5841739e-38
0.84402162 1.4358212 -0.86569268 1.5934654e-38
0.83822024 1.4332494 -0.8595565 1.4830104e-38
0.83100289 1.4293765 -0.85032088 1.289653e-38
0.82342112 1.4267814 -0.84412396 1.7222862e-38
0.81692052 1.4231274 -0.83541107 1.5102371e-38
1.1808664 1.6212432 -1.3078508 1.2984045e-38
1.1724367 1.6160607 -1.2954953 1.2891837e-38
1.1578374 1.6070691 -1.2740592 1.3168066e-38
1.1398476 1.5997758 -1.2566534 1.1695824e-38
1.1322979 1.5948948 -1.2450181 1.2892917e-38
1.1189494 1.5874991 -1.2273827 1.362868e-38
1.1093868 1.5825528 -1.2155859 1.5653759e-38
1.101457 1.578413 -1.2057127 1.5931058e-38
1.0751801 1.5632398 -1.1695347 1.3629037e-38
1.0687265 1.5594218 -1.1604315 1.5745585e-38
1.0456394 1.5480601 -1.1333309 1.5100225e-38
1.00719 1.5285459 -1.0867888 1.1421444e-38
0.99823284 1.5231104 -1.0738299 1.0962589e-38
1.0004168 1.5246071 -1.0773975 1.1607974e-38
0.99505734 1.5211856 -1.0692413 1.1975675e-38
0.98215902 1.5152905 -1.0551773 1.2803998e-38
0.97730094 1.5121852 -1.0477744 1.3541193e-38
0.96780574 1.5067667 -1.0348545 1.3079487e-38
0.96060342 1.5021623 -1.0238785 1.3079496e-38
0.94919509 1.4958693 -1.0088722 1.3263869e-38
0.94385296 1.492471 -1.0007708 1.3171674e-38
0.93795139 1.4917066 -0.99893504 1.4642124e-38
0.93074518 1.4877146 -0.98941588 1.5104534e-38
0.92860198 1.4852898 -0.98364019 1.7129945e-38
0.92019469 1.4809333 -0.97324997 1.3811999e-38
0.91029447 1.4767902 -0.96336335 1.4090024e-38
0.90441895 1.4729838 -0.95428985 1.4551003e-38
0.89840639 1.4690922 -0.94501317 1.3721599e-38
0.89272875 1.4652784 -0.93592215 1.2799282e-38
0.88210422 1.4607174 -0.92503929 1.2711781e-38
0.87743288 1.4577814 -0.91803974 1.2987648e-38
0.87216175 1.4566156 -0.91525042 1.6302357e-38
0.86517698 1.4520241 -0.90430582 1.6486383e-38
0.85759091 1.4464865 -0.89110792 1.4920856e-38
0.8555156 1.4456153 -0.8890292 1.7038113e-38
0.84488702 1.4402429 -0.87621564 1.6854805e-38
0.84229732 1.4399868 -0.87559855 1.6947e-38
0.83775342 1.4369847 -0.86844254 1.713175e-38
0.83311039 1.4339418 -0.86118883 1.6855523e-38
0.82685852 1.4296981 -0.85107362 1.6946995e-38
0.81590188 1.4253892 -0.8407895 1.3356423e-38
0.81253731 1.4246991 -0.83913773 1.6301626e-38
0.81138998 1.420109 -0.82821333 1.3813451e-38
1.1856591 1.6259201 -1.3189923 1.3168076e-38
1.1639098 1.6162568 -1.2959368 1.3076599e-38
1.1492674 1.6073191 -1.2746289 1.1695823e-38
1.1387718 1.6023275 -1.2627214 1.3721973e-38
1.1302363 1.5978166 -1.251964 1.4641768e-38
1.1222513 1.5936464 -1.2420182 1.5010188e-38
0.99571043 1.5260686 -1.0808609 1.197314e-38
0.99471205 1.5259341 -1.0805378 1.2436643e-38
0.99015898 1.5232236 -1.0740758 1.4367712e-38
0.97332811 1.5141082 -1.052338 1.2524534e-38
0.96493077 1.5100522 -1.0426631 1.4091118e-38
0.95892453 1.5061586 -1.0333816 1.3998557e-38
0.95010066 1.5004596 -1.0197961 1.39078e-38
0.9443593 1.4967341 -1.0109154 1.4644285e-38
0.93470967 1.4938712 -1.0040754 1.5104896e-38
0.92485207 1.488356 -0.99092442 1.5104892e-38
0.92338848 1.4866395 -0.98683596 1.7221787e-38
0.91221166 1.4798287 -0.97059834 1.4828661e-38
0.90757424 1.4791355 -0.96893567 1.5658074e-38
0.90217048 1.4762955 -0.96216249 1.6025769e-38
0.89694387 1.4728664 -0.95398861 1.6117249e-38
0.89065158 1.4693953 -0.94571149 1.5933212e-38
0.88363135 1.4647734 -0.93469429 1.5472235e-38
0.87718558 1.4605902 -0.92472243 1.6209799e-38
0.85776687 1.4510697 -0.90201336 1.5013051e-38
0.85151756 1.4483271 -0.89546955 1.6854081e-38
0.84377736 1.4432096 -0.88327086 1.6946638e-38
0.83659971 1.4406581 -0.87717909 1.7222506e-38
0.83385766 1.4388407 -0.87284726 1.7039553e-38
0.8281337 1.435073 -0.86386597 1.7131032e-38
0.82247305 1.4313245 -0.85493028 1.7039197e-38
0.81528121 1.4271882 -0.84506804 1.7131385e-38
0.80952388 1.426005 -0.84223598 1.7223581e-38
0.80377024 1.4231852 -0.83551002 1.5840292e-38
1.166638 1.6221402 -1.3099431 1.243233e-38
1.1436758 1.6093519 -1.2794487 1.2893304e-38
1.1351352 1.6048201 -1.2686416 1.3814168e-38
0.98993033 1.5283651 -1.0863081 1.4281642e-38
0.98337543 1.5229816 -1.07348 1.4278368e-38
0.97772342 1.5191574 -1.0643646 1.4552447e-38
0.96965033 1.5153849 -1.0553652 1.5472974e-38
0.95933747 1.511338 -1.045706 1.565771e-38
0.9533658 1.5074365 -1.0364059 1.6301641e-38
0.94529194 1.5021731 -1.0238588 1.6025775e-38
0.94201803 1.5000833 -1.0188774 1.7499097e-38
0.93569428 1.4972044 -1.0120089 1.5010178e-38
0.92985052 1.4935257 -1.0032395 1.6487846e-38
0.9224655 1.4886342 -0.99157929 1.5656282e-38
0.9150883 1.4855984 -0.98433477 1.6854095e-38
0.89365774 1.4754996 -0.96024406 1.7039201e-38
0.88569528 1.4702494 -0.94772875 1.6854454e-38
0.87967443 1.4669343 -0.93982404 1.6761899e-38
0.87229282 1.46252 -0.92929918 1.2712503e-38
0.86909604 1.4599862 -0.92326134 1.7039561e-38
0.86357963 1.4563509 -0.91459602 1.7223229e-38
0.85218811 1.4511992 -0.90230513 1.2987283e-38
0.84449238 1.4476395 -0.89381284 1.4920865e-38
0.84176391 1.4463561 -0.89075118 1.7038832e-38
0.83760256 1.4445958 -0.8865512 1.9985128e-38
0.82959586 1.4404917 -0.87676263 1.7223585e-38
0.82370597 1.4365587 -0.86738777 1.7314343e-38
0.81972015 1.4339842 -0.86125034 1.8788388e-38
0.8083747 1.4270749 -0.84477824 1.7039913e-38
0.80410326 1.4253273 -0.8406077 1.1789819e-38
0.79692149 1.4231181 -0.83533031 1.4919067e-38
1.1720541 1.6295975 -1.3277019 1.2523445e-38
0.98344648 1.5247372 -1.0776571 1.0595229e-38
0.97830993 1.5237825 -1.0753707 1.5566608e-38
0.97353888 1.5215023 -1.0699314 1.5751356e-38
0.96476203 1.5165693 -1.0581686 1.5105976e-38
0.95520622 1.5135878 -1.0510468 1.7869679e-38
0.94605142 1.5077221 -1.0370641 1.7684573e-38
0.93835515 1.5033497 -1.026638 1.8053356e-38
0.93144798 1.4988024 -1.0157987 1.648674e-38
0.92511767 1.4946151 -1.0058172 1.5565499e-38
0.9204824 1.4915613 -0.99853784 1.7315428e-38
0.91355705 1.4881035 -0.99029052 2.0171693e-38
0.90207225 1.4824259 -0.97674817 1.5197813e-38
0.89713955 1.4790137 -0.96861517 1.5381839e-38
0.88820034 1.4759244 -0.96123868 1.7223596e-38
0.87971562 1.4694207 -0.94573945 1.2895453e-38
0.87917298 1.4714396 -0.95054168 1.6948081e-38
0.87284154 1.4672049 -0.94044757 1.6947004e-38
0.86508268 1.4620634 -0.92819166 1.7040277e-38
0.85922134 1.4588006 -0.92041129 1.7131029e-38
0.85430187 1.4555081 -0.9125635 1.6946285e-38
0.84803373 1.4530195 -0.9066239 1.8695831e-38
0.8357445 1.4461994 -0.89036113 1.4829027e-38
0.83131337 1.4430815 -0.88292962 1.5012705e-38
0.82636875 1.4424804 -0.88148481 1.7040281e-38
0.81895286 1.4371736 -0.8688367 1.2896168e-38
0.81845611 1.4376068 -0.86986613 1.7222876e-38
0.81114143 1.4326917 -0.85815018 1.722287e-38
0.80506718 1.4293844 -0.85026348 1.7131754e-38
0.80029249 1.4260291 -0.84226614 1.7131391e-38
0.97867048 1.5272801 -1.0836934 1.2251505e-38
0.97754419 1.5273323 -1.0838144 1.6679102e-38
0.9689644 1.5231037 -1.0737282 1.5383313e-38
0.96198571 1.5189214 -1.0637567 1.7593819e-38
0.95234019 1.5131992 -1.0501139 1.3449349e-38
0.94187731 1.5084398 -1.0387592 1.3356799e-38
0.93627387 1.506526 -1.0341895 1.9711803e-38
0.92730296 1.5010878 -1.0212239 1.8145194e-38
0.91965866 1.4958524 -1.008745 1.7223602e-38
0.91356206 1.4918244 -0.99914378 1.7131762e-38
0.90675151 1.4872912 -0.98833781 1.7408349e-38
0.8960743 1.482556 -0.97704029 1.7315796e-38
0.88378674 1.4764569 -0.96249264 1.3264241e-38
0.88278484 1.4751211 -0.95931149 1.510526e-38
0.8682183 1.4687754 -0.94417065 1.7039562e-38
0.85757118 1.4623555 -0.92886448 1.7408339e-38
0.85328817 1.4594477 -0.92193383 1.7223223e-38
0.84789443 1.4558008 -0.91324079 1.7038843e-38
0.84488058 1.4544841 -0.91009909 1.7038481e-38
0.833713 1.4485627 -0.89597803 1.6763324e-38
0.82856029 1.4447556 -0.88690436 1.6946997e-38
0.82747471 1.445004 -0.88749248 1.7131391e-38
0.81923389 1.4403292 -0.87634569 1.5105969e-38
0.81448638 1.4396878 -0.87480587 1.8789113e-38
0.80900747 1.4361308 -0.86632639 1.8972782e-38
0.7989924 1.4297115 -0.8510235 1.7315062e-38
0.79596436 1.4276265 -0.84605414 1.7039911e-38
0.79309189 1.4256983 -0.84145778 1.8603636e-38
0.78744012 1.4233284 -0.83580279 1.4641782e-38
0.97778893 1.5310374 -1.0926306 1.9631538e-38
0.974096 1.529642 -1.0892994 1.6496853e-38
0.96752614 1.5248336 -1.0778396 1.4832645e-38
0.95928788 1.5223217 -1.0718392 1.7686752e-38
0.95357937 1.5185384 -1.0628208 1.7778223e-38
0.94931376 1.5156792 -1.0560056 1.7962253e-38
0.93688697 1.5087136 -1.039396 1.5751e-38
0.92869902 1.5043222 -1.0289235 1.3727017e-38
0.92111486 1.5018693 -1.0230652 1.7963328e-38
0.91487169 1.4976722 -1.0130612 1.7777496e-38
0.90696728 1.4931147 -1.0021942 1.7961884e-38
0.90022296 1.4885767 -0.99137735 1.777749e-38
0.89167315 1.4837534 -0.97987628 1.3357157e-38
0.89224011 1.4857594 -0.98465079 1.7684579e-38
0.88696527 1.4821991 -0.97616434 1.7684577e-38
0.8804881 1.4777131 -0.96547192 1.7591657e-38
0.86963797 1.4707156 -0.94879127 1.5198173e-38
0.86037636 1.4672142 -0.94043308 1.2987655e-38
0.85711509 1.4662932 -0.93823218 1.9249378e-38
0.84749657 1.4601954 -0.92369574 1.7407264e-38
0.84214056 1.4565458 -0.91499668 1.7131389e-38
0.83999813 1.4558014 -0.91321921 1.9892934e-38
0.83298957 1.4499781 -0.89934343 1.5013056e-38
0.82769459 1.4491839 -0.89743817 1.6855164e-38
0.82325429 1.4461491 -0.89020461 1.7039913e-38
0.81716758 1.4426771 -0.88192588 1.6948437e-38
0.80615956 1.4364276 -0.86702412 1.2805056e-38
0.80050778 1.4326017 -0.85790491 1.2805053e-38
0.79826921 1.4338557 -0.86088187 1.7131758e-38
0.79175085 1.4293939 -0.85024673 1.7316504e-38
0.78695351 1.4256693 -0.84137094 1.5105611e-38
0.78430778 1.4248476 -0.83940822 1.6301267e-38
0.96652502 1.5292432 -1.0883288 1.3451156e-38
0.96464288 1.5284684 -1.0864793 1.7504163e-38
0.95688218 1.5250212 -1.0782551 1.8241372e-38
0.94880748 1.5203735 -1.0671731 1.8424314e-38
0.94382572 1.5170076 -1.0591499 1.8515431e-38
0.93397284 1.5111796 -1.0452547 1.8238485e-38
0.92828494 1.5073572 -1.0361437 1.833104e-38
0.92389405 1.5059495 -1.0327816 1.8239931e-38
0.90871727 1.4975992 -1.0128694 1.3911419e-38
0.90604806 1.4962438 -1.0096366 1.6120498e-38
0.90046334 1.4937525 -1.0036924 1.8054443e-38
0.8944962 1.4897103 -0.99405771 1.8053358e-38
0.8853941 1.4859918 -0.98518401 1.7777492e-38
0.88086355 1.4828891 -0.97778815 1.7777134e-38
0.87515384 1.4790221 -0.96857101 1.7775694e-38
0.86938965 1.4751229 -0.95927656 1.7407989e-38
0.85483366 1.4663929 -0.9384625 1.5198183e-38
0.84512693 1.4621469 -0.92833209 1.5382206e-38
0.84106201 1.4602153 -0.92372447 1.5198166e-38
0.83301985 1.4545623 -0.91025066 1.5013414e-38
0.83052462 1.4541868 -0.90934998 1.6947358e-38
0.82607341 1.452106 -0.90438581 1.6855168e-38
0.82068062 1.448561 -0.8959353 1.6855524e-38
0.81408268 1.4453624 -0.8883059 1.7040271e-38
0.80961347 1.4422753 -0.88094771 1.6948434e-38
0.80400652 1.4384222 -0.87176377 1.6948083e-38
0.78345877 1.4277066 -0.84620816 1.5290726e-38
0.78320789 1.4268467 -0.84416145 1.2989074e-38
0.78128922 1.427287 -0.84520328 1.7038476e-38
0.95945072 1.5294235 -1.0887369 1.4283064e-38
0.95594019 1.5268891 -1.0826964 1.6031911e-38
0.95263976 1.5263939 -1.0815085 1.8610879e-38
0.94106448 1.5211687 -1.0690424 1.8794543e-38
0.93768734 1.5188656 -1.0635526 1.8886013e-38
0.92831421 1.5125253 -1.0484401 1.8792375e-38
0.9234339 1.5093087 -1.0407724 1.8607988e-38
0.92042494 1.5072803 -1.0359377 1.8608344e-38
0.91016877 1.5011108 -1.0212284 1.8515421e-38
0.89672768 1.4958317 -1.008629 1.6305251e-38
0.8943817 1.4945493 -1.0055704 1.8331389e-38
0.88849199 1.4905198 -0.9959662 1.8145918e-38
0.87577188 1.4845204 -0.98165476 1.7961882e-38
0.87196475 1.4819102 -0.97543299 1.7960803e-38
0.86639726 1.4779538 -0.96600318 1.7408343e-38
0.85809529 1.4722878 -0.95249784 1.7039924e-38
0.85049194 1.4681464 -0.94262189 1.5198539e-38
0.84995002 1.4678476 -0.94190949 1.7132125e-38
0.838754 1.4623026 -0.92868376 1.7223952e-38
0.83470958 1.4594904 -0.9219808 1.713175e-38
0.82799309 1.4573482 -0.91686434 1.7222505e-38
0.82221425 1.4532194 -0.90702397 1.6855167e-38
0.8171109 1.449703 -0.89864206 1.6855163e-38
0.80901116 1.446597 -0.89122844 1.713175e-38
0.80330551 1.4425081 -0.88148338 1.7315786e-38
0.79787451 1.4387435 -0.87251025 1.7131755e-38
0.79107571 1.4341171 -0.86148268 1.703992e-38
0.7823928 1.431973 -0.85635579 1.7132827e-38
0.77667677 1.4273163 -0.84525967 1.5013407e-38
0.77387446 1.4267328 -0.84386307 1.7039562e-38
0.95865536 1.5339246 -1.0994438 1.8984342e-38
0.9519152 1.5286053 -1.0867683 1.5847891e-38
0.94775981 1.5282297 -1.0858623 1.9071489e-38
0.93872541 1.5248002 -1.0776759 1.9071133e-38
0.93102157 1.5195527 -1.0651683 1.9070049e-38
0.92533225 1.5156635 -1.055898 1.9068245e-38
0.91612083 1.5093857 -1.0409342 1.6766592e-38
0.91457289 1.5082299 -1.0381795 1.8884931e-38
0.90812457 1.5047234 -1.0298182 1.8700174e-38
0.8494013 1.4077541 -0.79892898 8.6540844e-39
0.84439296 1.4048775 -0.79207027 1.6208759e-38
0.8461706 1.409469 -0.80299997 8.3778913e-39
0.84108365 1.4070616 -0.79725701 1.3261351e-38
0.83973223 1.4064249 -0.79573816 1.9341237e-38
0.83642298 1.408609 -0.80092484 1.6853031e-38
0.8350715 1.4079722 -0.79940611 1.9246878e-38
0.83701682 1.4127237 -0.81071657 1.10494e-38
0.83041072 1.4095196 -0.803074 2.0536521e-38
0.83794016 1.4184451 -0.82433224 1.4183659e-38
0.83404952 1.4157944 -0.81801403 1.4367331e-38
0.83066833 1.4139735 -0.81367153 2.1000351e-38
0.82575005 1.4110669 -0.80674189 2.0535799e-38
0.82875293 1.4168955 -0.82061839 1.5565876e-38
0.82598501 1.4155283 -0.81735712 2.1182594e-38
0.82108927 1.4126143 -0.81040984 2.1640695e-38
0.82348108 1.4178524 -0.82287937 1.5933921e-38
0.82100672 1.4166392 -0.81998593 1.4274781e-38
0.82024407 1.4200882 -0.82818949 1.6209795e-38
0.99542779 1.5329435 -1.0972174 1.4282432e-38
0.79882836 1.4120327 -0.80896056 1.6944148e-38
0.98984909 1.5347956 -1.1016078 2.3509886e-38
0.80303818 1.4184222 -0.8241753 1.2153593e-38
0.79481518 1.418112 -0.82341337 1.5012364e-38
0.79173666 1.41594 -0.81823641 1.0961177e-38
0.79114276 1.4193883 -0.82643908 1.4549585e-38
0.78207141 1.4196653 -0.82707149 9.7597523e-39
0.95813888 1.5418948 -1.1184055 2.2312793e-38
0.95623761 1.5403934 -1.1148278 2.1110301e-38
0.95134521 1.5368329 -1.106342 1.8706307e-38
0.94460613 1.5320597 -1.0949656 1.9071141e-38
0.93282312 1.5269749 -1.0828327 1.8978936e-38
0.92456377 1.5211539 -1.0689589 1.8978208e-38
0.91831237 1.5166756 -1.0582854 1.8977124e-38
0.90426779 1.5074277 -1.0362408 1.8883845e-38
0.89643294 1.5018748 -1.0230061 1.8607615e-38
0.88956106 1.4969946 -1.0113746 1.8606898e-38
0.8860994 1.4944532 -1.0053176 1.8606899e-38
0.87857658 1.4891222 -0.99261135 1.8053001e-38
0.86883861 1.4852241 -0.98330861 1.7870039e-38
0.86376905 1.4815547 -0.9745633 1.7869319e-38
0.8578316 1.4781926 -0.96654624 1.7592369e-38
0.85204321 1.4740452 -0.95666128 1.7040278e-38
0.84580147 1.469584 -0.94602859 1.7224677e-38
0.9906106 1.5692897 -1.1836809 2.3509886e-38
0.96840823 1.5539346 -1.1470817 2.3509886e-38
0.95631629 1.5463545 -1.1290112 2.1942896e-38
0.94990712 1.5414834 -1.1174027 1.8979995e-38
0.94321668 1.5366412 -1.1058621 1.9533903e-38
0.9373889 1.5324361 -1.09584 1.9070768e-38
0.92661941 1.5280498 -1.0853722 1.8884924e-38
0.92031997 1.5235236 -1.0745846 1.8793084e-38
0.9122026 1.5177337 -1.0607851 1.888456e-38
0.90499365 1.5125746 -1.0484886 1.8791644e-38
0.89958578 1.508655 -1.0391473 1.8791648e-38
0.89041835 1.5030539 -1.0257937 1.8515774e-38
0.88532275 1.4993432 -1.01695 1.8514336e-38
0.87940168 1.4948933 -1.0063453 1.8330304e-38
0.87216693 1.490802 -0.99658984 1.786897e-38
0.86301786 1.4862381 -0.98570412 1.7684929e-38
0.85589671 1.4820573 -0.97573614 1.7776763e-38
0.84950894 1.4774532 -0.96476281 1.7409051e-38
0.84631312 1.4750396 -0.95901048 1.7223948e-38
0.84011376 1.4705708 -0.94836015 1.7316148e-38
0.83224607 1.4649302 -0.93491644 1.7408338e-38
0.8255586 1.4610338 -0.92562592 1.7224304e-38
0.82103604 1.4577156 -0.91771823 1.7222147e-38
0.8166908 1.4545212 -0.91010475 1.6855165e-38
0.8072499 1.4506601 -0.90089071 1.6946995e-38
0.80143106 1.4464375 -0.89082676 1.7222865e-38
0.79913306 1.4446564 -0.88658214 1.7315781e-38
0.7908802 1.4385874 -0.87211818 1.7223582e-38
0.78658569 1.4354296 -0.86459213 1.7131392e-38
1.0945585 1.6412059 -1.3550943 1.7495863e-38
1.0869271 1.635836 -1.3422953 1.8138393e-38
1.0810491 1.6334299 -1.3365532 1.8991249e-38
1.0259459 1.5972575 -1.2503276 1.9545887e-38
1.0175959 1.5915297 -1.2366751 1.7782002e-38
1.0125118 1.5873367 -1.2266839 1.7798833e-38
0.98850149 1.5740654 -1.1950374 1.7965142e-38
0.98007244 1.5680186 -1.1806254 1.9163334e-38
0.97899479 1.5670897 -1.1784123 2.0818884e-38
0.96416456 1.5576428 -1.155892 1.8979317e-38
0.95651841 1.5521119 -1.14271 1.9994542e-38
0.95141226 1.5486343 -1.1344211 2.0911779e-38
0.94253629 1.5420157 -1.1186475 1.9347694e-38
0.93694329 1.537727 -1.1084269 1.9161862e-38
0.93115467 1.533516 -1.0983911 1.8516493e-38
0.92222786 1.5305467 -1.0912999 1.8237755e-38
0.91357791 1.525154 -1.078444 1.8513615e-38
0.90553206 1.5193539 -1.0646203 1.8421782e-38
0.89924085 1.5147922 -1.0537481 1.8238466e-38
0.89216185 1.5096811 -1.0415668 1.8514692e-38
0.88444823 1.5040889 -1.0282389 1.823775e-38
0.87938738 1.5003734 -1.0193839 1.8329225e-38
0.87295699 1.4966644 -1.0105401 1.8329219e-38
0.8671689 1.4924022 -1.0003822 1.7776411e-38
0.85740757 1.4885021 -0.99107438 1.7683847e-38
0.85166782 1.4843127 -0.98108935 1.7685283e-38
0.84626728 1.4803648 -0.97168082 1.7316142e-38
0.84057963 1.4760281 -0.96134591 1.7315782e-38
0.83367836 1.4710515 -0.94948459 1.7224305e-38
0.82689285 1.4670364 -0.93991178 1.7224307e-38
0.82231665 1.4636219 -0.93177432 1.7132105e-38
0.8162024 1.4591777 -0.92118239 1.7038824e-38
0.81061834 1.4550745 -0.91140348 1.7039191e-38
0.80173898 1.4516139 -0.90314358 1.7038113e-38
0.79871124 1.4493246 -0.89768803 1.7223588e-38
0.79293972 1.445103 -0.88762653 1.7224665e-38
0.7849955 1.4402117 -0.87596548 1.6948434e-38
0.77867931 1.4356256 -0.86503524 1.7039557e-38
0.77595389 1.4335508 -0.86009109 1.694808e-38
0.77172279 1.4304056 -0.85259533 1.7131385e-38
0.76765472 1.4273789 -0.84538209 1.7223944e-38
1.0917989 1.6462607 -1.3671131 1.7590572e-38
1.0868785 1.6425965 -1.3583802 1.7867127e-38
1.0766175 1.6352651 -1.3409069 2.0088192e-38
1.04436 1.6158583 -1.2946379 3.3561098e-42
1.0362154 1.6099858 -1.2806418 6.2371795e-42
1.0289826 1.6058114 -1.2706884 8.3418177e-40
1.0176497 1.5976527 -1.2512434 1.570658e-39
1.0065188 1.5897323 -1.232366 1.2933859e-39
0.99890167 1.5842296 -1.2192514 3.8037266e-40
0.99658495 1.5822914 -1.214633 1.3452964e-38
0.98189741 1.5752016 -1.1977215 1.7685646e-38
0.97578597 1.5707161 -1.1870314 1.8054067e-38
0.96934611 1.5660033 -1.1757993 1.833101e-38
0.9597702 1.5601591 -1.1618662 1.8699797e-38
0.9528932 1.5551585 -1.1499482 1.8792357e-38
0.9451471 1.5495139 -1.1364957 1.9068585e-38
0.93622071 1.543101 -1.1212109 1.8884201e-38
0.92736977 1.5377132 -1.1083659 1.8238106e-38
0.92245358 1.534048 -1.0996312 1.7686005e-38
0.91454959 1.5316155 -1.0938205 1.814519e-38
0.90833235 1.5270594 -1.082962 1.8513611e-38
0.89933473 1.5205305 -1.0674013 1.823738e-38
0.89408225 1.5164924 -1.0577784 1.805371e-38
0.88699609 1.5113299 -1.0454746 1.8238103e-38
0.87847465 1.5051179 -1.0306697 1.8237382e-38
0.87118918 1.5008069 -1.0203912 1.8145185e-38
0.86704236 1.497682 -1.0129437 1.8053349e-38
0.86204332 1.4939786 -1.004118 1.7776403e-38
0.85156804 1.4895105 -0.9934563 1.7591653e-38
0.84744918 1.486448 -0.98615789 1.7500889e-38
0.84124309 1.4818661 -0.97523785 1.7316144e-38
0.83490211 1.4772124 -0.96414715 1.7223222e-38
0.82787597 1.4721035 -0.95197076 1.7132112e-38
0.82328206 1.4686847 -0.94382292 1.7131394e-38
0.81516081 1.4637086 -0.93195963 1.713211e-38
0.814358 1.4629498 -0.93015206 1.6946994e-38
0.80508387 1.456032 -0.91366541 1.7038831e-38
0.79693627 1.4532365 -0.90699035 1.7038828e-38
0.79181027 1.4492573 -0.89750737 1.7040267e-38
0.78618622 1.4460348 -0.88982379 1.7223584e-38
0.77958673 1.4411453 -0.87817115 1.6947716e-38
0.77404463 1.4370509 -0.86841333 1.713211e-38
0.77059835 1.434469 -0.86226004 1.7223945e-38
0.7651642 1.4304285 -0.85263062 1.7315779e-38
0.76112622 1.4273986 -0.84540975 1.7315775e-38
1.0818607 1.6458685 -1.3661506 1.7592373e-38
1.069625 1.636549 -1.343941 1.6393459e-38
1.0398471 1.618765 -1.3015405 2.40835e-39
1.0335622 1.6144853 -1.2913395 4.8050777e-39
1.0220985 1.6069888 -1.2734698 3.6976329e-39
1.0108637 1.5988301 -1.254025 3.1455395e-39
1.000898 1.5916418 -1.2368927 3.5125508e-39
0.99245775 1.5854722 -1.2221889 4.6195317e-39
0.98826694 1.5822968 -1.2146215 1.3912866e-38
0.97549748 1.5766366 -1.2011167 1.7686008e-38
0.96982688 1.5735376 -1.1937269 1.8330297e-38
0.96344405 1.568815 -1.1824716 1.8698358e-38
0.95219952 1.5605159 -1.1626928 1.8976028e-38
0.94645643 1.556254 -1.152536 1.9068225e-38
0.9376806 1.549861 -1.1372992 1.8976387e-38
0.92812508 1.5429063 -1.1207238 1.8791278e-38
0.92109829 1.538787 -1.1109027 1.8238103e-38
0.91622281 1.5351213 -1.1021667 1.7777846e-38
0.90832263 1.532679 -1.0963326 1.8329218e-38
0.90027964 1.5268 -1.0823214 1.8512886e-38
0.89321554 1.5215782 -1.0698763 1.8052272e-38
0.88978469 1.5189662 -1.0636516 1.7870038e-38
0.88177723 1.5131266 -1.0497342 1.8237737e-38
0.87696254 1.5097123 -1.0415967 2.0631571e-38
0.86692744 1.5031856 -1.0260383 1.8145543e-38
0.86112386 1.4986935 -1.0153329 1.8052986e-38
0.85615945 1.4949853 -1.0064958 1.7775322e-38
0.85245997 1.4937502 -1.0035465 2.2286418e-38
0.84601539 1.4908365 -0.99659508 1.7499813e-38
0.83949167 1.4860401 -0.98516375 1.7315782e-38
0.83282173 1.4820505 -0.97565186 1.7223225e-38
0.82734221 1.4779741 -0.96593696 1.6948073e-38
0.81973886 1.4723597 -0.95255637 1.7131394e-38
0.81278521 1.4672494 -0.94037712 1.6947004e-38
0.80902821 1.4642348 -0.93319392 1.6947714e-38
0.80187261 1.4589248 -0.92053866 1.7039181e-38
0.7955637 1.4552094 -0.91168028 1.6946279e-38
0.78878945 1.4522465 -0.90461093 1.6947718e-38
0.78325313 1.4490474 -0.89698321 1.7223945e-38
0.77783614 1.4449755 -0.88727903 1.7223947e-38
0.77243239 1.4409375 -0.87765568 1.7131395e-38
0.76814878 1.437724 -0.8699972 1.7039914e-38
0.76276159 1.4336784 -0.86035585 1.7132473e-38
0.75906867 1.4310852 -0.85417533 1.9341201e-38
1.0788301 1.6504334 -1.377003 1.7409785e-38
1.0737535 1.6461912 -1.3668945 1.7315783e-38
1.0637932 1.6389048 -1.349529 1.7315063e-38
1.0493035 1.6322474 -1.3336469 1.4828751e-38
1.044917 1.6288972 -1.3256629 2.9608133e-39
1.0305314 1.6185181 -1.300926 1.948811e-39
1.0237346 1.6132442 -1.2883579 3.513606e-39
1.01309 1.6066353 -1.2726022 3.9727792e-39
1.0040728 1.6000004 -1.2567897 3.6050771e-39
0.9941684 1.5927961 -1.2396194 3.696226e-39
0.98614961 1.5880215 -1.2282357 5.2638109e-39
0.98215443 1.5849569 -1.2209324 1.4373106e-38
0.96961677 1.5771402 -1.2022978 1.676514e-38
0.96563023 1.5765067 -1.2007788 1.8146264e-38
0.95945978 1.571895 -1.1897882 1.842069e-38
0.95328933 1.5672882 -1.1788089 1.8974226e-38
0.9452213 1.5613766 -1.1647201 1.8883829e-38
0.93571979 1.5543909 -1.1480716 1.8975308e-38
0.92834401 1.5500094 -1.1376249 1.8974945e-38
0.91894442 1.5430977 -1.1211528 1.851469e-38
0.91329741 1.5388675 -1.1110712 1.8329942e-38
0.90938824 1.5359031 -1.1040068 1.8145547e-38
0.89975429 1.5321928 -1.0951507 1.8421408e-38
0.89019477 1.5251604 -1.0783907 1.814518e-38
0.88308972 1.5198864 -1.0658215 1.796115e-38
0.87699473 1.5151472 -1.0545276 1.8329574e-38
0.86943907 1.5095524 -1.041194 1.8421409e-38
0.86559033 1.5075996 -1.0365361 1.7961151e-38
0.85800439 1.5020095 -1.0232137 1.8145183e-38
0.85307258 1.4982908 -1.0143514 1.795971e-38
0.84578311 1.4928541 -1.0013949 1.7591643e-38
0.83776885 1.490115 -0.99485415 1.759164e-38
0.83314973 1.4866077 -0.98649555 1.7316137e-38
0.82539862 1.481858 -0.97517198 1.7131031e-38
0.82149899 1.4789026 -0.96812898 1.7039192e-38
0.81559342 1.4744556 -0.95753098 1.7131385e-38
0.80715352 1.4682128 -0.94265294 1.685516e-38
0.8027544 1.4648691 -0.93468475 1.6855164e-38
0.79579711 1.460641 -0.92460424 1.6855158e-38
0.79148293 1.4573568 -0.91677767 1.7038472e-38
0.78543478 1.455107 -0.91140699 1.906568e-38
0.77847606 1.4506674 -0.90082353 1.7131757e-38
0.77164423 1.4455427 -0.88861042 1.7132112e-38
0.76703268 1.4418623 -0.87984025 1.7039561e-38
0.76277399 1.4386406 -0.87216216 1.703992e-38
0.75743085 1.4345925 -0.86251533 1.7315783e-38
0.75355136 1.4316207 -0.85543293 1.7132105e-38
0.74957395 1.428583 -0.84819394 1.7132114e-38
1.0717484 1.6517496 -1.3801136 1.7686382e-38
1.0665323 1.6474169 -1.3697896 1.7407263e-38
1.0566523 1.6401274 -1.352417 1.7315426e-38
1.044222 1.6337744 -1.337265 1.7316564e-38
1.0328931 1.6279192 -1.3233008 6.3605007e-39
1.0236764 1.6204139 -1.3054162 4.4366371e-39
1.014503 1.6140974 -1.2903608 3.8805948e-39
1.0033132 1.6058567 -1.2707208 4.1578908e-39
0.99343914 1.5985751 -1.2533673 3.6058044e-39
0.98309171 1.5921193 -1.2379769 2.3175865e-39
0.97481793 1.5859549 -1.2232856 1.0415554e-38
0.97086191 1.5828936 -1.2159902 1.6581823e-38
0.95693201 1.5763338 -1.2003419 1.8054785e-38
0.95286733 1.5732166 -1.1929132 1.8329215e-38
0.94674051 1.5686022 -1.1819162 1.8698361e-38
0.93700963 1.5612034 -1.164284 1.8974947e-38
0.92875707 1.5561571 -1.1522533 1.8790195e-38
0.9219749 1.5510907 -1.1401792 1.8790915e-38
0.91264892 1.5441723 -1.123691 1.8514331e-38
0.90704209 1.539937 -1.1135976 1.8514334e-38
0.90315127 1.5369643 -1.1065131 1.8238107e-38
0.89354199 1.5332468 -1.09764 1.8329214e-38
0.885028 1.5268865 -1.0824823 1.8145178e-38
0.8781563 1.5228028 -1.0727459 1.8144821e-38
0.87311226 1.5189615 -1.0635915 1.8145544e-38
0.86368644 1.5119623 -1.0469109 1.8237382e-38
0.86043513 1.509411 -1.0408311 1.8144824e-38
0.85399187 1.5045428 -1.0292294 1.796115e-38
0.846466 1.4989485 -1.0158967 1.8051904e-38
0.8393563 1.4946517 -1.0056529 1.7591644e-38
0.83198535 1.4913087 -0.99767733 1.7592365e-38
0.82443315 1.4867127 -0.98671973 1.7499449e-38
0.81963658 1.4828378 -0.97748655 1.6947358e-38
0.8157528 1.4798721 -0.97041875 1.6855171e-38
0.80825764 1.4742416 -0.95700037 1.7038836e-38
0.80236882 1.4697659 -0.9463343 1.6946634e-38
0.8003763 1.4684664 -0.94323635 1.9248648e-38
0.79022878 1.4615904 -0.92684686 1.6763687e-38
0.78594476 1.4583019 -0.91900998 1.6947714e-38
0.78142589 1.4569019 -0.91566569 1.6947717e-38
0.77443892 1.4526523 -0.90553427 1.7131751e-38
0.76811433 1.4478869 -0.89417762 1.7132112e-38
0.76342237 1.4442807 -0.88558364 1.703992e-38
0.75877994 1.4416995 -0.87942863 1.7040644e-38
0.75160176 1.4362414 -0.86642122 1.7407982e-38
0.7483899 1.433708 -0.86038405 1.7132105e-38
0.745628 1.4315413 -0.85522097 1.7132107e-38
1.0691905 1.6562945 -1.3909197 2.0448634e-38
1.0644444 1.652908 -1.3828481 1.9893657e-38
1.0568136 1.6473637 -1.3696346 2.0261725e-38
1.0422641 1.6375161 -1.3461616 1.7683867e-38
1.0304879 1.6326946 -1.3346555 7.5583124e-39
1.0201845 1.6250228 -1.3163719 9.3718281e-40
1.0096232 1.6171994 -1.297727 3.789104e-39
1.0097216 1.6168256 -1.2968378 4.8940265e-39
0.99869394 1.6086183 -1.2772781 4.0664098e-39
0.98741114 1.6014353 -1.2601546 3.2373778e-39
0.97636855 1.593262 -1.2406756 2.1357008e-39
0.97037685 1.5886828 -1.2297629 1.1059838e-38
0.96313101 1.5832578 -1.2168342 1.6489277e-38
0.95439631 1.5784734 -1.2054254 2.2842841e-38
0.94630253 1.5743278 -1.1955378 1.8330294e-38
0.93834472 1.5683271 -1.1812372 1.8698003e-38
0.93259835 1.5639546 -1.170817 1.8882755e-38
0.9249661 1.5582193 -1.1571486 1.8882389e-38
0.91582781 1.5524936 -1.1434987 1.8698e-38
0.90839338 1.5469022 -1.1301737 1.8606165e-38
0.90176153 1.5416882 -1.1177486 1.8606161e-38
0.89742476 1.5386634 -1.110539 2.0447191e-38
0.88771659 1.5347376 -1.1011698 1.8237744e-38
0.8773725 1.5279272 -1.0849358 1.8237015e-38
0.87203622 1.5238383 -1.0751914 1.8144462e-38
0.86534834 1.5187461 -1.0630565 1.8052993e-38
0.85932237 1.5141795 -1.0521733 1.8237375e-38
0.8544417 1.510429 -1.0432355 1.8145181e-38
0.84805143 1.5055583 -1.0316281 1.7869673e-38
0.83912444 1.4999506 -1.0182599 1.7960075e-38
0.83349997 1.4956497 -1.00801 1.7775677e-38
0.82814682 1.4940718 -1.0042403 2.0077674e-38
0.81859499 1.4876409 -0.98891109 1.7499443e-38
0.81632215 1.4857895 -0.98449951 1.7039903e-38
0.8116883 1.4822118 -0.97597373 1.7039548e-38
0.80501747 1.4771677 -0.96395284 1.7037757e-38
0.79734027 1.4711866 -0.94969964 1.7038112e-38
0.79300255 1.4678334 -0.94170874 1.6947e-38
0.78611326 1.4635935 -0.93160081 1.6947357e-38
0.78169662 1.4601818 -0.9234702 1.6855519e-38
0.77235913 1.4562606 -0.91411328 1.6764401e-38
0.76893556 1.4535809 -0.9077273 1.7132467e-38
0.76121461 1.4477509 -0.8938337 1.7040277e-38
0.75736922 1.4447492 -0.88668048 1.7040634e-38
0.75336683 1.4426085 -0.88157552 1.7224674e-38
0.74625725 1.437151 -0.86856967 1.713247e-38
0.74233991 1.434096 -0.86128962 1.7132461e-38
0.74032408 1.4324446 -0.85735428 1.7224301e-38
1.0585861 1.6551476 -1.3881598 1.7778565e-38
1.05757 1.6546415 -1.3869525 2.0076969e-38
1.0448688 1.6459885 -1.3663274 1.7315066e-38
1.0377258 1.6405783 -1.353434 1.7408363e-38
1.0131773 1.6262105 -1.3191773 5.7091422e-40
1.0039026 1.6192356 -1.3025548 3.8812997e-39
