# .PCD v0.7 - Point Cloud Data file format
VERSION 0.7
FIELDS x y z rgb
SIZE 4 4 4 4
TYPE F F F F
COUNT 1 1 1 1
WIDTH 588
HEIGHT 1
VIEWPOINT 0 0 0 1 0 0 0
POINTS 588
DATA ascii
-1.9861561 1.4393003 -0.45588046 1.5677195e-38
-2.0115752 1.3423159 -0.51269698 2.2129838e-38
-2.0232337 1.2978693 -0.53871042 2.1301518e-38
-2.0200164 1.3067944 -0.5357877 2.2128763e-38
-2.0146313 1.3369836 -0.51146466 2.3142183e-38
-1.9912245 1.4406472 -0.44085416 2.249682e-38
-2.023268 1.3063475 -0.5278185 2.3509886e-38
-1.9966357 1.4340781 -0.43501401 2.2313144e-38
-2.0252285 1.3179193 -0.50792617 2.3509886e-38
-2.0191481 1.3434849 -0.49132025 2.3509886e-38
-2.0321076 1.3007616 -0.51172155 2.3509886e-38
-2.0265968 1.3214072 -0.49988851 2.3509886e-38
-2.0362177 1.2921395 -0.51191366 2.3509886e-38
-2.0324435 1.3056928 -0.50455695 2.3509886e-38
-2.0324934 1.3065931 -0.50327885 2.3509886e-38
-2.0301998 1.3167387 -0.49637553 2.3509886e-38
-2.0289626 1.3256328 -0.48829195 2.3509886e-38
-2.0262697 1.3366774 -0.48129219 2.3509886e-38
-2.0216608 1.363414 -0.45932975 2.0842343e-38
-2.0377462 1.2968783 -0.50186217 2.3509886e-38
-2.0361781 1.3038901 -0.49704614 2.3509886e-38
-2.0363317 1.3116199 -0.48679432 2.3509886e-38
-2.0342519 1.3173105 -0.48500583 2.3509886e-38
-2.0288672 1.340958 -0.46901688 2.3509886e-38
-2.0268564 1.3497281 -0.46312338 2.3509886e-38
-2.0092747 1.4259404 -0.41219124 2.2681567e-38
-2.0417933 1.2880865 -0.50243551 2.3509886e-38
-2.0395358 1.2952807 -0.49919879 2.3509886e-38
-2.0387869 1.302267 -0.49226364 2.3509886e-38
-2.0362084 1.3171642 -0.4800545 2.3509886e-38
-2.034821 1.3236663 -0.47541359 2.3509886e-38
-2.0346801 1.325969 -0.47284952 2.3509886e-38
-2.0300641 1.3476385 -0.45736256 2.3509886e-38
-2.0106547 1.4290515 -0.40460354 2.2866317e-38
-2.0344038 1.3370888 -0.45940697 2.3509886e-38
-2.0351152 1.3424523 -0.45070529 2.3509886e-38
-2.0493994 1.2901917 -0.47977975 2.3509886e-38
-2.0402284 1.3262823 -0.45787954 2.3509886e-38
-2.0497749 1.3016728 -0.46416581 2.3509886e-38
-2.0474555 1.3111641 -0.45816323 2.3509886e-38
-2.0564814 1.2784395 -0.47615561 2.3509886e-38
-2.0546479 1.2856468 -0.47178736 2.3509886e-38
-2.0405686 1.3530331 -0.42290354 2.129973e-38
-2.0530634 1.306819 -0.448973 2.3509886e-38
-2.0446312 1.3500712 -0.41600847 2.1207534e-38
-2.0489876 1.3404628 -0.41680992 2.1393364e-38
-2.0017965 1.3413434 -0.53961504 2.3509886e-38
-1.9997202 1.3489492 -0.53537726 2.3509886e-38
-2.0101755 1.3232229 -0.54069906 2.3509886e-38
-2.0192692 1.3159466 -0.52608865 2.3509886e-38
-2.003963 1.3730743 -0.49349719 2.0561799e-38
-2.0355313 1.3057698 -0.49634999 2.3509886e-38
-2.0312467 1.3196598 -0.4899047 2.3509886e-38
-2.0397573 1.302861 -0.48895842 2.3509886e-38
-2.0359294 1.3572935 -0.42965814 2.2311714e-38
-2.0778892 1.2643679 -0.437866 2.2956712e-38
-2.0750325 1.2717644 -0.43594384 2.2957792e-38
-2.0733786 1.2801698 -0.4295783 2.2865598e-38
-2.0710752 1.288444 -0.42508474 2.304927e-38
-2.082268 1.2603009 -0.43154895 2.1943999e-38
-2.0776844 1.2764879 -0.4229618 2.2312423e-38
-2.0747135 1.2856492 -0.41909152 2.2681563e-38
-2.0872481 1.2553831 -0.4247365 2.1850723e-38
-2.0840936 1.2661668 -0.41928101 2.1113518e-38
-2.0827947 1.2716676 -0.41568327 2.1943284e-38
-2.0806155 1.2786067 -0.41256475 2.2128033e-38
-2.0782619 1.2865703 -0.40859902 2.2220586e-38
-2.0759866 1.2949737 -0.40386748 2.2036558e-38
-2.0667512 1.3333316 -0.37924799 2.2220952e-38
-2.0912731 1.2528911 -0.4173421 2.1297552e-38
-2.0889413 1.2606353 -0.4135983 2.1205718e-38
-2.0860174 1.2683866 -0.41140065 2.1298631e-38
-2.0849302 1.274889 -0.40597069 2.1391185e-38
-2.0820012 1.2844095 -0.4015328 2.1759249e-38
-2.0797362 1.2928066 -0.39678156 2.1943999e-38
-2.0705178 1.3311508 -0.37213531 2.2129113e-38
-2.0952966 1.2504015 -0.40994757 2.0928401e-38
-2.0920498 1.2588265 -0.40774021 2.0190843e-38
-2.0903141 1.2646869 -0.40483081 2.0836933e-38
-2.0885279 1.2744344 -0.39710203 2.0929131e-38
-2.0863202 1.2806805 -0.39494196 2.1022043e-38
-2.0840652 1.2890718 -0.39017192 2.1114599e-38
-2.0822287 1.296531 -0.38549113 2.1390465e-38
-2.0792174 1.3057877 -0.38160512 2.1483021e-38
-2.0523536 1.3996066 -0.33261579 2.1574856e-38
-2.0947218 1.2551441 -0.40541506 2.0468507e-38
-2.0944283 1.2617059 -0.39782515 2.0560703e-38
-2.0921223 1.2710431 -0.39198381 2.0006452e-38
-2.0900605 1.2785958 -0.38777554 2.0098647e-38
-2.0885279 1.2841163 -0.38476673 2.000825e-38
-2.0862379 1.2915426 -0.38131824 2.0192641e-38
-2.0834 1.3040268 -0.37286451 2.1298631e-38
-2.0822368 1.3106807 -0.36744142 2.0560346e-38
-2.0804675 1.3191098 -0.36134884 2.0745816e-38
-2.1063008 1.2258996 -0.41226807 1.8347281e-38
-2.1010067 1.2531756 -0.39141783 2.0374874e-38
-2.0984073 1.260497 -0.38891679 2.0191921e-38
-2.0957565 1.2674387 -0.38703293 1.9639105e-38
-2.0943673 1.2762499 -0.37945491 2.0468149e-38
-2.0921593 1.2819481 -0.37799278 1.9915694e-38
-2.0896053 1.2919147 -0.37200075 2.0745454e-38
-2.0876973 1.2974234 -0.36999336 2.0192997e-38
-2.0864627 1.3077719 -0.36004978 2.0375234e-38
-2.0847323 1.3160489 -0.35404849 2.0836575e-38
-2.10482 1.2482892 -0.38762987 1.9822419e-38
-2.1027207 1.2567492 -0.38236377 2.0099721e-38
-2.1003563 1.2663 -0.37640399 2.0283399e-38
-2.0976877 1.2728019 -0.375128 2.0191919e-38
-2.095474 1.2811314 -0.37032872 2.0284119e-38
-2.0931404 1.2891276 -0.36626932 2.0468868e-38
-2.090909 1.2974372 -0.36154127 2.0745456e-38
-2.0890884 1.3048851 -0.35683307 2.083729e-38
-2.0883844 1.3124139 -0.34908909 2.0560703e-38
-2.0864282 1.3213539 -0.3428359 2.1299714e-38
-2.1088519 1.247074 -0.37859035 1.9730221e-38
-2.1064363 1.254703 -0.37521392 1.9914611e-38
-2.1040204 1.2623327 -0.37183687 2.0007525e-38
-2.101392 1.2692658 -0.36990565 2.0099365e-38
-2.0997906 1.2773746 -0.36377937 2.0099724e-38
-2.0968525 1.2870086 -0.35922047 2.0376671e-38
-2.0956559 1.2927818 -0.35500705 2.0653256e-38
-2.0944026 1.3001406 -0.34892309 1.9914976e-38
-2.0939367 1.3060263 -0.34264749 2.0928407e-38
-2.1095088 1.2499436 -0.37320927 1.917776e-38
-2.1097462 1.2572253 -0.36330837 2.0006089e-38
-2.1059422 1.2643726 -0.36419094 1.9453988e-38
-2.1044149 1.271722 -0.35883754 2.0191558e-38
-2.1027274 1.280483 -0.35210755 2.0467789e-38
-2.1004093 1.2874764 -0.34928456 2.0468146e-38
-2.0983095 1.2968526 -0.34285253 2.0652539e-38
-2.0982268 1.3044236 -0.33342335 2.0744374e-38
-2.1181021 1.2384729 -0.36525747 1.9360717e-38
-2.1140943 1.2480907 -0.36352828 1.9637666e-38
-2.1135638 1.2527053 -0.35904178 1.9822056e-38
-2.111037 1.2599909 -0.35639468 2.0006803e-38
-2.108268 1.2668674 -0.35490447 1.9546543e-38
-2.1069388 1.2753298 -0.34761304 2.0283756e-38
-2.1044054 1.2857597 -0.34097725 2.0467789e-38
-2.1026297 1.2923409 -0.33725536 2.0652533e-38
-2.1022751 1.3019217 -0.32597956 2.0653978e-38
-2.0999205 1.3097262 -0.32221931 2.0468151e-38
-2.1186748 1.2447259 -0.35578644 1.9083051e-38
-2.1164367 1.2499605 -0.35499421 1.9268878e-38
-2.1141441 1.2573477 -0.351603 1.9453268e-38
-2.112783 1.2668947 -0.34301353 2.0099005e-38
-2.1107635 1.2755322 -0.337311 2.0467067e-38
-2.1085582 1.2819152 -0.33497041 2.0376309e-38
-2.106369 1.2918799 -0.32802302 2.0562141e-38
-2.1062002 1.2971942 -0.32169563 1.7800224e-38
-2.1241033 1.2346271 -0.35439774 1.9728419e-38
-2.1208189 1.2410926 -0.35478491 1.9545827e-38
-2.1209528 1.2484801 -0.34502131 1.991425e-38
-2.118535 1.2560941 -0.3416689 2.0191193e-38
-2.1161177 1.2637085 -0.33831599 2.028339e-38
-2.1145597 1.2708158 -0.33335173 1.9822768e-38
-2.1122646 1.2798003 -0.32793114 1.9546883e-38
-2.1099439 1.2878246 -0.3238019 1.660089e-38
-2.1099229 1.295069 -0.31462729 1.7889524e-38
-2.1075883 1.3031458 -0.31046709 2.0192639e-38
-2.1246028 1.2383809 -0.34830317 1.9084124e-38
-2.1243727 1.2458522 -0.33938789 2.0375219e-38
-2.1229138 1.2539885 -0.33285284 1.9637301e-38
-2.121531 1.2584003 -0.33086333 1.9822409e-38
-2.1188192 1.2689874 -0.32449564 1.9638375e-38
-2.1160843 1.2780589 -0.32011932 1.9455072e-38
-2.1142936 1.2854956 -0.31534693 2.0652534e-38
-2.1124661 1.291256 -0.31280658 1.9915325e-38
-2.1103308 1.2993606 -0.30808765 1.9455063e-38
-2.1292851 1.2347206 -0.34067085 1.9269596e-38
-2.1289017 1.2409221 -0.33377597 2.0651811e-38
-2.126333 1.2496417 -0.32941258 1.9913881e-38
-2.1254418 1.2538154 -0.32643464 2.157377e-38
-2.1229861 1.2661192 -0.3172076 2.0006452e-38
-2.121366 1.2703639 -0.31605381 2.0376665e-38
-2.1190522 1.2777711 -0.3126924 2.0561058e-38
-2.1170151 1.2854706 -0.30823168 2.1390104e-38
-1.991349 1.4675018 -0.40631211 2.3509886e-38
-2.0613503 1.3412781 -0.38330662 2.1577024e-38
-2.0925078 1.271253 -0.39070439 2.1297914e-38
-2.0963573 1.2691544 -0.38326877 2.1205718e-38
-2.091629 1.2868462 -0.37314478 2.175889e-38
-2.0824485 1.3246728 -0.34905842 2.1945081e-38
-2.1079876 1.2601367 -0.36421627 2.0191558e-38
-2.1181984 1.2507325 -0.34938499 2.0835491e-38
-2.1156058 1.2586619 -0.34609017 2.0927686e-38
-2.0981727 1.3133233 -0.32222632 2.2589007e-38
-2.1142702 1.2724223 -0.33206499 2.129647e-38
-2.1018391 1.3141025 -0.31160471 2.3509886e-38
-2.1233051 1.254465 -0.33121875 2.175744e-38
-2.1199832 1.2608842 -0.33176348 2.12057e-38
-2.1181197 1.2703239 -0.32462928 2.1389383e-38
-2.12198 1.2647043 -0.32165208 2.1666688e-38
-2.1191335 1.277283 -0.31310073 2.185108e-38
-2.1123576 1.3008054 -0.30092463 2.1299718e-38
-2.0362525 1.2680759 -0.54248178 1.7339245e-38
-2.0233293 1.305647 -0.52854955 2.3509886e-38
-2.0181618 1.3195382 -0.52442104 2.3509886e-38
-2.015578 1.3264837 -0.52235687 2.3509886e-38
-2.0258958 1.3047764 -0.5229193 2.3509886e-38
-2.0233119 1.3117219 -0.52085525 2.3509886e-38
-2.0207281 1.3186675 -0.51879096 2.3509886e-38
-2.0129769 1.3395042 -0.51259828 2.3509886e-38
-2.0207109 1.3247423 -0.51109648 2.3509886e-38
-2.0180204 1.3334036 -0.50712657 2.2221665e-38
-2.0155432 1.3386334 -0.50696802 2.1301153e-38
-2.0128229 1.3473748 -0.50297427 2.0566127e-38
-2.0102243 1.3543607 -0.50089824 1.973672e-38
-2.0310285 1.3030349 -0.51165903 2.3509886e-38
-2.0284448 1.3099805 -0.50959486 2.3509886e-38
-2.0232773 1.3238716 -0.5054664 2.3509886e-38
-2.0206935 1.3308171 -0.50340205 2.3509886e-38
-2.015404 1.3464991 -0.49731156 2.0563572e-38
-2.0126574 1.3554684 -0.49309707 1.8720029e-38
-2.0515871 1.2521756 -0.52247119 1.8532729e-38
-2.0258436 1.3230009 -0.49983615 2.3509886e-38
-2.0232599 1.3299464 -0.49777186 2.3509886e-38
-2.0179856 1.3456234 -0.49164882 2.3509886e-38
-2.0123434 1.3656594 -0.48093703 2.0194437e-38
-2.0542479 1.2526745 -0.51484823 1.9730921e-38
-2.0361614 1.3012934 -0.50039852 2.3509886e-38
-2.0335777 1.308239 -0.49833429 2.3509886e-38
-2.0231655 1.337762 -0.48806235 2.3509886e-38
-2.0205667 1.3447477 -0.4859862 2.3509886e-38
-2.0149729 1.3647672 -0.47516865 2.0747264e-38
-2.0566878 1.250445 -0.51128131 2.0285187e-38
-2.0257466 1.3368862 -0.48239961 2.0473525e-38
-2.0204494 1.3528247 -0.47600317 2.3509886e-38
-2.04392 1.2940964 -0.48919377 2.3509886e-38
-2.0413213 1.301082 -0.48711762 2.3509886e-38
-2.0309265 1.3290247 -0.47881302 2.3509886e-38
-2.0256615 1.3449143 -0.47239444 2.3509886e-38
-2.0230467 1.3519435 -0.47030532 2.3509886e-38
-2.0177009 1.3680503 -0.4638221 2.2315661e-38
-2.0465014 1.2932206 -0.48353112 2.3509886e-38
-2.0439026 1.3002063 -0.48145488 2.3509886e-38
-2.0413041 1.307192 -0.47937876 2.3509886e-38
-2.0387051 1.3141776 -0.47730258 2.3509886e-38
-2.0308738 1.3370041 -0.46878552 2.3509886e-38
-2.0334709 1.3361229 -0.46308759 2.3509886e-38
-2.0386832 1.3282126 -0.45947868 2.3509886e-38
-2.0412805 1.3273312 -0.45378077 2.3509886e-38
-2.0386658 1.3343604 -0.45169166 2.3509886e-38
-2.0360475 1.343286 -0.44719541 2.3509886e-38
-2.0439227 1.3282541 -0.44566619 2.3509886e-38
-2.0544291 1.3061498 -0.44623911 2.3509886e-38
-2.0517981 1.3132223 -0.44413704 2.3509886e-38
-2.043998 1.3382663 -0.43271202 2.3509886e-38
-2.0677567 1.2784622 -0.44651711 2.3509886e-38
-2.0649354 1.2840453 -0.44681162 2.3509886e-38
-2.0623045 1.291118 -0.44470975 2.3509886e-38
-2.0596735 1.2981905 -0.4426077 2.3509886e-38
-2.0570426 1.305263 -0.44050583 2.3509886e-38
-2.0544116 1.3123357 -0.43840382 2.3509886e-38
-2.0518737 1.3211582 -0.4338277 2.3509886e-38
-2.0492263 1.3282741 -0.43171275 2.3509886e-38
-2.0466447 1.3373682 -0.4269056 2.3509886e-38
-2.067739 1.2846861 -0.43863386 2.3509886e-38
-2.0650918 1.291802 -0.43651891 2.341805e-38
-2.0624447 1.298918 -0.43440396 2.3509886e-38
-2.0597973 1.306034 -0.43228909 2.3509886e-38
-2.0571504 1.31315 -0.43017414 2.3509886e-38
-2.0545032 1.320266 -0.42805925 2.3509886e-38
-2.0519562 1.3293074 -0.42322809 2.3509886e-38
-2.0597796 1.3122579 -0.42440581 2.3509886e-38
-2.0705726 1.2916974 -0.42225948 2.194652e-38
-2.0679078 1.2988602 -0.42013064 2.2130548e-38
-2.0652432 1.3060229 -0.4180018 2.2958871e-38
-2.0625787 1.3131857 -0.41587308 2.2867032e-38
-2.0599141 1.3203486 -0.41374427 2.2314935e-38
-2.0572495 1.3275114 -0.41161546 2.2314211e-38
-2.0546939 1.3364948 -0.40688106 2.1485529e-38
-2.0809216 1.2677774 -0.42555836 2.1024194e-38
-2.0785484 1.2764738 -0.42071068 2.139298e-38
-2.0758839 1.2836366 -0.41858193 2.1761759e-38
-2.0707605 1.29956 -0.41174799 2.1946153e-38
-2.0678902 1.3051251 -0.41219559 2.203835e-38
-2.0653992 1.3139724 -0.40746456 2.2130548e-38
-2.0627182 1.3211786 -0.40532285 2.1946153e-38
-2.0573566 1.3355913 -0.40103951 2.1300786e-38
-2.0707426 1.3058627 -0.40376475 2.1853954e-38
-2.0601716 1.3366365 -0.39231592 2.1208591e-38
-2.0707245 1.3121655 -0.39578155 2.1300783e-38
-2.0680439 1.3193718 -0.39363986 2.1392256e-38
-2.0653632 1.3265781 -0.39149803 2.1208588e-38
-2.0787487 1.2968496 -0.39422348 2.0562853e-38
-2.0733874 1.3112622 -0.38994011 2.1116389e-38
-2.0707064 1.3184683 -0.38779825 2.0747614e-38
-2.0921347 1.267121 -0.39694884 1.9825653e-38
-2.0894537 1.2743274 -0.3948071 2.0101164e-38
-2.0867732 1.2815336 -0.39266536 2.0194437e-38
-2.07605 1.3103586 -0.3840985 2.0655414e-38
-2.0733695 1.317565 -0.38195676 2.0378827e-38
-2.0997758 1.2504953 -0.39806569 1.9365031e-38
-2.0921166 1.273424 -0.38896552 1.9549068e-38
-2.0813937 1.302249 -0.3803986 2.0563572e-38
-2.0787129 1.3094553 -0.37825689 2.0655767e-38
-2.0760322 1.3166615 -0.37611517 2.0102242e-38
-2.0735898 1.3257463 -0.37095374 2.341805e-38
-2.0974603 1.2653141 -0.38526565 1.9457225e-38
-2.0840566 1.3013456 -0.37455708 2.019479e-38
-2.0813756 1.3085518 -0.37241539 2.019479e-38
-2.0867193 1.3004422 -0.36871555 2.0102595e-38
-2.0840385 1.3076484 -0.36657381 1.9918202e-38
-2.0924227 1.2940062 -0.36193779 2.0102595e-38
-2.0843282 1.3157653 -0.35547093 2.1024197e-38
-2.11081 1.2481914 -0.37202457 1.9271035e-38
-2.1000869 1.2770164 -0.36345765 1.9640538e-38
-2.0920446 1.2986352 -0.35703254 2.0101514e-38
-2.0893638 1.3058416 -0.35489079 1.9365031e-38
-2.0977829 1.2921876 -0.35017887 2.0101514e-38
-2.0923865 1.3066937 -0.34586754 1.9549068e-38
-2.1058593 1.2767721 -0.3486107 1.9916404e-38
-2.0981593 1.3002341 -0.33893818 1.9732733e-38
-2.0954437 1.3075341 -0.33676866 2.0470304e-38
-2.1112375 1.2686098 -0.34488672 2.0008953e-38
-2.1067345 1.2863227 -0.33414409 2.0101149e-38
-2.1040015 1.2936692 -0.33196062 2.0100793e-38
-2.1008568 1.2993189 -0.33302072 1.9548341e-38
-2.1171319 1.2619045 -0.33795109 1.9732014e-38
-2.1012499 1.3074416 -0.32163838 2.2038002e-38
-2.1252604 1.2463896 -0.33637267 1.991568e-38
-2.1121638 1.2844807 -0.32223338 1.4022746e-38
-2.1252422 1.2527744 -0.32828575 2.0653601e-38
-2.1285248 1.2532519 -0.31905651 2.1849976e-38
-2.125792 1.2605985 -0.31687304 2.1114575e-38
-2.1148601 1.2899852 -0.30813923 2.010043e-38
-2.0205488 1.2960765 -0.54804498 2.185325e-38
-2.0393643 1.2888273 -0.50787055 2.3509886e-38
-2.0432763 1.2865171 -0.50054097 2.3509886e-38
-2.0133095 1.3025088 -0.55886078 2.3509886e-38
-2.0742621 1.260164 -0.45274699 2.3325496e-38
-2.0802183 1.2566257 -0.44161412 2.2957072e-38
-2.0841074 1.2528893 -0.43616155 2.1851083e-38
-2.0916481 1.2462143 -0.42486402 1.9544392e-38
-2.0977681 1.2469361 -0.40787277 1.9821335e-38
-2.1006055 1.2448729 -0.4030498 2.0283753e-38
-2.1072235 1.2406927 -0.39099672 1.9914612e-38
-2.1110766 1.2397959 -0.38202104 2.0005729e-38
-2.113961 1.239518 -0.37480032 1.9361435e-38
-2.1199932 1.2355465 -0.3640193 1.8623506e-38
-2.1264353 1.2269034 -0.35811496 1.8990849e-38
-2.1272538 1.2291731 -0.35307324 1.945183e-38
-2.1344328 1.2219752 -0.34339127 1.8807539e-38
-2.1324315 1.2273027 -0.34185958 1.8255082e-38
-2.0284796 1.2978308 -0.52498358 2.3509886e-38
-2.0439374 1.2879865 -0.49693272 2.3509886e-38
-2.0465188 1.2871107 -0.49126992 2.3509886e-38
-2.0490999 1.286235 -0.48560727 2.3509886e-38
-2.0649531 1.2778596 -0.454647 2.3509886e-38
-2.0371284 1.2730869 -0.53379726 2.1297553e-38
-2.0409884 1.2692035 -0.5286085 2.1758532e-38
-2.0385239 1.2777262 -0.52422166 2.3509886e-38
-2.0436094 1.2681859 -0.52302247 1.835201e-38
-2.0420451 1.2732472 -0.52068138 2.3509886e-38
-2.0394714 1.275339 -0.52477533 2.3509886e-38
-2.0450003 1.2651308 -0.52326226 2.2219138e-38
-2.0517671 1.2637472 -0.50725526 2.3509881e-38
-2.093529 1.2376736 -0.43080634 1.751752e-38
-2.0972264 1.233938 -0.42585629 1.9545834e-38
-2.1008132 1.2312485 -0.4198643 1.8716425e-38
-2.1096776 1.2260098 -0.40326041 1.908413e-38
-2.1135979 1.2244226 -0.39498752 1.899193e-38
-2.1181061 1.2169594 -0.39265734 2.120355e-38
-2.1226974 1.2175964 -0.37978891 2.0005726e-38
-2.1264317 1.2135175 -0.37517875 2.1389025e-38
-2.1315069 1.2097658 -0.3666313 2.2403898e-38
-2.1351981 1.2089919 -0.3579244 2.1573775e-38
-2.1391284 1.2066323 -0.35060886 2.2956712e-38
-2.0747445 1.2457159 -0.46988896 2.3509886e-38
-2.0781555 1.244036 -0.46307161 2.1944005e-38
-2.0826716 1.2408051 -0.4553284 2.2772674e-38
-2.0858257 1.2406673 -0.44722176 2.2957434e-38
-2.0897841 1.2383673 -0.43975595 2.1575218e-38
-2.0937116 1.2349916 -0.43374351 2.0192644e-38
-2.1159296 1.2178156 -0.39728218 2.2034756e-38
-2.1228046 1.2140386 -0.38404 2.3509886e-38
-2.0285478 1.2901472 -0.53459442 2.0840544e-38
-2.0336657 1.2823799 -0.53105086 2.3509886e-38
-2.0310981 1.289282 -0.52899939 2.3509886e-38
-2.036216 1.2815144 -0.52545577 2.3509886e-38
-2.0336483 1.2884165 -0.52340454 2.3509886e-38
-2.049063 1.2726403 -0.50302529 2.3509886e-38
-2.0464792 1.279586 -0.50096101 2.3509886e-38
-2.0594776 1.264402 -0.486173 2.3509886e-38
-2.0568788 1.2713878 -0.48409688 2.3509886e-38
-2.0700264 1.2561587 -0.46897349 2.3509886e-38
-2.0754774 1.2495693 -0.46305484 2.0378822e-38
-2.0728462 1.2566417 -0.46095303 2.3509886e-38
-2.0783453 1.249998 -0.45497665 2.1116026e-38
-2.0809748 1.2491058 -0.44920826 2.1392256e-38
-2.078073 1.2548684 -0.44948649 2.2590806e-38
-2.0862513 1.2410977 -0.44555485 1.7982094e-38
-2.088881 1.2402056 -0.43978643 1.8074643e-38
-2.0915103 1.2393135 -0.43401796 1.8626016e-38
-2.0885441 1.2451359 -0.434389 2.0746884e-38
-2.0941398 1.2384214 -0.42824957 1.9178464e-38
-2.0914927 1.2455374 -0.42613474 2.0653969e-38
-2.0941222 1.2446454 -0.42036626 2.0192994e-38
-2.1024761 1.230803 -0.41606471 1.7059399e-38
-2.1104162 1.228109 -0.39864561 1.8072839e-38
-2.1215329 1.2193664 -0.38059139 1.715016e-38
-2.1268585 1.2175595 -0.3689082 1.7794112e-38
-2.1328046 1.2169291 -0.35409668 1.8808609e-38
-2.0043035 1.4238102 -0.42795983 1.9827844e-38
-2.008327 1.4194157 -0.42299357 2.1209322e-38
-2.0063818 1.4261056 -0.41957805 2.1486625e-38
-2.0110717 1.4202759 -0.4146896 2.1392644e-38
-2.0094876 1.4238285 -0.41432348 2.1578462e-38
-2.0159097 1.4129102 -0.41136953 2.0011871e-38
-2.014924 1.4177819 -0.40775064 2.2497174e-38
-2.0128107 1.4225566 -0.40721706 2.2773764e-38
-2.022121 1.4017899 -0.4092266 1.964345e-38
-2.0215559 1.4047254 -0.40697053 1.9919306e-38
-2.019125 1.41397 -0.40157524 1.9368307e-38
-2.0170648 1.4191486 -0.40038782 2.2406062e-38
-2.0151026 1.4237108 -0.39972752 2.2682646e-38
-2.0247953 1.4038479 -0.39958173 2.0103695e-38
-2.0220561 1.4104993 -0.3983002 2.0748705e-38
-2.0259373 1.4051795 -0.39488581 2.0931653e-38
-1.9765489 1.4354997 -0.48595166 2.3509886e-38
-1.9792519 1.4390777 -0.47429472 2.1111709e-38
-2.0050497 1.4095322 -0.44419286 1.9362514e-38
-2.0589728 1.3733507 -0.34868556 2.0469223e-38
-2.0588589 1.3784132 -0.34253514 2.0837643e-38
-2.0722139 1.3652383 -0.3242501 2.0099717e-38
-2.0656714 1.3888102 -0.31139779 2.1022399e-38
-2.0807841 1.3616701 -0.30629101 2.0007882e-38
-2.0693669 1.3866864 -0.30439913 2.1298268e-38
-2.0771828 1.3783263 -0.29452604 2.0191552e-38
-2.0861433 1.3584005 -0.2963829 1.9823488e-38
-2.0808406 1.3756843 -0.28828666 2.0099714e-38
-2.0777829 1.379138 -0.29191649 2.0744734e-38
-2.0842426 1.3717642 -0.28434739 2.0099718e-38
-2.081383 1.3765194 -0.28579804 2.0560703e-38
-2.090986 1.3626922 -0.2781975 1.9822767e-38
-1.9952885 1.4127018 -0.4657872 1.7703338e-38
-2.0435069 1.3996201 -0.35583046 2.2496444e-38
-2.0557163 1.3924271 -0.33293268 2.1390461e-38
-2.0782881 1.3599821 -0.31499588 2.0836927e-38
-1.9842374 1.4242172 -0.48013666 2.2867026e-38
-1.9868186 1.4233414 -0.47447386 2.001255e-38
-1.9870874 1.4271841 -0.46887258 1.8998388e-38
-1.9919636 1.4276998 -0.45540956 1.8628517e-38
-2.0045457 1.4034132 -0.45331219 1.6691693e-38
-1.9971436 1.4198383 -0.45182306 1.7983163e-38
-1.9947864 1.4245719 -0.4519819 1.9088786e-38
-2.0096252 1.397671 -0.44728899 1.853522e-38
-2.0021102 1.4143244 -0.44580576 1.8260442e-38
-1.9997249 1.4189625 -0.44616032 1.872073e-38
-1.9973528 1.4237012 -0.44635171 1.9273902e-38
-2.0124032 1.3945674 -0.44394791 1.8351953e-38
-2.0097723 1.4016399 -0.44184589 1.8167912e-38
-2.0073223 1.4064139 -0.44219682 1.7983516e-38
-2.004905 1.4111012 -0.4425737 1.9457225e-38
-2.0023062 1.4180868 -0.44049764 2.0010748e-38
-2.0148842 1.3958868 -0.43575224 1.9180634e-38
-2.0123858 1.4007531 -0.43611267 1.9272833e-38
-2.0099199 1.4055327 -0.43649894 1.9365028e-38
-2.0074861 1.4102253 -0.43691093 2.0102945e-38
-2.0175135 1.3949947 -0.42998394 1.9826357e-38
-2.0149992 1.3998666 -0.4303796 1.9918552e-38
-2.0123682 1.4069391 -0.42827755 1.9918199e-38
-2.02279 1.3869865 -0.42633039 2.0653969e-38
-2.020143 1.3941026 -0.42421547 2.0379531e-38
-2.0174959 1.4012187 -0.42210057 2.0471726e-38
-2.0149815 1.4060525 -0.42254439 2.0656117e-38
-2.0279748 1.3937727 -0.40406883 2.093163e-38
-2.0358791 1.4036084 -0.37077975 8.0199128e-39
-2.0521405 1.3732542 -0.36675173 2.2034736e-38
-2.0495069 1.3827716 -0.36154073 2.1849976e-38
-2.0466447 1.3855892 -0.36546767 2.1113054e-38
-2.0547209 1.3701738 -0.36389947 2.0285907e-38
-2.0520227 1.3774267 -0.36174375 2.019479e-38
-2.0492425 1.3824214 -0.36268133 2.0285187e-38
-2.0547028 1.3765175 -0.35586435 2.0010398e-38
-2.0519054 1.381518 -0.35683978 1.9918199e-38
-2.0491486 1.3865889 -0.35761836 2.0470654e-38
-2.046484 1.3937516 -0.35548949 2.0839433e-38
-2.0631168 1.3653152 -0.34804162 2.0836916e-38
-2.0573828 1.3756082 -0.34998482 1.9733808e-38
-2.0545681 1.3806144 -0.35099813 1.9826004e-38
-2.0517952 1.3856908 -0.35181201 2.0102595e-38
-2.0491307 1.3928536 -0.34968317 2.0378103e-38
-2.0630984 1.3717408 -0.33990297 1.9917836e-38
-2.0600629 1.374699 -0.34410542 1.9640894e-38
-2.0572309 1.3797112 -0.3451567 1.9826004e-38
-2.0658131 1.3708198 -0.3339476 2.0010398e-38
-2.0627429 1.3737897 -0.3382259 1.9640894e-38
-2.0598936 1.3788077 -0.33931521 1.9825282e-38
-2.0685277 1.3698988 -0.32799223 1.9640538e-38
-2.065423 1.3728803 -0.3323465 1.9547972e-38
-2.0625563 1.3779043 -0.33347359 2.0008953e-38
-2.0598757 1.3851105 -0.33133191 2.0561771e-38
-2.0767083 1.3542845 -0.32640371 2.0468133e-38
-2.0742133 1.3637142 -0.32094133 1.9640888e-38
-2.0712423 1.3689778 -0.32203686 1.927283e-38
-2.0681031 1.371971 -0.32646707 1.9456498e-38
-2.0707831 1.3710618 -0.32058755 1.9733442e-38
-2.0848706 1.3450959 -0.31667659 1.9453611e-38
-2.0737009 1.3723173 -0.31132537 1.964017e-38
-2.0875852 1.3441746 -0.31072107 2.0284445e-38
-2.0763984 1.3714021 -0.30540803 1.9732723e-38
-2.0902998 1.3432539 -0.30476588 2.0099348e-38
-2.0875669 1.3506004 -0.30258247 1.908807e-38
-2.0851412 1.3600066 -0.29696831 1.9087717e-38
-2.0821009 1.3652936 -0.29821563 1.9180269e-38
-2.0933738 1.3442929 -0.29536968 2.0099351e-38
-2.0902815 1.3496794 -0.29662713 1.8995519e-38
-2.0875487 1.357026 -0.29444364 1.8811126e-38
-2.0929961 1.3487585 -0.29067177 1.8995151e-38
-2.0902634 1.356105 -0.28848836 1.8810763e-38
-2.0875304 1.3634515 -0.28630492 1.9455764e-38
-2.092978 1.355184 -0.2825329 1.8809688e-38
-1.9890463 1.4383988 -0.44943917 2.0194441e-38
-1.9872291 1.4431391 -0.44817171 1.9084124e-38
-1.9939489 1.4346626 -0.44132501 2.1023132e-38
-1.997867 1.4325267 -0.43375677 2.1668138e-38
-1.993915 1.4423039 -0.43167835 2.2589737e-38
-1.9919833 1.4487573 -0.42852861 2.166525e-38
-2.0033875 1.4235233 -0.43073103 2.0930572e-38
-2.0018473 1.4298955 -0.42665717 2.2404984e-38
-1.9999427 1.4341073 -0.42629224 2.268193e-38
-1.9979246 1.4398875 -0.42422742 2.2958155e-38
-1.9958962 1.446169 -0.42155048 2.3049991e-38
-2.0039525 1.429877 -0.42115238 2.2865602e-38
-2.0014927 1.4362425 -0.41950166 2.1854694e-38
-2.0067027 1.4255577 -0.41943339 2.2497176e-38
-2.0046926 1.4365282 -0.4107348 2.2681931e-38
-2.0186863 1.4166435 -0.39932171 2.1668505e-38
-2.0228467 1.4109123 -0.39569795 1.9643465e-38
-1.9861062 1.4395072 -0.45574799 2.0466347e-38
-1.9877636 1.451827 -0.43569818 1.8618042e-38
-1.9941239 1.4427652 -0.43054214 2.3509886e-38
-1.9895422 1.4554687 -0.42638794 1.7693558e-38
-2.0341327 1.4145305 -0.36145034 3.4195004e-39
-2.0388575 1.4059892 -0.35992476 1.7240939e-38
-2.040637 1.4071336 -0.35379407 2.3049261e-38
-2.0489962 1.3980772 -0.34338084 2.0651821e-38
-2.0469046 1.4057393 -0.33911157 2.0744011e-38
-2.0445056 1.4067614 -0.34410933 2.2220586e-38
-2.0421133 1.413183 -0.34220976 2.2680848e-38
-2.0532537 1.3951468 -0.33593452 2.037559e-38
-2.0511618 1.402809 -0.33166534 2.0467786e-38
-2.048512 1.4042687 -0.33676392 2.2035836e-38
-2.0461047 1.4107045 -0.33488575 2.2588652e-38
-2.0575106 1.3922166 -0.32848853 2.0098645e-38
-2.055419 1.3998787 -0.32421929 2.0467783e-38
-2.0500948 1.4082286 -0.32756168 2.2496814e-38
-2.0617681 1.3892862 -0.32104218 2.0006449e-38
-2.0591893 1.3954002 -0.3200241 2.1021321e-38
-2.0566163 1.4005967 -0.32015955 2.1758529e-38
-2.0540841 1.4057552 -0.32023767 2.222023e-38
-2.0632355 1.3928928 -0.31259283 2.0928767e-38
-2.0604975 1.3968967 -0.31468207 2.1574856e-38
-2.0580719 1.4032842 -0.31291375 2.2128033e-38
-2.0555127 1.4084477 -0.31305552 2.2588289e-38
-2.0633578 1.3968581 -0.30722031 2.1851085e-38
-2.0830543 1.3746341 -0.28381091 1.8808259e-38
-2.0471771 1.400223 -0.34542421 2.2311342e-38
-2.0510266 1.3981246 -0.33798838 2.2034756e-38
-1.9805418 1.4395778 -0.47027051 1.6780328e-38
-2.0353019 1.412915 -0.36043835 1.6687408e-38
-2.0665078 1.374457 -0.32748923 2.0560342e-38
-2.0641403 1.3823146 -0.32369515 2.0468143e-38
-2.0705857 1.3719401 -0.3199873 2.0468143e-38
-2.0682173 1.3797983 -0.31619462 2.037559e-38
-2.0657208 1.3864114 -0.31432506 2.0468146e-38
-2.0744662 1.3681012 -0.31468806 1.9453272e-38
-2.0737202 1.3719747 -0.31171137 2.0192274e-38
-2.0709558 1.3785683 -0.31057045 2.0099365e-38
-2.068603 1.3863715 -0.30680671 2.065182e-38
-2.0766315 1.3728328 -0.30297258 1.908557e-38
-2.0751925 1.3772621 -0.30110928 2.019084e-38
-2.0726511 1.3838676 -0.29936606 2.0467783e-38
-2.0797739 1.3674332 -0.30160069 1.9823494e-38
-2.0792851 1.3727647 -0.29609087 1.9546543e-38
-2.0744927 1.3840784 -0.29426175 2.102132e-38
-2.0858831 1.365573 -0.28792727 1.9730221e-38
-2.0905261 1.3573493 -0.28621256 1.9730935e-38
-2.0894036 1.3640418 -0.28063393 1.8348e-38
-2.0852268 1.3693042 -0.28489745 1.9362151e-38
-2.0919902 1.3616575 -0.27687818 1.8809345e-38
-2.0914352 1.3672124 -0.27125898 1.8808269e-38
-2.0885074 1.3716654 -0.27327332 1.8532028e-38
-2.09974 1.3548452 -0.26520723 2.1112439e-38
-2.0957325 1.3658949 -0.2616528 2.1112798e-38
-2.0576763 1.3906922 -0.32999596 2.1389383e-38
-2.0615544 1.3885783 -0.3225053 2.1206071e-38
