# .PCD v0.7 - Point Cloud Data file format
VERSION 0.7
FIELDS x y z rgb
SIZE 4 4 4 4
TYPE F F F F
COUNT 1 1 1 1
WIDTH 473
HEIGHT 1
VIEWPOINT 0 0 0 1 0 0 0
POINTS 473
DATA ascii
0.92616022 -0.2135772 2.6757596 0
0.94171017 -0.20644835 2.6728084 1.9618179e-44
0.95425272 -0.20523848 2.6705964 4.6062502e-40
0.95700812 -0.20116851 2.6699693 8.2759847e-40
0.96441197 -0.21382143 2.669158 1.1981929e-39
0.96069241 -0.20656954 2.6695325 9.2160738e-40
0.96066213 -0.20168896 2.6693573 7.3504691e-40
0.96546805 -0.21148035 2.6688888 1.7510079e-39
0.96543771 -0.20659985 2.6687136 1.3829344e-39
0.96540743 -0.20171925 2.6685386 1.2882207e-39
0.97021365 -0.21151063 2.6680701 1.7510079e-39
0.97018337 -0.20663013 2.6678948 1.5673257e-39
0.97878677 -0.21883054 2.6668589 1.9357579e-39
0.97492874 -0.20666043 2.6670756 1.9332398e-39
0.97489852 -0.20177984 2.6669004 1.6566445e-39
0.97967434 -0.20669071 2.6662567 2.0254368e-39
0.97964406 -0.20181015 2.6660814 1.6566445e-39
0.97961372 -0.19692962 2.665906 9.219563e-40
0.98838037 -0.22380912 2.6653855 1.0109247e-39
0.98448038 -0.21648212 2.6657882 2.5786092e-39
0.98445016 -0.21160153 2.6656132 2.3016636e-39
0.98441982 -0.20672104 2.6654377 2.0254368e-39
0.98438948 -0.20184046 2.6652622 1.6562941e-39
0.98435926 -0.19695991 2.665087 1.3804135e-39
0.99316162 -0.22383967 2.6645601 2.0254368e-39
0.98922586 -0.21651241 2.6649692 2.5786092e-39
0.98919559 -0.21163183 2.664794 2.3016636e-39
0.98916525 -0.20675135 2.6646185 1.8410441e-39
0.98913503 -0.20187074 2.6644435 1.6562941e-39
0.98910463 -0.19699022 2.664268 1.2882179e-39
0.99794328 -0.22387019 2.6637349 2.3945654e-39
0.99791276 -0.21895263 2.6635585 2.5789595e-39
0.99385023 -0.19702052 2.663449 1.011631e-39
1.0069009 -0.22647022 2.6622829 2.3945654e-39
1.0026942 -0.21898316 2.6627331 2.5789595e-39
1.0026636 -0.21406564 2.6625564 2.3945654e-39
1.0026332 -0.20914809 2.66238 1.7484898e-39
1.0117204 -0.22650099 2.6614513 2.1179828e-39
1.0050181 -0.21636686 2.6622348 2.3030929e-39
1.0074451 -0.21409616 2.6617312 2.0279535e-39
1.0067827 -0.20835841 2.6616335 1.9343104e-39
1.0033413 -0.1970811 2.6618111 1.3804163e-39
1.0122877 -0.22396177 2.6612594 2.1179828e-39
1.0122572 -0.21904421 2.661083 2.4867639e-39
1.0122267 -0.21412671 2.6609058 1.8435623e-39
1.0121962 -0.20920917 2.6607294 2.1179828e-39
1.0080868 -0.19711141 2.6609919 1.4726133e-39
1.017069 -0.2239923 2.6604342 2.3938592e-39
1.0170385 -0.21907474 2.6602576 2.1176324e-39
1.0196843 -0.21588697 2.6596823 1.4747812e-39
1.0128927 -0.2069028 2.6605239 1.8410441e-39
1.0128624 -0.20202224 2.6603487 1.8410441e-39
1.0128322 -0.19714172 2.6601729 1.6566445e-39
1.0171864 -0.16532683 2.6582437 1.5648146e-39
1.016232 -0.15766025 2.6581247 1.2875144e-39
1.0218507 -0.22402284 2.6596088 2.3938592e-39
1.0218202 -0.21910527 2.6594324 1.8410441e-39
1.0217896 -0.21418774 2.6592557 1.3825841e-39
1.021759 -0.20927024 2.6590788 1.7484898e-39
1.0175778 -0.197172 2.6593542 1.7491988e-39
1.0274876 -0.16046281 2.6562834 9.1873331e-40
1.026632 -0.22405335 2.6587837 1.9354076e-39
1.0266014 -0.21913581 2.6586072 1.7506576e-39
1.0288918 -0.2150131 2.6580589 1.6580892e-39
1.0265404 -0.20930076 2.6582539 1.3825841e-39
1.0265099 -0.20438319 2.6580772 1.8410441e-39
1.0223233 -0.19720228 2.6585352 1.7491988e-39
1.0305972 -0.16219115 2.6558101 1.6566445e-39
1.0314136 -0.22408387 2.6579587 1.9354076e-39
1.02719 -0.21675478 2.6584175 1.7506576e-39
1.0271597 -0.21187423 2.658242 1.4747798e-39
1.031322 -0.20933127 2.6574287 1.3825841e-39
1.0354474 -0.16717827 2.6551564 1.1031204e-39
1.036195 -0.2241144 2.6571333 2.3938592e-39
1.0319355 -0.21678507 2.6575985 1.5669768e-39
1.036134 -0.21427932 2.6567802 1.3825841e-39
1.0361035 -0.20936182 2.6566033 1.6562941e-39
1.0409734 -0.1634026 2.6540616 1.5651789e-39
1.0369983 -0.15426891 2.6544108 3.4987662e-39
1.0409763 -0.22414494 2.6563082 2.1176324e-39
1.0409458 -0.21922737 2.6561317 1.4747798e-39
1.0409153 -0.21430987 2.6559548 1.3825841e-39
1.0408847 -0.20939232 2.6557784 1.6562941e-39
1.0463849 -0.17129958 2.6534185 0
1.0450855 -0.16723981 2.6534929 0
1.0450548 -0.16228348 2.6533148 1.6559466e-39
1.0445013 -0.15474662 2.6531317 2.9477406e-39
1.0457579 -0.22417547 2.655483 2.1179828e-39
1.0457274 -0.21925791 2.6553063 2.0254368e-39
1.0456969 -0.21434037 2.6551299 1.8410441e-39
1.0456663 -0.20942286 2.6549532 1.6562941e-39
1.0456358 -0.20450532 2.6547763 1.4726133e-39
1.0520428 -0.16597351 2.6522439 2.7550929e-40
1.046845 -0.15370727 2.652688 3.2214703e-39
1.040972 -0.14363743 2.6533306 3.6867686e-39
1.0566208 -0.23231673 2.6539068 2.5789595e-39
1.0505394 -0.224206 2.6546576 2.1179828e-39
1.0527751 -0.22083618 2.6541469 1.5651775e-39
1.0504783 -0.21437091 2.6543047 1.6562941e-39
1.0504478 -0.2094534 2.6541278 1.6562941e-39
1.0504173 -0.20453584 2.6539512 1.4726133e-39
1.045778 -0.15342882 2.6528623 3.0363601e-39
1.0457478 -0.14854826 2.6526868 4.2392011e-39
1.0480731 -0.14515232 2.6521592 4.2406458e-39
1.055321 -0.22423652 2.6538327 2.1176324e-39
1.0552905 -0.21931897 2.653656 1.8410441e-39
1.0533462 -0.21325026 2.6537673 1.5651733e-39
1.0580039 -0.21008046 2.6528451 1.3807835e-39
1.0551988 -0.20456637 2.653126 9.2160738e-40
1.065307 -0.181141 2.6505125 1.0123471e-39
1.0595741 -0.17228852 2.6511757 0
1.0520304 -0.15492643 2.6518373 9.1872911e-40
1.0541619 -0.14922214 2.6512578 2.5782504e-39
1.050463 -0.14369801 2.6516929 2.7648151e-39
1.0504327 -0.13881746 2.6515172 1.7463668e-39
1.0601023 -0.22426705 2.6530075 2.0254368e-39
1.0619929 -0.21992703 2.6525204 1.6562941e-39
1.0600413 -0.21443196 2.6526542 1.3800674e-39
1.0600108 -0.20951444 2.6524777 1.3800674e-39
1.0599803 -0.20459691 2.6523006 8.2941034e-40
1.0674686 -0.17378375 2.6498668 1.1027504e-39
1.0552387 -0.14860886 2.6510489 2.5786092e-39
1.0555775 -0.14349243 2.6508012 2.3041873e-39
1.0551782 -0.13884775 2.6506984 2.2995406e-39
1.0649142 -0.2292151 2.652359 2.3016664e-39
1.0648837 -0.22429758 2.6521821 2.0254368e-39
1.0648532 -0.21938002 2.6520057 1.6562941e-39
1.0648227 -0.21446249 2.651829 1.1031204e-39
1.0647922 -0.20954497 2.6516523 1.1027728e-39
1.064731 -0.19970992 2.6512988 5.5282345e-40
1.0644869 -0.16036955 2.6498859 0
1.0639549 -0.15522675 2.6497874 2.7551209e-40
1.0644258 -0.15053447 2.6495326 2.3027201e-39
1.0599538 -0.14375861 2.6500547 1.7510079e-39
1.0599235 -0.13887806 2.6498792 2.1172821e-39
1.0696958 -0.22924562 2.6515338 2.0250809e-39
1.0696348 -0.21941054 2.6511805 1.472263e-39
1.0711844 -0.21591471 2.6507833 9.1980811e-40
1.0695736 -0.20957549 2.6508272 7.3470919e-40
1.0695431 -0.20465794 2.6506505 1.8404094e-40
1.0719621 -0.16081811 2.6486106 1.4012985e-45
1.0692378 -0.15548255 2.6488841 3.6734198e-40
1.0713251 -0.15066732 2.6483452 2.0243396e-39
1.0646781 -0.14256838 2.6491942 2.1197806e-39
1.0744772 -0.22927615 2.6507087 2.0254368e-39
1.0744467 -0.22435863 2.6505318 1.472263e-39
1.0744163 -0.21944109 2.6503551 1.3800674e-39
1.0743856 -0.21452354 2.6501787 7.3469798e-40
1.0743551 -0.20960604 2.650002 6.4286249e-40
1.0788202 -0.1674552 2.647671 0
1.0756971 -0.16179346 2.6480012 0
1.0740193 -0.15551308 2.6480587 0
1.0776736 -0.15321054 2.647342 6.4357715e-40
1.0739583 -0.14567801 2.6477053 2.1176324e-39
1.0792282 -0.22438918 2.6497064 1.472263e-39
1.0791976 -0.21947162 2.6495299 1.2878704e-39
1.0791366 -0.20963655 2.6491768 6.4286249e-40
1.0836396 -0.16748597 2.6468394 0
1.0788008 -0.15554361 2.6472335 0
1.0787398 -0.14570853 2.6468804 1.6562941e-39
1.0840096 -0.2244197 2.6488814 1.3800674e-39
1.0839791 -0.21950214 2.6487048 1.2882179e-39
1.0839486 -0.21458462 2.6485281 8.2689361e-40
1.0839181 -0.20966707 2.6483517 7.3504691e-40
1.0838875 -0.20474952 2.648175 1.8367099e-40
1.0869008 -0.15226862 2.6457126 0
1.0835211 -0.14573903 2.6460552 6.4285968e-40
1.0834906 -0.14082152 2.6458783 2.7604613e-39
1.0834601 -0.135904 2.6457019 2.9437988e-39
1.0887604 -0.21953267 2.6478794 1.2882179e-39
1.0887299 -0.21461514 2.6477029 1.0109247e-39
1.0886995 -0.2096976 2.6475265 7.3504691e-40
1.0886688 -0.20478004 2.6473498 4.5917748e-40
1.088333 -0.15068713 2.6454065 0
1.0883025 -0.1457696 2.6452298 1.4012985e-45
1.088272 -0.14085205 2.6450534 2.6679055e-39
1.0882415 -0.13593453 2.6448767 2.6668531e-39
1.0882109 -0.13101698 2.6447001 2.3906222e-39
1.0931453 -0.15563519 2.644758 0
1.0931147 -0.15071765 2.6445813 0
1.0930842 -0.14580011 2.6444046 0
1.0930537 -0.14088255 2.6442282 1.472263e-39
1.0930232 -0.13596508 2.6440513 2.3931557e-39
1.0929927 -0.13104752 2.6438746 2.4850066e-39
1.0978656 -0.14583063 2.6435795 0
1.0978349 -0.1409131 2.6434028 7.3469798e-40
1.0978044 -0.13599558 2.6432264 2.5779057e-39
1.0977434 -0.1261605 2.6428728 2.3924397e-39
1.1026471 -0.14586118 2.6427541 0
1.1026165 -0.14094362 2.6425776 8.4077908e-45
1.1025555 -0.13110855 2.6422243 3.3125771e-39
1.107276 -0.12130403 2.6410458 2.1122599e-39
1.1072271 -0.11477831 2.6408129 2.0207635e-39
1.1399174 -0.16193727 2.6369081 9.2230662e-40
0.99960828 -0.15282686 2.6608191 5.4373912e-39
0.98161042 -0.20709452 2.6659369 1.9361082e-39
0.99102879 -0.19743071 2.6639516 1.7495464e-39
1.004184 -0.16599193 2.6605151 3.2275477e-39
1.0180644 -0.15801919 2.6578214 5.0704065e-39
1.0481207 -0.22611554 2.6551466 2.3949158e-39
1.0391036 -0.15484306 2.6540682 2.947033e-39
0.95003712 -0.2088123 2.6714571 7.3470078e-40
0.94642562 -0.20159806 2.6718142 4.5918869e-40
0.94639528 -0.19671753 2.6716387 6.4287089e-40
0.9586165 -0.2112934 2.6700661 6.4286249e-40
0.95117098 -0.20162836 2.6709952 6.4286249e-40
0.95114064 -0.19674782 2.67082 5.51034e-40
0.95111042 -0.19186728 2.6706448 7.3470919e-40
0.95588624 -0.19677812 2.670001 0
0.96063179 -0.19680843 2.6691818 0
0.96537721 -0.19683871 2.6683631 9.8090893e-45
0.96534681 -0.19195819 2.6681876 8.4077908e-45
0.97012264 -0.19686903 2.6675439 1.9618179e-44
0.97009242 -0.19198848 2.6673687 1.821688e-44
0.98068494 -0.1978835 2.6657562 1.4736965e-39
0.97483784 -0.19201878 2.6665497 7.3576017e-40
0.97480756 -0.18713824 2.6663744 1.8367099e-40
0.97958338 -0.19204909 2.6657307 8.279544e-40
0.9795531 -0.18716855 2.6655552 0
0.98432899 -0.19207937 2.664912 1.0109247e-39
0.98429865 -0.18719885 2.6647363 4.5917748e-40
0.9802072 -0.18006015 2.6651795 6.4285128e-40
0.98907435 -0.19210969 2.6640925 1.0109247e-39
0.98904407 -0.18722914 2.6639173 6.4284847e-40
0.98901379 -0.18234858 2.6637423 7.3504691e-40
0.98488468 -0.17524843 2.6641932 2.3020139e-39
1.0007302 -0.20987083 2.6627352 1.93396e-39
0.99782121 -0.20420001 2.6630285 1.3804163e-39
0.9907369 -0.18989082 2.6637235 5.5101438e-40
0.99543244 -0.18736032 2.6628182 6.4321842e-40
0.99375927 -0.18237889 2.6629229 4.591971e-40
0.98959255 -0.1752785 2.6633804 7.347176e-40
0.99269879 -0.17302871 2.6627605 2.2984406e-39
0.99841768 -0.16673252 2.6615393 4.0523043e-39
1.0026026 -0.20423056 2.6622031 1.3804163e-39
1.0071622 -0.19920182 2.6612291 1.4726091e-39
0.99856538 -0.19217028 2.6624546 7.3504691e-40
0.99795991 -0.18662477 2.6623542 4.5918168e-40
1.0024033 -0.18394849 2.6614871 8.2724954e-40
1.001811 -0.17677426 2.6613243 4.591985e-40
0.9984442 -0.17264803 2.6617534 2.1122599e-39
1.002389 -0.16980778 2.6609664 4.0522917e-39
1.0105599 -0.20645542 2.6609104 2.1172681e-39
1.0033109 -0.19220059 2.6616356 1.0112751e-39
1.0032806 -0.18732004 2.6614604 3.6734198e-40
1.0032504 -0.18243945 2.6612854 3.6734198e-40
1.0032201 -0.17755885 2.6611097 1.8367099e-40
1.0031898 -0.17267832 2.6609344 8.2689361e-40
1.0031595 -0.16779779 2.660759 2.1165759e-39
1.0156704 -0.20606361 2.6600125 1.8417644e-39
1.0092977 -0.19312139 2.6606352 1.1038294e-39
1.0080261 -0.18735032 2.6606414 4.5917748e-40
1.008386 -0.18342413 2.660434 9.1835496e-41
1.0036858 -0.17052697 2.6607692 9.18397e-41
1.007905 -0.16782807 2.65994 1.4712064e-39
1.0128018 -0.19226117 2.6599977 1.2882207e-39
1.0127715 -0.18738061 2.6598227 6.4285128e-40
1.0127412 -0.18250006 2.6596472 9.1835496e-41
1.0149304 -0.18058838 2.6591983 4.6025788e-40
1.0143342 -0.17340221 2.6590354 1.4012985e-45
1.014899 -0.17048642 2.6588297 7.3505531e-40
1.0248861 -0.20519243 2.6583877 1.7488457e-39
1.0198208 -0.19309123 2.6588154 1.4729679e-39
1.0175172 -0.18741094 2.6590033 7.3504691e-40
1.0174869 -0.18253037 2.658828 1.8367099e-40
1.0174567 -0.17764975 2.6586528 1.4012985e-45
1.0174263 -0.17276922 2.6584775 0
1.017396 -0.16788866 2.6583023 6.4286249e-40
1.0214843 -0.16501231 2.6574893 1.3800674e-39
1.022293 -0.19232178 2.6583598 9.219563e-40
1.0222626 -0.18744121 2.6581845 7.3504691e-40
1.0266088 -0.18390207 2.6573026 7.3576857e-40
1.0263573 -0.17979546 2.6571941 9.18397e-41
1.0259875 -0.17383684 2.6570375 3.6770352e-40
1.0255386 -0.17043892 2.6569896 3.6734759e-40
1.0262656 -0.16504285 2.6566641 1.0109247e-39
1.0369594 -0.20648378 2.6563492 2.1172723e-39
1.0304991 -0.19620001 2.6570852 1.656999e-39
1.0270385 -0.19235207 2.6575408 8.2976067e-40
1.0270082 -0.18747152 2.6573653 7.3504691e-40
1.0311693 -0.18474361 2.6565454 3.6734899e-40
1.0374157 -0.1782974 2.6552277 3.6734899e-40
1.0311083 -0.17490846 2.6561923 9.18397e-41
1.0354781 -0.17213465 2.6553345 3.6734899e-40
1.0268264 -0.15818819 2.6563134 2.4867639e-39
1.0360729 -0.20444424 2.6564269 1.472263e-39
1.0360423 -0.19952674 2.65625 1.3800674e-39
1.0360118 -0.19460921 2.6560736 1.2882207e-39
1.0359813 -0.18969166 2.6558971 8.2724394e-40
1.0359508 -0.18477415 2.65572 2.7658689e-40
1.0359203 -0.17985652 2.6555436 3.6734198e-40
1.0358897 -0.17493898 2.6553671 1.8367099e-40
1.0373917 -0.17085963 2.6549563 0
1.0316021 -0.16309902 2.6556697 5.5137451e-40
1.0408542 -0.20447478 2.6556017 1.472263e-39
1.0408237 -0.19955726 2.6554248 1.2878704e-39
1.0407932 -0.19463973 2.6552484 1.1038294e-39
1.0423295 -0.1904784 2.6548288 9.2051436e-40
1.0414014 -0.18380448 2.6547425 2.7658689e-40
1.0407015 -0.17988704 2.6547184 4.5917748e-40
1.0406711 -0.17496952 2.6545417 1.8367099e-40
1.0478213 -0.20116115 2.6542749 1.196395e-39
1.0455748 -0.19467027 2.654423 1.1031204e-39
1.0484883 -0.18955572 2.6537304 1.1034749e-39
1.0455137 -0.18483518 2.6540701 7.3504691e-40
1.0454831 -0.17991757 2.653893 4.5917748e-40
1.0499665 -0.17718336 2.653017 8.2651947e-40
1.0500512 -0.1720687 2.6528134 9.1835496e-40
1.042906 -0.15891385 2.6535616 5.5141095e-40
1.054011 -0.20023383 2.6531711 1.1045581e-39
1.0503563 -0.19470079 2.6535981 1.1031204e-39
1.0503256 -0.18978325 2.6534214 1.0109247e-39
1.0587524 -0.19195113 2.6520452 1.1956663e-39
1.0505635 -0.17977615 2.6530101 8.2723973e-40
1.0547857 -0.17721413 2.6521854 9.1835496e-40
1.054755 -0.17225774 2.6520076 9.18397e-41
1.050173 -0.16519548 2.6525383 8.4077908e-45
1.0458083 -0.15830936 2.6530378 4.3440252e-44
1.0551683 -0.19964884 2.6529493 1.1031204e-39
1.0551378 -0.19473131 2.6527729 1.1031204e-39
1.0550767 -0.18489626 2.6524193 1.0112751e-39
1.0550462 -0.17997862 2.6522429 8.2724394e-40
1.0557456 -0.16594233 2.6516027 9.1838299e-41
1.0505539 -0.15833966 2.6522186 8.4077908e-45
1.0599498 -0.19967937 2.6521242 1.1031204e-39
1.0599192 -0.19476184 2.6519475 1.1031204e-39
1.0598887 -0.1898443 2.6517711 1.0109247e-39
1.0606823 -0.18555938 2.6514752 9.1979269e-40
1.0598276 -0.18000916 2.6514175 8.2724394e-40
1.0597198 -0.17576128 2.651279 7.3468397e-40
1.059736 -0.16525654 2.6508877 0
1.0575252 -0.15931045 2.6510496 2.8025969e-45
1.055269 -0.15348941 2.6512244 9.18397e-41
1.0662313 -0.19624047 2.6509113 9.198039e-40
1.06467 -0.18987483 2.6509459 8.2759987e-40
1.0646394 -0.1849573 2.650769 7.3504691e-40
1.0646089 -0.18003969 2.6505923 8.279544e-40
1.0645784 -0.17512217 2.6504157 3.6734899e-40
1.0645479 -0.17020462 2.650239 0
1.0649227 -0.16502449 2.6499829 0
1.0695126 -0.19974042 2.6504738 2.7623797e-40
1.0694821 -0.19482291 2.6502972 6.4285968e-40
1.0694516 -0.18990536 2.6501205 6.4284847e-40
1.0698588 -0.18463849 2.6498554 7.3576857e-40
1.0693905 -0.18007021 2.6497672 8.279544e-40
1.0688889 -0.17484073 2.6496601 4.5989775e-40
1.0725988 -0.17096877 2.648876 0
1.0692989 -0.16531762 2.6492372 0
1.0781934 -0.20611747 2.6492097 2.7551349e-40
1.0742941 -0.19977096 2.6496487 1.836766e-40
1.0754375 -0.1953166 2.6492863 2.7658409e-40
1.0742331 -0.18993589 2.6492953 4.2038954e-45
1.0742025 -0.18501833 2.6491189 0
1.074172 -0.18010075 2.6489418 4.2038954e-45
1.0741415 -0.17518322 2.6487653 0
1.074111 -0.17026569 2.6485887 0
1.0791061 -0.20471901 2.6489999 1.836766e-40
1.0790756 -0.19980149 2.6488233 9.18397e-41
1.0816555 -0.19435844 2.6481762 0
1.0790144 -0.18996641 2.6484702 0
1.0806705 -0.1845327 2.6479828 0
1.0826639 -0.17606886 2.6473253 0
1.0838569 -0.19983201 2.6479981 9.1835496e-41
1.0838264 -0.19491449 2.6478217 0
1.0886383 -0.19986254 2.6471732 9.1835496e-41
1.0886078 -0.19494502 2.6469963 0
1.09342 -0.19989309 2.6463475 3.6734198e-40
1.0981709 -0.19500609 2.6453459 5.6051939e-45
1.0981097 -0.18517098 2.6449928 1.4012985e-45
1.0980792 -0.18025337 2.6448162 0
1.0980487 -0.17533585 2.6446393 0
1.1028913 -0.18520151 2.6441677 1.4012985e-45
0.96872461 -0.2020693 2.667978 1.3800674e-39
0.95969629 -0.18689182 2.6689768 0
0.98024791 -0.21107784 2.6663198 2.6708048e-39
0.97886115 -0.20067972 2.6661749 2.3938592e-39
0.97357136 -0.18790324 2.6666162 7.3469798e-40
0.99038482 -0.20968822 2.6645164 2.4864135e-39
0.98761129 -0.18889204 2.6642268 1.1038266e-39
0.97827649 -0.17392828 2.6652863 2.6650413e-39
1.0033908 -0.20044684 2.661927 1.6566445e-39
0.99230492 -0.17483278 2.6628952 2.2055149e-39
1.0296738 -0.2107411 2.6577656 2.4867639e-39
1.0282634 -0.20016693 2.657618 2.3945682e-39
1.0413923 -0.21990217 2.6560793 2.7630018e-39
1.0385717 -0.19875382 2.6557844 1.7510079e-39
0.99933922 -0.19491005 2.6624222 5.5317378e-40
1.0104985 -0.17776965 2.6598597 3.6734899e-40
1.021414 -0.18486561 2.6582358 1.8367099e-40
1.0456073 -0.21630538 2.6552179 2.118689e-39
1.034057 -0.18464305 2.6560426 3.6734198e-40
1.0535345 -0.23180437 2.6544211 2.7622732e-39
1.063508 -0.23123479 2.6526766 2.7619116e-39
1.0694234 -0.23940229 2.6519563 2.9448652e-39
1.0699713 -0.23066479 2.6515386 2.5775246e-39
1.0742804 -0.23943329 2.6511183 2.3938592e-39
1.0672032 -0.20606631 2.6511071 7.3721191e-40
1.0791374 -0.23946431 2.65028 2.3938592e-39
1.0721586 -0.22574055 2.6509786 1.7499247e-39
1.0839945 -0.23949532 2.6494417 2.3938592e-39
1.0840703 -0.23687528 2.6493316 2.3938592e-39
1.0792587 -0.22930667 2.6498835 2.0254368e-39
1.0821787 -0.21599658 2.6488862 5.5138572e-40
1.0861311 -0.15217181 2.6458421 4.5918168e-40
1.0799468 -0.14118619 2.6465042 2.3016608e-39
1.0888895 -0.23690604 2.6485 2.3938592e-39
1.0909076 -0.23156826 2.6479537 1.5655377e-39
1.0884588 -0.16751675 2.6460075 0
1.0897101 -0.16298762 2.6456237 0
1.0883973 -0.15760401 2.6456516 0
1.0972151 -0.23058376 2.6468275 1.4729777e-39
1.088791 -0.2244502 2.6480565 1.3800674e-39
1.0932779 -0.16754752 2.6451757 0
1.0932472 -0.16259116 2.6449978 0
1.0935726 -0.22448076 2.6472309 9.2160738e-40
1.0935421 -0.21956319 2.6470544 1.1031204e-39
1.0935116 -0.21464567 2.6468778 8.2689361e-40
1.0934811 -0.20972814 2.6467011 7.3504691e-40
1.098354 -0.22451128 2.6464059 8.2941034e-40
1.0983235 -0.21959372 2.6462293 1.0109247e-39
1.0982929 -0.2146762 2.6460526 7.3469798e-40
1.0982624 -0.20975867 2.6458759 7.3504691e-40
1.0982318 -0.20484111 2.6456995 1.8439126e-40
1.1031356 -0.22454178 2.6455808 8.2941034e-40
1.1031051 -0.21962427 2.6454039 1.0112751e-39
1.1030744 -0.21470672 2.6452274 6.4285968e-40
1.1030439 -0.2097892 2.6450508 6.4285128e-40
1.102586 -0.1360261 2.6424012 1.2878704e-39
1.102525 -0.12619103 2.6420476 2.7590544e-39
1.1137396 -0.23083082 2.6439807 1.1956747e-39
1.1031483 -0.22212011 2.6454887 5.5282345e-40
1.1031181 -0.21723957 2.6453135 8.2724394e-40
1.1078559 -0.21473724 2.6444023 6.4285968e-40
1.1077949 -0.20490217 2.6440489 3.6734198e-40
1.1074286 -0.1458917 2.6419291 0
1.1073675 -0.13605665 2.6415758 4.5918589e-40
1.1073064 -0.12622155 2.6412225 2.7590544e-39
1.1127288 -0.22952038 2.6441069 1.0109275e-39
1.1078936 -0.2221504 2.6446698 6.4501908e-40
1.1126068 -0.20985025 2.6434004 1.8367099e-40
1.1125762 -0.20493269 2.6432238 3.6734198e-40
1.1120877 -0.12625207 2.6403975 3.0359944e-39
1.1120572 -0.12133456 2.6402206 2.4828206e-39
1.1175104 -0.22955091 2.6432817 6.4286249e-40
1.1126393 -0.22218069 2.643851 1.8404094e-40
1.1174494 -0.21971585 2.6429284 3.6734899e-40
1.0659648 -0.1942271 2.6508832 1.1956719e-39
1.0837319 -0.18235508 2.6473734 0
1.0886126 -0.19229868 2.6468978 0
1.0885203 -0.1774295 2.6463635 0
1.0884895 -0.17247312 2.6461856 0
1.0934317 -0.19232945 2.646066 0
1.093401 -0.18737307 2.6458879 0
1.0933702 -0.18241662 2.64571 0
1.0933394 -0.17746027 2.6455319 0
1.0966871 -0.2042194 2.6459434 2.7658689e-40
1.0981895 -0.18244739 2.6448781 0
1.0982014 -0.19992357 2.6455228 4.5917748e-40
1.0981402 -0.19008854 2.6451693 1.836766e-40
1.1029829 -0.19995412 2.6446974 3.6734198e-40
1.1029524 -0.19503661 2.6445205 3.6734198e-40
1.1029218 -0.19011906 2.6443441 9.1835496e-41
1.1028608 -0.1802839 2.643991 0
1.1028303 -0.17536639 2.6438141 0
1.1077033 -0.19014958 2.6435189 9.1835496e-41
1.1076423 -0.18031442 2.6431658 0
1.1125457 -0.20001517 2.6430471 1.8367099e-40
1.1125152 -0.19509766 2.6428704 0
1.1124847 -0.19018011 2.6426938 0
1.1124542 -0.18526258 2.6425171 0
1.1124235 -0.18034495 2.6423407 0
1.112393 -0.17542742 2.642164 0
1.1123625 -0.1705099 2.6419871 0
