# .PCD v0.7 - Point Cloud Data file format
VERSION 0.7
FIELDS x y z rgb
SIZE 4 4 4 4
TYPE F F F F
COUNT 1 1 1 1
WIDTH 617
HEIGHT 1
VIEWPOINT 0 0 0 1 0 0 0
POINTS 617
DATA ascii
0.80587941 -0.98219067 2.9116409 3.6881825e-39
0.80428594 -0.96556747 2.9139123 4.1477229e-39
0.81224704 -0.96644646 2.9156959 4.1477173e-39
0.89012355 -1.0162032 2.9265633 4.5168586e-39
0.90345824 -1.027896 2.927917 4.5168586e-39
0.91348886 -1.038257 2.9286852 4.608341e-39
0.50928766 -0.4327561 2.9277816 1.7553141e-39
0.50704241 -0.42351931 2.9287155 1.3861714e-39
0.50479734 -0.4142825 2.9296494 1.6631171e-39
0.50255227 -0.40504563 2.930583 1.3858211e-39
0.50030708 -0.39580879 2.9315169 1.662415e-39
0.49581701 -0.37733528 2.9333842 1.3858211e-39
0.49357173 -0.36809847 2.9343183 1.3858211e-39
0.49132675 -0.3588616 2.935252 1.1099447e-39
0.48908159 -0.34962484 2.9361858 1.3858211e-39
0.48683658 -0.34038788 2.9371192 1.9354076e-39
0.48459142 -0.33115113 2.9380531 1.9357579e-39
0.48234621 -0.32191432 2.938987 1.4783671e-39
0.4778561 -0.30344075 2.9408545 1.1099447e-39
0.47561112 -0.29420391 2.9417882 1.3858211e-39
0.47112083 -0.27573031 2.9436557 1.3858211e-39
0.46887568 -0.26649338 2.9445896 1.1102922e-39
0.46663052 -0.25725663 2.9455235 1.662415e-39
0.47222561 -0.24674618 2.9485552 1.7510079e-39
0.46996397 -0.23744138 2.949496 1.7510079e-39
0.46770224 -0.22813654 2.9504368 1.7510079e-39
0.46091735 -0.20022184 2.9532585 1.9361082e-39
0.53284353 -0.50551242 2.9218457 2.5814776e-39
0.51712781 -0.44085482 2.9283822 1.6627667e-39
0.51263762 -0.4223811 2.9302495 1.4783671e-39
0.51039255 -0.41314435 2.9311833 1.6627667e-39
0.51630986 -0.40378237 2.9341099 1.5702124e-39
0.50365728 -0.38543382 2.9339845 2.1204995e-39
0.50141197 -0.37619713 2.9349186 1.4783671e-39
0.49916703 -0.36696026 2.9358521 1.8435623e-39
0.49692193 -0.35772341 2.9367859 1.3858211e-39
0.50047833 -0.33864829 2.9406943 1.9357579e-39
0.4901866 -0.33001298 2.9395874 1.8439126e-39
0.4834514 -0.30230254 2.9423883 1.3858211e-39
0.48917025 -0.29212403 2.9453974 1.3858211e-39
0.48690856 -0.28281918 2.9463382 1.3858211e-39
0.48464692 -0.27351433 2.9472787 1.3858211e-39
0.48238525 -0.26420939 2.9482195 1.3861714e-39
0.48012361 -0.25490454 2.9491601 1.3861714e-39
0.4861581 -0.24425025 2.9523213 1.7510079e-39
0.483879 -0.23487382 2.9532692 1.7510079e-39
0.48160002 -0.22549725 2.954217 1.7510079e-39
0.51968461 -0.39333093 2.9365957 1.5709214e-39
0.51516134 -0.37472129 2.938477 1.6627667e-39
0.5128997 -0.36541641 2.9394176 1.5702124e-39
0.510638 -0.35611159 2.9403584 1.5702124e-39
0.51690739 -0.34623641 2.9434519 1.3858211e-39
0.51462829 -0.33685982 2.9443998 1.662415e-39
0.51234925 -0.32748333 2.9453478 2.1204995e-39
0.5100702 -0.31810683 2.9462955 1.4783671e-39
0.50779122 -0.30873036 2.9472435 1.7510079e-39
0.49706814 -0.30028233 2.9460022 1.9357579e-39
0.49254495 -0.2816726 2.9478836 1.3858211e-39
0.49028331 -0.27236778 2.9488242 1.5709214e-39
0.48802161 -0.26306286 2.949765 1.4783671e-39
0.49411684 -0.25247136 2.9529307 1.3861714e-39
0.49183792 -0.2430948 2.9538784 1.4783671e-39
0.48500061 -0.21496545 2.9567223 1.3861714e-39
0.53436756 -0.42940384 2.9343784 1.7546106e-39
0.53210592 -0.42009902 2.9353189 1.8475097e-39
0.52984422 -0.41079417 2.9362597 1.7553141e-39
0.52532083 -0.39218438 2.9381413 1.7553141e-39
0.52305937 -0.38287947 2.9390817 1.6627667e-39
0.52079779 -0.3735747 2.9400222 1.6627667e-39
0.51853609 -0.36426985 2.940963 1.4783671e-39
0.51627445 -0.35496497 2.9419036 1.6627667e-39
0.52030826 -0.33570442 2.9459569 1.3858211e-39
0.51802909 -0.32632795 2.9469051 2.0283039e-39
0.51575005 -0.31695145 2.9478528 1.6631171e-39
0.51347095 -0.30757502 2.9488008 1.8435623e-39
0.50435483 -0.27006906 2.9525924 1.6631171e-39
0.50207579 -0.26069248 2.9535401 1.3861714e-39
0.49979669 -0.25131598 2.954488 1.9361082e-39
0.5400039 -0.42825738 2.9359238 1.7553141e-39
0.53774214 -0.41895249 2.9368646 1.8475097e-39
0.53548056 -0.40964764 2.9378052 1.7553141e-39
0.53321898 -0.40034267 2.9387457 1.7553141e-39
0.53095728 -0.39103782 2.9396865 1.7553141e-39
0.53738332 -0.38143146 2.9427745 2.3970864e-39
0.53510422 -0.37205505 2.9437225 1.7549638e-39
0.53282523 -0.36267856 2.9446704 1.7553141e-39
0.53054601 -0.35330212 2.9456186 1.7553141e-39
0.52598792 -0.33454904 2.9475143 1.7549638e-39
0.52370882 -0.32517257 2.9484622 2.3970864e-39
0.51003456 -0.26891363 2.9541495 1.5709214e-39
0.50775558 -0.25953704 2.9550972 2.1204995e-39
0.56585342 -0.47404107 2.9348531 2.0311877e-39
0.56357443 -0.46466461 2.935801 2.3077676e-39
0.56129539 -0.45528811 2.936749 2.6736733e-39
0.55217916 -0.41778219 2.9405403 2.0315409e-39
0.54990011 -0.40840563 2.9414883 1.8475097e-39
0.55682516 -0.39885369 2.9446883 1.6631171e-39
0.5545277 -0.38940203 2.9456441 1.7553141e-39
0.55223042 -0.37995026 2.9465995 2.3963773e-39
0.54993314 -0.37049869 2.9475551 2.5814776e-39
0.54763573 -0.36104697 2.9485106 1.7553141e-39
0.5362258 -0.35214671 2.9471757 1.6631171e-39
0.53394669 -0.34277022 2.9481237 1.6631171e-39
0.54074365 -0.33269176 2.9513772 1.7549638e-39
0.53844643 -0.32324004 2.9523325 1.7553141e-39
0.53614902 -0.31378838 2.9532881 2.1201492e-39
0.52466244 -0.26652989 2.9580655 2.1201492e-39
0.52236509 -0.25707811 2.9590209 2.1204995e-39
0.52006775 -0.24762639 2.9599762 2.1201492e-39
0.57153326 -0.47288573 2.9364104 2.123033e-39
0.56925422 -0.46350917 2.9373584 2.1237365e-39
0.5669753 -0.45413265 2.9383061 2.0311877e-39
0.56469613 -0.44475627 2.939254 2.3074145e-39
0.56241703 -0.4353798 2.940202 2.0315409e-39
0.56013793 -0.42600334 2.94115 2.0315409e-39
0.56714511 -0.41659254 2.9443474 2.3074145e-39
0.56484777 -0.40714082 2.9453027 1.7549638e-39
0.56255043 -0.39768904 2.9462583 1.7546106e-39
0.56025314 -0.38823736 2.9472139 1.7549638e-39
0.55106384 -0.35043064 2.9510357 1.7553141e-39
0.54876643 -0.34097895 2.9519913 2.0315409e-39
0.54646903 -0.33152711 2.9529469 1.7553141e-39
0.54417169 -0.32207546 2.9539022 1.5702124e-39
0.57287049 -0.41542789 2.9459171 2.6736733e-39
0.56786919 -0.35824651 2.9538479 1.4783671e-39
0.5586102 -0.32015309 2.9576988 1.8475097e-39
0.55629539 -0.31062979 2.9586618 1.5702124e-39
0.57595265 -0.36659643 2.9544671 2.0311877e-39
0.5736379 -0.35707301 2.9554296 1.6627667e-39
0.57132316 -0.34754968 2.9563923 1.7549638e-39
0.56900847 -0.33802634 2.957355 2.0308374e-39
0.56206423 -0.30945623 2.9602432 2.3963829e-39
0.55974948 -0.29993296 2.9612057 2.0315409e-39
0.55743474 -0.29040968 2.9621687 1.848216e-39
0.55512005 -0.28088626 2.9631312 1.7553141e-39
0.62337565 -0.57377768 2.9328134 3.1371681e-39
0.57940662 -0.35589957 2.957011 2.0311877e-39
0.57477719 -0.33685291 2.9589365 1.7549638e-39
0.56783283 -0.30828285 2.9618249 2.4889289e-39
0.56551814 -0.29875955 2.9627876 1.8475097e-39
0.56320339 -0.28923622 2.9637504 2.0308374e-39
0.62452608 -0.51662272 2.9422264 3.4112383e-39
0.62221128 -0.50709951 2.9431891 3.3186895e-39
0.61989653 -0.49757615 2.9441516 3.2264939e-39
0.61758184 -0.48805285 2.9451146 2.8609414e-39
0.58053595 -0.29661223 2.9667599 1.7553141e-39
0.66964537 -0.67734611 2.9274416 3.4112383e-39
0.665016 -0.65829921 2.9293668 3.226847e-39
0.66270125 -0.64877599 2.9303296 3.5034395e-39
0.66038656 -0.6392526 2.9312923 3.5034395e-39
0.65807176 -0.62972933 2.932255 2.8605883e-39
0.65575695 -0.62020606 2.933218 2.8609414e-39
0.6534422 -0.61068261 2.9341807 2.9527839e-39
0.65112746 -0.60115927 2.9351435 3.5034339e-39
0.64881277 -0.59163588 2.936106 3.3186895e-39
0.64649796 -0.58211267 2.9370689 3.4112383e-39
0.65400803 -0.57378739 2.9402142 3.5034339e-39
0.65167493 -0.5641889 2.9411848 2.8609414e-39
0.64934194 -0.55459034 2.9421551 2.8605883e-39
0.64700896 -0.54499173 2.9431252 3.1364647e-39
0.64467585 -0.53539312 2.9440958 3.3186895e-39
0.64234275 -0.52579457 2.945066 3.226847e-39
0.64000976 -0.51619607 2.9460366 3.4112383e-39
0.63767672 -0.5065977 2.9470069 3.3183392e-39
0.63301075 -0.48740053 2.9489474 2.8609414e-39
0.63067758 -0.47780198 2.949918 2.6761914e-39
0.62834471 -0.46820334 2.9508882 2.4914456e-39
0.62601161 -0.45860481 2.9518585 2.5836426e-39
0.70550585 -0.79997593 2.9165075 2.8580701e-39
0.70087636 -0.78092927 2.918433 3.0421027e-39
0.69856155 -0.77140594 2.9193959 3.3186895e-39
0.69161737 -0.74283594 2.9222839 3.226847e-39
0.66215521 -0.58220321 2.9408383 3.4108852e-39
0.65049016 -0.53421032 2.9456897 3.3186895e-39
0.64815706 -0.52461183 2.9466603 3.3186895e-39
0.63649201 -0.47661921 2.9515119 2.8609414e-39
0.63415891 -0.46702063 2.9524825 2.5836426e-39
0.71229708 -0.76339293 2.923996 3.1346514e-39
0.70529801 -0.73459727 2.9269068 2.8609414e-39
0.7029649 -0.72499877 2.9278774 2.6761914e-39
0.7297765 -0.81020296 2.9207385 3.1342983e-39
0.72744346 -0.80060434 2.9217086 3.0424558e-39
0.72044438 -0.77180874 2.9246197 2.6761914e-39
0.7181114 -0.76221013 2.92559 3.0421027e-39
0.71577835 -0.75261164 2.9265604 2.768387e-39
0.71344531 -0.74301308 2.9275308 2.8605883e-39
0.71433043 -0.70684218 2.933526 2.6761914e-39
0.71197915 -0.69716835 2.934504 2.8605883e-39
0.69711411 -0.67582309 2.9343231 2.9534873e-39
0.66260177 -0.49401936 2.9550407 2.9527839e-39
0.66025043 -0.48434561 2.9560187 2.9524336e-39
0.65789902 -0.47467193 2.9569967 2.8605883e-39
0.65554774 -0.46499804 2.9579744 2.6754879e-39
0.76125401 -0.91460425 2.9116588 2.7658689e-39
0.74725586 -0.85701281 2.9174807 3.0424558e-39
0.74492282 -0.84741437 2.9184511 3.1346514e-39
0.74258983 -0.83781576 2.9194214 3.1346514e-39
0.73792374 -0.81861877 2.9213622 3.1346514e-39
0.74605459 -0.81206155 2.9243753 3.0424558e-39
0.73325771 -0.79942167 2.9233029 3.226847e-39
0.73092473 -0.78982306 2.924273 3.226847e-39
0.72392553 -0.7610274 2.9271841 3.1346514e-39
0.72019035 -0.70565015 2.9351325 2.7683926e-39
0.71783894 -0.69597632 2.9361105 2.768387e-39
0.70373118 -0.63793373 2.9419782 3.6874721e-39
0.75426596 -0.82054317 2.9250038 3.1342983e-39
0.75191462 -0.8108694 2.9259818 2.5843461e-39
0.74956328 -0.80119574 2.9269598 3.3186895e-39
0.74721199 -0.79152191 2.9279375 2.6758383e-39
0.74486071 -0.78184819 2.9289155 3.0421027e-39
0.74250948 -0.77217448 2.9298935 3.1346514e-39
0.74015808 -0.7625007 2.9308715 3.226847e-39
0.73780674 -0.75282699 2.9318495 3.2264939e-39
0.73545545 -0.74315321 2.9328275 3.1342983e-39
0.73310417 -0.73347938 2.9338052 3.4108852e-39
0.73075289 -0.72380567 2.9347832 2.8605883e-39
0.72840154 -0.71413183 2.9357612 2.9524336e-39
0.7260502 -0.70445818 2.9367392 3.1342983e-39
0.72369891 -0.69478434 2.9377172 2.8609414e-39
0.72134757 -0.68511057 2.9386952 2.953137e-39
0.71899635 -0.67543668 2.9396727 2.953137e-39
0.71664506 -0.66576296 2.9406507 2.953137e-39
0.71429366 -0.65608919 2.9416289 2.9527839e-39
0.71194232 -0.64641553 2.9426069 2.9527839e-39
0.76247704 -0.82902497 2.9256325 3.1346514e-39
0.76012576 -0.8193512 2.9266105 3.226847e-39
0.75777447 -0.80967748 2.9275885 2.6761914e-39
0.75542307 -0.80000371 2.9285665 2.6758383e-39
0.75307184 -0.79032987 2.9295442 2.8609414e-39
0.75072056 -0.78065616 2.9305222 3.1342983e-39
0.74836922 -0.77098244 2.9315002 3.1346514e-39
0.74601793 -0.76130861 2.9324782 2.8609414e-39
0.74366653 -0.7516349 2.9334562 2.8605883e-39
0.74131531 -0.74196112 2.9344339 3.1342983e-39
0.73896408 -0.73228729 2.9354117 2.8605883e-39
0.73661274 -0.72261351 2.9363897 2.8609414e-39
0.73426139 -0.7129398 2.9373677 2.6765417e-39
0.73191011 -0.70326614 2.9383459 3.3190427e-39
0.72955871 -0.69359231 2.9393239 2.8609414e-39
0.72720742 -0.6839186 2.9403019 3.1371681e-39
0.73564559 -0.67630833 2.9435573 2.9527839e-39
0.72853428 -0.64705068 2.9465148 2.9527839e-39
0.7261638 -0.63729817 2.9475009 3.3212077e-39
0.72379327 -0.62754571 2.948487 2.9527839e-39
0.72142285 -0.61779308 2.9494727 3.6874721e-39
0.7166819 -0.59828794 2.9514446 3.5974499e-39
0.71431154 -0.58853525 2.9524302 3.3212077e-39
0.711941 -0.57878286 2.9534163 3.3212077e-39
0.78949857 -0.91489685 2.9184377 3.0424558e-39
0.78479594 -0.89554936 2.9203935 3.0424558e-39
0.76525772 -0.7726323 2.9353178 3.1342983e-39
0.7628873 -0.76287973 2.9363039 2.8609414e-39
0.76051676 -0.75312716 2.93729 2.8609414e-39
0.75814635 -0.74337459 2.9382756 2.768387e-39
0.75577587 -0.73362201 2.9392614 3.4112383e-39
0.75340539 -0.72386962 2.9402475 3.4112383e-39
0.75103498 -0.71411681 2.9412332 3.4112383e-39
0.7486645 -0.7043643 2.9422193 3.3190427e-39
0.74629402 -0.69461191 2.9432054 3.3186895e-39
0.74392354 -0.68485922 2.944191 2.9527839e-39
0.74155313 -0.67510659 2.9451768 2.9527839e-39
0.71547812 -0.5678286 2.9560218 3.3215608e-39
0.78538811 -0.82994574 2.9310222 3.2264939e-39
0.78301764 -0.82019335 2.932008 3.4112383e-39
0.78064716 -0.81044078 2.9329939 3.2261436e-39
0.77827674 -0.80068821 2.9339797 2.6758383e-39
0.77353579 -0.78118312 2.9359517 3.3190427e-39
0.77116531 -0.77143055 2.9369376 3.3190427e-39
0.76879478 -0.7616781 2.9379237 2.8612917e-39
0.7721836 -0.73482281 2.9430346 3.4112383e-39
0.75457203 -0.70316267 2.9438391 3.4105405e-39
0.75220168 -0.6934101 2.9448247 3.4105349e-39
0.81262982 -0.91651714 2.9237688 3.1346514e-39
0.81025928 -0.90676469 2.9247549 3.4108852e-39
0.80788887 -0.89701211 2.9257405 2.8605883e-39
0.80551845 -0.88725948 2.9267263 3.4112383e-39
0.80314791 -0.87750691 2.9277124 3.226847e-39
0.79366612 -0.83849663 2.9316559 3.4112383e-39
0.79963523 -0.82206178 2.9357255 3.4112383e-39
0.79724652 -0.8122341 2.9367189 3.3190427e-39
0.78418422 -0.79948658 2.9355996 2.8609414e-39
0.78181374 -0.78973395 2.9365857 2.953137e-39
0.77944338 -0.77998137 2.9375713 3.5034339e-39
0.78769165 -0.77292287 2.9406927 3.4108852e-39
0.78530282 -0.7630952 2.9416864 2.953137e-39
0.7829141 -0.75326741 2.9426799 3.1371681e-39
0.78052539 -0.74343967 2.9436734 3.3186895e-39
0.77813661 -0.73361194 2.9446671 2.953137e-39
0.7757479 -0.72378415 2.9456606 2.9527839e-39
0.77335906 -0.71395636 2.9466541 3.3186895e-39
0.77097034 -0.70412862 2.9476476 3.3186895e-39
0.7638042 -0.67464519 2.950628 3.5027305e-39
0.80797714 -0.83067864 2.9363639 3.5034339e-39
0.80558842 -0.82085067 2.9373574 3.5034395e-39
0.80319971 -0.81102306 2.9383509 3.4112383e-39
0.80081093 -0.80119532 2.9393446 2.8609414e-39
0.79842216 -0.79136753 2.9403381 3.4112383e-39
0.79603344 -0.78153968 2.9413316 3.4112383e-39
0.79364467 -0.77171195 2.9423251 2.9527839e-39
0.7745347 -0.69308984 2.9502733 3.4112383e-39
0.82348537 -0.86877853 2.9340222 3.136815e-39
0.82109654 -0.85895097 2.9350159 2.953137e-39
0.81870788 -0.84912306 2.9360092 3.1371681e-39
0.81631911 -0.83929533 2.9370029 3.5034395e-39
0.82578015 -0.83289212 2.9403124 3.5034339e-39
0.82337141 -0.82298201 2.9413142 3.5034339e-39
0.82096267 -0.81307197 2.9423161 3.6878252e-39
0.80676419 -0.79998428 2.9409766 3.4112383e-39
0.80437547 -0.79015642 2.9419701 3.6878252e-39
0.81373626 -0.78334153 2.9453218 3.6878252e-39
0.78723979 -0.67432994 2.956342 3.6878252e-39
0.85093701 -0.95601767 2.926713 2.9534873e-39
0.82937449 -0.82176089 2.9429603 3.5034339e-39
0.82696569 -0.81185085 2.9439623 3.6878252e-39
0.82455683 -0.80194074 2.9449642 3.2293652e-39
0.82214814 -0.79203063 2.945966 3.5034339e-39
0.8197394 -0.78212041 2.9469676 3.6874721e-39
0.81733066 -0.77221024 2.9479694 3.8722165e-39
0.81492192 -0.76230013 2.9489713 3.6878252e-39
0.81251311 -0.75238997 2.9499731 3.2290121e-39
0.81010443 -0.7424798 2.9509749 3.2290121e-39
0.80769551 -0.73256969 2.951977 3.7796677e-39
0.80287802 -0.71274942 2.9539807 3.3215608e-39
0.80046928 -0.70283937 2.9549825 3.3212077e-39
0.7980606 -0.69292909 2.9559841 3.6874721e-39
0.79565185 -0.68301892 2.956986 3.7793174e-39
0.86644506 -0.99411768 2.924371 3.5034339e-39
0.86669129 -0.94937181 2.9315825 3.1371681e-39
0.86428255 -0.93946165 2.9325843 3.5034395e-39
0.85464758 -0.89982098 2.9365916 3.5034339e-39
0.82333362 -0.77098912 2.9496155 3.9644121e-39
0.82092488 -0.76107901 2.9506173 3.7793174e-39
0.81851608 -0.75116885 2.9516191 3.3212077e-39
0.81610733 -0.7412588 2.952621 3.3208574e-39
0.8064723 -0.70161819 2.9566283 3.8722165e-39
0.87510318 -0.95806074 2.9322264 3.8704172e-39
0.87269437 -0.94815058 2.9332283 3.8704144e-39
0.87028563 -0.93824041 2.9342301 4.0548098e-39
0.86787683 -0.92833042 2.9352319 3.7800208e-39
0.86546797 -0.91842026 2.936234 3.6878252e-39
0.86305928 -0.90850997 2.9372358 3.7800208e-39
0.86065054 -0.89859986 2.9382374 3.7800208e-39
0.86497879 -0.8724311 2.9434659 3.7800208e-39
0.86255074 -0.8624422 2.9444759 3.7800208e-39
0.8601228 -0.85245335 2.9454858 3.964059e-39
0.85769486 -0.84246439 2.9464955 3.5063108e-39
0.8269279 -0.75985789 2.9522634 3.3212077e-39
0.8245191 -0.74994773 2.9532652 3.7796677e-39
0.83341581 -0.74257499 2.9565933 3.5063108e-39
0.83098793 -0.73258597 2.9576032 3.5985064e-39
0.82855988 -0.72259718 2.9586132 3.9644121e-39
0.82613206 -0.71260816 2.9596229 3.9644121e-39
0.82370412 -0.70261937 2.9606326 3.5059577e-39
0.88351488 -0.96674967 2.9328704 3.9629645e-39
0.88110614 -0.95683956 2.933872 4.0548098e-39
0.8786974 -0.94692945 2.9348741 3.7800208e-39
0.87628859 -0.93701929 2.9358759 3.7800208e-39
0.87387985 -0.92710924 2.9368777 3.7800208e-39
0.87147111 -0.91719908 2.9378796 3.7800208e-39
0.87831318 -0.90116715 2.9420958 3.9644121e-39
0.87588525 -0.89117831 2.9431055 3.3212077e-39
0.87345743 -0.88118923 2.9441149 3.9644121e-39
0.87102944 -0.87120032 2.9451249 3.7800208e-39
0.86374563 -0.84123355 2.9481544 3.9644121e-39
0.83946651 -0.74134415 2.9582524 3.964059e-39
0.8892197 -0.91991413 2.941735 3.5970589e-39
0.88679188 -0.90992522 2.9427445 3.8718633e-39
0.88436389 -0.89993632 2.9437544 3.7796677e-39
0.88193607 -0.88994735 2.9447641 3.9644121e-39
0.87950814 -0.87995845 2.9457741 3.9644121e-39
0.87708014 -0.86996949 2.946784 4.1488089e-39
0.91469377 -0.99859488 2.9353154 4.0566077e-39
0.91226584 -0.98860592 2.9363253 3.9644121e-39
0.90983802 -0.97861689 2.937335 3.9644121e-39
0.90741009 -0.96862805 2.9383447 3.7800208e-39
0.90255427 -0.94865018 2.9403644 3.8722165e-39
0.9001264 -0.93866116 2.9413741 3.7800208e-39
0.8976984 -0.92867231 2.942384 3.7800208e-39
0.89527041 -0.91868335 2.9433939 4.2399102e-39
0.9051519 -0.91271722 2.9467356 3.9644121e-39
0.9002561 -0.89257461 2.948772 3.6878252e-39
0.89780819 -0.88250327 2.9497898 3.8722165e-39
0.91831654 -0.98737508 2.9379845 3.9644121e-39
0.91346085 -0.96739715 2.9400036 3.9644121e-39
0.90374917 -0.92744142 2.9440429 3.9644121e-39
0.90132117 -0.91745251 2.9450531 4.0566077e-39
0.91125262 -0.91147625 2.9484084 4.0566077e-39
0.93814164 -0.96942204 2.9456446 4.1488033e-39
0.91594732 -1.0342059 2.9299266 4.7927252e-39
0.92108625 -1.0343995 2.9311373 5.1615063e-39
0.92282671 -1.0593661 2.9275677 4.7001765e-39
0.93136382 -1.0347866 2.9335592 5.1611532e-39
0.93117023 -1.0294832 2.9343603 5.1611532e-39
0.90270406 -0.90264577 2.9477537 3.9626142e-39
0.89536029 -0.87243176 2.9508078 3.7814501e-39
0.9061771 -0.93743038 2.9430332 4.1502327e-39
0.92714506 -0.95052046 2.9460082 4.0566077e-39
0.9246971 -0.94044912 2.9470265 4.1488033e-39
0.9222492 -0.93037772 2.9480443 4.1488033e-39
0.91980135 -0.92030644 2.9490626 4.1488033e-39
0.9307977 -0.93920809 2.948699 4.1488033e-39
0.92834979 -0.92913681 2.9497173 4.0566077e-39
0.91255295 -1.0278395 2.9301236 4.7008981e-39
0.91712177 -1.0085838 2.9343054 3.9647624e-39
0.90498209 -0.95863914 2.9393549 3.5063108e-39
0.92074454 -0.99736404 2.9369745 3.9654813e-39
0.91588867 -0.97738612 2.9389939 3.9647624e-39
0.92104447 -0.95176131 2.9443355 4.0562546e-39
0.92317247 -1.0073531 2.9359646 3.8725668e-39
0.814336 -0.97841614 2.9142876 3.964059e-39
0.81414407 -0.97315788 2.9150817 4.0562546e-39
0.81767601 -0.98325634 2.9143214 3.7800236e-39
0.84259522 -0.94740075 2.926074 3.4115886e-39
0.83781779 -0.92774516 2.928061 2.8594939e-39
0.83304024 -0.90808976 2.9300482 3.4112383e-39
0.83065158 -0.89826185 2.9310415 3.3190427e-39
0.82826281 -0.88843417 2.9320354 3.5034395e-39
0.83899337 -0.90687871 2.9316804 3.5034339e-39
0.8366046 -0.8970511 2.9326739 3.4112383e-39
0.83182704 -0.87739551 2.9346609 3.5034339e-39
0.84141827 -0.87131166 2.9379511 3.6878252e-39
0.83900952 -0.8614015 2.9389529 3.3215608e-39
0.83660072 -0.85149145 2.9399548 3.6878252e-39
0.83419204 -0.84158128 2.9409566 3.5034339e-39
0.83178324 -0.83167112 2.9419584 3.6867364e-39
0.84982997 -0.88000071 2.9385953 3.4123075e-39
0.84742123 -0.8700906 2.9395971 3.6881755e-39
0.84501249 -0.86018044 2.940599 3.5970589e-39
0.84260374 -0.85027039 2.9416008 3.6892545e-39
0.840195 -0.84036016 2.9426024 3.8722165e-39
0.8377862 -0.83045 2.9436045 3.6878252e-39
0.85526711 -0.83247542 2.947505 3.7796677e-39
0.85283917 -0.82248646 2.9485147 3.413053e-39
0.85041112 -0.81249768 2.9495249 3.8718633e-39
0.8479833 -0.80250865 2.9505346 3.8718633e-39
0.84555542 -0.79251963 2.9515443 4.0566077e-39
0.84312743 -0.78253078 2.9525542 3.9644121e-39
0.84069943 -0.77254188 2.9535642 3.9644121e-39
0.86131781 -0.83124459 2.9491642 3.7796677e-39
0.85888988 -0.82125562 2.9501739 3.8718633e-39
0.85646188 -0.8112669 2.951184 3.3212077e-39
0.85403401 -0.80127788 2.9521935 3.5063108e-39
0.84675026 -0.77131104 2.9552231 3.5063108e-39
0.84432238 -0.76132208 2.9562328 3.5985064e-39
0.84189439 -0.75133312 2.9572427 3.8718633e-39
0.85037309 -0.76009125 2.9578919 3.5059577e-39
0.84794521 -0.75010216 2.9589014 3.3215608e-39
0.84551734 -0.74011326 2.9599113 3.5981533e-39
0.868433 -0.76164746 2.9620073 4.3324912e-39
0.86598504 -0.75157619 2.9630256 4.3331946e-39
0.85156798 -0.73888248 2.9615705 3.8747346e-39
0.66733068 -0.66782254 2.9284041 2.8609414e-39
0.69624692 -0.76188254 2.9203584 3.0421027e-39
0.69393212 -0.75235927 2.9213214 3.226847e-39
0.68930262 -0.73331255 2.9232466 2.8609414e-39
0.68698788 -0.72378922 2.9242094 3.2264939e-39
0.68467319 -0.71426582 2.9251721 2.6758383e-39
0.68235844 -0.70474249 2.9261348 3.1342983e-39
0.67541414 -0.67617255 2.9290233 2.8605883e-39
0.68315244 -0.66859013 2.9321053 2.8605883e-39
0.67148733 -0.62059748 2.9369569 3.136815e-39
0.66915435 -0.61099875 2.937927 2.8605883e-39
0.66682124 -0.60140026 2.9388976 2.8605883e-39
0.6644882 -0.59180176 2.939868 3.5027305e-39
0.70063192 -0.71540022 2.9288476 2.6758383e-39
0.69829881 -0.70580167 2.9298182 2.7683926e-39
0.69596595 -0.69620305 2.930788 2.9524336e-39
0.69363284 -0.68660456 2.9317586 2.9527839e-39
0.69129974 -0.67700595 2.932729 2.8605883e-39
0.68896675 -0.66740745 2.9336994 3.3190427e-39
0.68663371 -0.65780872 2.9346695 2.8609414e-39
0.68430066 -0.64821035 2.9356401 2.8605883e-39
0.68196774 -0.63861173 2.9366102 2.9527839e-39
0.67963463 -0.62901324 2.9375808 3.1371681e-39
0.67730165 -0.61941475 2.9385509 2.9527839e-39
0.69944715 -0.68542176 2.9333527 2.953137e-39
0.69478106 -0.66622466 2.9352934 2.953137e-39
0.6924479 -0.65662605 2.936264 2.953137e-39
0.69011503 -0.64702755 2.9372339 2.9527839e-39
0.69787133 -0.6391257 2.9403715 3.5034395e-39
0.6955201 -0.62945193 2.9413493 3.136815e-39
0.69316876 -0.61977822 2.9423273 3.1364647e-39
0.69081742 -0.61010432 2.9433053 3.136815e-39
0.68846613 -0.60043061 2.9442832 2.9527839e-39
0.68611479 -0.59075689 2.9452612 3.136815e-39
0.6837635 -0.58108318 2.946239 3.5034395e-39
0.68141222 -0.5714094 2.947217 3.136815e-39
0.67906088 -0.56173563 2.948195 2.9527839e-39
0.67670959 -0.55206186 2.949173 2.8609414e-39
0.67435825 -0.54238814 2.950151 3.136815e-39
0.67200696 -0.53271431 2.951129 3.1371681e-39
0.66965562 -0.52304047 2.9521067 3.2290121e-39
0.7060824 -0.64760751 2.9410002 2.9527839e-39
0.70137995 -0.62825996 2.942956 3.136815e-39
0.69902855 -0.61858624 2.9439337 3.1371681e-39
0.69432592 -0.59923863 2.9458899 3.2290121e-39
0.68727201 -0.57021743 2.9488237 3.3212077e-39
0.68021804 -0.54119617 2.9517577 3.1364647e-39
0.6778667 -0.53152239 2.9527357 2.953137e-39
0.70723975 -0.62706804 2.9445629 3.136815e-39
0.69313186 -0.56902546 2.9504304 3.3212077e-39
0.69899178 -0.56783336 2.9520369 3.7796677e-39
0.70720011 -0.55927771 2.9553881 3.1371681e-39
0.93903512 -1.0221198 2.9374378 4.885288e-39
0.94241571 -1.0563877 2.9327776 4.978564e-39
0.94793332 -1.0097073 2.9415722 4.1488033e-39
0.94825298 -0.96375495 2.9489939 4.0566077e-39
0.94578505 -0.95360118 2.9500203 4.1488033e-39
0.94699955 -0.93204272 2.9537597 4.4253902e-39
0.94453162 -0.92188913 2.9547861 4.5175859e-39
0.94755453 -1.0565811 2.9339888 1.9436486e-39
0.94736099 -1.0512776 2.9347897 1.4826705e-39
0.94716746 -1.0459743 2.9355905 3.7921238e-40
0.94183505 -1.0404772 2.9351804 5.5274274e-39
0.94403809 -1.0393857 2.9358873 1.20825e-39
0.94678044 -1.0353671 2.937192 2.9134537e-40
0.94868612 -1.0499549 2.9353211 2.0329702e-39
0.95318884 -0.98406237 2.9469414 4.1502327e-39
0.95440346 -0.96250379 2.9506803 4.2438758e-39
0.95193553 -0.95235014 2.9517066 3.9669302e-39
0.94946748 -0.94219649 2.9527333 4.3338939e-39
0.93097669 -1.0241797 2.9351611 5.253353e-39
0.93650275 -1.0349802 2.9347703 5.1608029e-39
0.93962437 -1.0500338 2.9331186 4.8845705e-39
0.94202864 -1.0457808 2.9343793 4.9767718e-39
0.94164151 -1.0351737 2.9359813 5.2529999e-39
0.9401679 -1.0772756 2.9288962 3.6892545e-39
0.93591315 -0.91298652 2.9541261 4.0598349e-39
0.93838114 -0.92314011 2.9530997 3.9672805e-39
0.95211279 -1.0408642 2.9376023 1.1503259e-41
0.95230633 -1.0461679 2.9368014 1.0071132e-41
0.95992148 -1.029883 2.9412446 5.4356367e-42
0.95972627 -1.0245343 2.9420524 5.0769043e-42
0.96529937 -1.0354269 2.941658 1.1173954e-41
0.95687145 -0.97265744 2.9496539 3.5981533e-39
0.94813865 -1.022037 2.9396513 4.8827727e-39
0.95808607 -0.95109904 2.9533932 3.3140078e-39
0.95269352 -1.0567747 2.9351995 1.0213322e-39
0.95405126 -1.0497317 2.9366534 1.0325913e-38
0.95308638 -1.0393004 2.9380877 1.1616649e-38
0.95783222 -1.0569683 2.9364104 1.2076539e-38
0.95705801 -1.0357543 2.9396141 1.5396651e-38
0.95744514 -1.0463613 2.9380121 1.4014442e-38
0.96219701 -1.0359479 2.940825 1.8992282e-38
0.96551579 -1.018113 2.9444776 1.7513913e-38
0.96523505 -1.0125852 2.9452934 1.5578891e-38
0.96787566 -1.0034127 2.9473975 1.5856922e-38
0.96328723 -1.0722374 2.9352884 1.0050045e-38
0.96335828 -1.0677688 2.9360197 1.4471494e-38
0.96231449 -1.0617828 2.9367242 1.2074755e-38
0.96297115 -1.0571618 2.9376216 1.5487777e-38
0.96277767 -1.0518583 2.9384224 1.5949844e-38
0.96576715 -1.040653 2.9409359 1.5394137e-38
0.96080124 -1.0233299 2.9425046 1.8522209e-39
0.9691155 -0.99818128 2.9485331 2.1112071e-38
0.96258408 -1.0465549 2.9392233 1.8070691e-38
0.96239048 -1.0412514 2.9400244 1.834693e-38
0.96772283 -1.0467485 2.9404342 2.0741846e-38
0.9673357 -1.0361414 2.9420359 2.0740047e-38
0.97018737 -1.0299735 2.9437108 1.8158571e-38
0.97170043 -1.0151211 2.9464505 1.9450388e-38
0.97150689 -1.0098177 2.9472513 1.9542587e-38
0.97131324 -1.0045142 2.9480524 1.9450035e-38
0.97270417 -0.99961877 2.9491708 1.9358556e-38
0.97053915 -0.98330021 2.9512558 1.9175615e-38
0.97587144 -0.98879737 2.9516661 1.8991934e-38
0.97529095 -0.97288686 2.9540684 1.9358912e-38
0.97001076 -0.92360687 2.960669 5.3430305e-39
0.56940526 -0.5492205 2.9236953 2.6761914e-39
0.56714362 -0.53991556 2.9246359 2.6761914e-39
0.58520752 -0.52914464 2.930723 2.6761914e-39
0.58292848 -0.51976812 2.9316711 2.5836426e-39
0.57609141 -0.49163875 2.9345148 2.4914456e-39
0.57381231 -0.48226228 2.9354627 2.4914456e-39
0.58665448 -0.47213802 2.9401839 2.4914456e-39
0.5797624 -0.44378307 2.9430506 2.6733201e-39
0.57746512 -0.43433133 2.944006 2.5814776e-39
0.57516778 -0.42487961 2.9449615 2.4896295e-39
0.59927183 -0.49932861 2.9388871 3.0424558e-39
0.59697437 -0.48987696 2.9398429 2.5839958e-39
0.60372961 -0.48087645 2.942914 2.6736733e-39
0.6014148 -0.47135305 2.9438767 2.8580701e-39
0.59910011 -0.46182963 2.9448392 2.4910967e-39
0.59678537 -0.45230633 2.9458022 2.5811245e-39
0.59447068 -0.44278303 2.9467647 2.2152189e-39
0.59215593 -0.43325973 2.9477277 2.6733201e-39
0.58984113 -0.42373639 2.9486902 2.3070642e-39
0.58752638 -0.414213 2.9496529 2.0311877e-39
0.58521163 -0.4046897 2.9506159 2.0311877e-39
0.58289689 -0.39516631 2.9515786 2.0308374e-39
0.58058214 -0.38564301 2.9525416 2.6733201e-39
0.57826746 -0.37611958 2.9535041 2.0315409e-39
0.6049971 -0.49816397 2.9404571 3.1346514e-39
0.61181313 -0.48922628 2.9435327 3.0421027e-39
0.60949838 -0.47970289 2.9444954 2.4910967e-39
0.60718352 -0.47017953 2.9454584 2.8580701e-39
0.60486877 -0.46065617 2.9464214 2.8580701e-39
0.60255408 -0.45113286 2.9473839 2.8580645e-39
0.6002394 -0.44160953 2.9483466 2.2152189e-39
0.59792459 -0.4320862 2.9493093 2.6736733e-39
0.5956099 -0.4225629 2.9502721 2.8580645e-39
0.5932951 -0.41303957 2.9512348 2.0311877e-39
0.59098035 -0.40351626 2.9521976 2.0315409e-39
0.58866566 -0.39399281 2.9531603 2.0311877e-39
0.58635092 -0.38446945 2.954123 2.2152189e-39
0.58403611 -0.37494615 2.9550855 2.5814776e-39
0.58172131 -0.36542293 2.9560485 2.1237365e-39
0.61526704 -0.47852945 2.9460773 2.6758383e-39
0.61295235 -0.46900606 2.9470401 3.0424558e-39
0.61063761 -0.45948267 2.9480028 2.8580701e-39
0.60832286 -0.44995937 2.9489653 2.7655158e-39
0.60600811 -0.44043609 2.9499283 2.3077676e-39
0.60369337 -0.43091273 2.9508908 2.7655158e-39
0.60137868 -0.42138943 2.9518538 2.8580701e-39
0.59211957 -0.38329601 2.9557047 2.2152189e-39
0.58980495 -0.37377268 2.9566674 2.7658689e-39
0.58749014 -0.36424941 2.9576302 2.7658689e-39
