# .PCD v0.7 - Point Cloud Data file format
VERSION 0.7
FIELDS x y z rgb
SIZE 4 4 4 4
TYPE F F F F
COUNT 1 1 1 1
WIDTH 1060
HEIGHT 1
VIEWPOINT 0 0 0 1 0 0 0
POINTS 1060
DATA ascii
-1.2825971 2.0948694 -2.0671134 2.4914344e-39
-1.3007711 2.1720121 -2.003917 2.1222931e-39
-1.2966164 2.2386734 -1.9831102 3.0442508e-39
-1.3099121 2.146987 -1.9988236 4.7934693e-39
-1.3074793 2.1642923 -1.9957273 2.6754697e-39
-1.3049549 2.1503193 -2.005868 1.1027728e-39
-1.307973 2.2278354 -1.9683126 2.768743e-39
-1.3187072 2.1399016 -1.9868168 2.3088396e-39
-1.3221221 2.1426177 -1.9798684 3.5037969e-39
-1.3107315 2.1024375 -2.0160601 3.7793174e-39
-1.313923 2.1183517 -2.0039723 5.1626021e-39
-1.3262787 2.1402688 -1.9737756 4.1487949e-39
-1.3168561 2.1167636 -1.9996444 5.2544475e-39
-1.3184519 2.1247206 -1.9936002 4.6119465e-39
-1.4112896 2.006115 -1.8851808 7.2845436e-39
-1.4162018 2.003372 -1.8779669 6.4558423e-39
-1.4089822 2.0296726 -1.8792566 9.1288149e-39
-1.4161973 2.0214272 -1.8704236 7.2845492e-39
-1.4189173 2.0290463 -1.8626075 6.5494911e-39
-1.4238902 2.0262609 -1.8553081 6.7328117e-39
-1.4416889 1.9980612 -1.8368064 5.0714435e-39
-1.4423083 2.0068049 -1.8320948 7.7448127e-39
-1.450327 2.0568295 -1.797525 4.3364358e-39
-1.4453509 2.1138208 -1.7821609 4.7237771e-42
-1.4523882 2.1288857 -1.7638826 9.2231811e-39
-1.4525282 2.1409612 -1.7585937 7.2856212e-39
-1.4634628 2.0402472 -1.7821016 7.471446e-39
-1.4565951 2.069078 -1.7817336 5.4664653e-42
-1.4577481 2.0989671 -1.767271 7.9309822e-39
-1.4590729 2.120615 -1.7559626 6.179247e-39
-1.4582417 2.135128 -1.7513081 9.4994093e-39
-1.463571 2.0840118 -1.7636145 9.8685477e-39
-1.4669598 1.970046 -1.8055078 1.06025e-38
-1.4693735 2.0901997 -1.7511498 1.0236977e-38
-1.4705466 2.0989459 -1.7454954 6.1799939e-39
-1.4744475 2.0401881 -1.7634292 9.2228252e-39
-1.4756105 2.0488598 -1.7578226 1.0144406e-38
-1.4767737 2.0575321 -1.7522161 3.6097448e-42
-1.4775223 2.1138794 -1.7273765 9.4982953e-39
-1.4964516 2.1173849 -1.6936907 7.5647164e-39
-1.5000958 2.0348549 -1.7220025 1.0789781e-38
-1.5073758 2.0700567 -1.6948894 9.2206518e-39
-1.5090314 2.1142261 -1.6735994 1.0236974e-38
-1.5138115 2.0642176 -1.686377 1.0696876e-38
-1.5170255 2.0049565 -1.7056898 8.3926862e-39
-1.5185926 2.0148439 -1.6988875 9.4097402e-39
-1.5266347 2.0767841 -1.6592952 5.073261e-39
-1.5227637 2.0109248 -1.693427 8.3012178e-39
-1.5291327 2.0298531 -1.6746699 3.230475e-39
-1.5320928 2.0371351 -1.6665863 8.76111e-39
-1.5326972 2.0914183 -1.6428556 8.4848846e-39
-1.5299628 2.0160594 -1.6790261 8.9462229e-39
-1.5365101 2.0257003 -1.6638499 2.8609372e-39
-1.5370394 2.034353 -1.6593297 9.2210077e-39
-1.5375699 2.0430052 -1.6548088 9.4054004e-39
-1.5362037 2.0567393 -1.6513902 4.5186607e-39
-1.5378461 2.0499854 -1.6514195 1.1157836e-38
-1.5406958 1.9999647 -1.6674877 9.0369892e-39
-1.5363259 1.9388379 -1.7004901 2.3978024e-39
-1.5287431 1.9854445 -1.6939051 9.4068437e-39
-1.5429516 1.929567 -1.69309 0
-1.2863272 2.0777688 -2.0679157 2.8580295e-39
-1.2713225 2.1904447 -2.0463333 4.3331343e-39
-1.276934 2.204473 -2.0309153 1.2917954e-39
-1.2704407 2.22593 -2.0329945 7.4150829e-40
-1.2976893 2.0717838 -2.0510793 3.7272577e-40
-1.2974739 2.0804482 -2.0478225 1.03255e-38
-1.2893076 2.1708541 -2.0239136 1.5414283e-44
-1.2825646 2.1926761 -2.0262649 1.7527707e-39
-1.3030155 2.0688379 -2.0432453 7.4150829e-40
-1.3027999 2.0775023 -2.0399888 9.7737723e-39
-1.3083419 2.0658917 -2.0354116 5.5782889e-40
-1.3081267 2.0745561 -2.0321546 8.9436599e-39
-1.2868009 2.2168803 -2.0089316 8.3299767e-40
-1.3136681 2.0629454 -2.0275779 1.0188014e-39
-1.3134528 2.0716097 -2.0243208 7.6550469e-39
-1.3167989 2.1298113 -1.9942844 2.0325848e-39
-1.3102798 2.1512988 -1.9963945 1.4790733e-39
-1.3296471 2.0541067 -2.004076 1.848216e-39
-1.3217329 2.1443062 -1.9798243 1.2914451e-39
-1.3345426 2.0684893 -1.9897283 1.5709214e-39
-1.3343273 2.0771537 -1.9864715 2.0315409e-39
-1.3341118 2.0858181 -1.9832145 1.7563707e-39
-1.3400841 2.056879 -1.9851513 1.6634646e-39
-1.339869 2.0655434 -1.9818945 1.6631171e-39
-1.3396535 2.0742075 -1.9786375 2.6743795e-39
-1.3394381 2.0828719 -1.9753805 1.7556616e-39
-1.3329031 2.1209035 -1.9705988 3.2264393e-39
-1.3324687 2.1383679 -1.9640338 1.0180952e-39
-1.3260776 2.159925 -1.9658974 0
-1.3197424 2.1899102 -1.9641405 1.2028466e-39
-1.319522 2.1987813 -1.9608058 1.7520645e-39
-1.3456259 2.0452683 -1.9805744 2.0322471e-39
-1.3454103 2.0539327 -1.9773173 2.0322471e-39
-1.3451951 2.062597 -1.9740605 1.848216e-39
-1.3449798 2.0712614 -1.9708036 2.6743795e-39
-1.3447644 2.0799258 -1.9675466 1.7553141e-39
-1.3387052 2.1004698 -1.9692683 1.6634646e-39
-1.3384882 2.1092019 -1.965986 1.6815582e-44
-1.3382713 2.117934 -1.9627036 3.2264547e-39
-1.3380542 2.1266663 -1.9594212 2.5814776e-39
-1.3378369 2.1353986 -1.9561386 1.1102922e-39
-1.3314892 2.1569316 -1.957938 2.8025969e-45
-1.3251961 2.1868935 -1.9561194 1.3868777e-39
-1.3249754 2.1957645 -1.9527848 1.2028466e-39
-1.345593 2.0363748 -1.9843502 9.1845305e-41
-1.3447247 2.0713038 -1.9712204 2.0322471e-39
-1.3445075 2.0800362 -1.9679378 2.1244427e-39
-1.3442904 2.0887682 -1.9646554 2.6743795e-39
-1.3440733 2.0975006 -1.961373 1.7563707e-39
-1.3438565 2.1062326 -1.9580907 0
-1.3436393 2.114965 -1.9548081 3.2264547e-39
-1.3434221 2.123697 -1.9515257 2.5821839e-39
-1.3432051 2.1324294 -1.9482433 1.6609479e-39
-1.3369009 2.1539381 -1.9499785 0
-1.3306494 2.1838768 -1.9480984 1.5719752e-39
-1.330429 2.1927483 -1.9447638 1.2028466e-39
-1.3500926 2.0683346 -1.9633251 1.8475097e-39
-1.3498753 2.0770669 -1.9600425 2.4921491e-39
-1.3429692 2.1245348 -1.9519464 3.3186503e-39
-1.3427502 2.133338 -1.9486372 2.0315409e-39
-1.3425313 2.1421416 -1.945328 1.6634646e-39
-1.3358825 2.1897316 -1.9367428 1.7531435e-39
-1.3554606 2.0653653 -1.9554299 2.1237365e-39
-1.3552436 2.0740976 -1.9521475 2.4917987e-39
-1.3550265 2.08283 -1.9488651 2.1244427e-39
-1.3481621 2.1303446 -1.9406775 2.0322471e-39
-1.3479432 2.139148 -1.9373684 1.6641708e-39
-1.3477247 2.1479514 -1.9340594 2.8025969e-45
-1.3415565 2.1778438 -1.9320567 1.8475097e-39
-1.361697 2.027467 -1.9606645 2.7589044e-40
-1.3608285 2.062396 -1.9475346 2.6736733e-39
-1.3606113 2.0711284 -1.9442521 2.4921491e-39
-1.3603946 2.0798604 -1.9409697 2.1237365e-39
-1.353574 2.127351 -1.9327182 2.0315409e-39
-1.3533551 2.1361544 -1.9294089 1.7563707e-39
-1.3531363 2.144958 -1.9260998 0
-1.3407798 2.1882575 -1.9290239 1.7556616e-39
-1.3718268 2.0478663 -1.9348912 2.4917987e-39
-1.3659794 2.0681589 -1.9363569 2.9516895e-39
-1.3657626 2.0768912 -1.9330745 2.5843461e-39
-1.3592044 2.1155546 -1.9280676 3.2282539e-39
-1.3589855 2.1243579 -1.9247586 2.7665752e-39
-1.3587668 2.1331611 -1.9214494 1.848216e-39
-1.3585482 2.1419644 -1.9181402 2.8025969e-45
-1.3462787 2.1852157 -1.9209356 2.0322471e-39
-1.3775837 2.0275915 -1.9335711 2.5839958e-39
-1.3717818 2.0477252 -1.9350265 2.5839958e-39
-1.3771529 2.04492 -1.9270571 2.5839958e-39
-1.3713475 2.0651898 -1.9284616 2.9516895e-39
-1.3711307 2.0739219 -1.9251792 3.1346514e-39
-1.3709133 2.082654 -1.9218967 2.3081151e-39
-1.364835 2.1037576 -1.9234173 1.5414283e-44
-1.3646163 2.112561 -1.9201082 3.5952386e-39
-1.3702624 2.1088507 -1.9120494 2.4928553e-39
-1.3641784 2.1301677 -1.9134897 2.0322471e-39
-1.3520004 2.1732283 -1.9162101 2.3984891e-39
-1.351778 2.182174 -1.9128474 2.0322471e-39
-1.3515557 2.1911197 -1.9094847 1.848216e-39
-1.3771496 2.0447562 -1.9271311 2.5839958e-39
-1.3824793 2.0419738 -1.9192235 2.6761914e-39
-1.3767157 2.0622206 -1.9205663 2.6765417e-39
-1.3764985 2.0709527 -1.9172839 2.6765417e-39
-1.3702466 2.100764 -1.9154575 1.821688e-44
-1.3700279 2.1095676 -1.9121485 3.687437e-39
-1.3698093 2.1183708 -1.9088393 3.1360807e-39
-1.3695902 2.1271741 -1.9055301 2.0322471e-39
-1.3572774 2.1791322 -1.9047593 2.5839958e-39
-1.3825176 2.0417869 -1.9192359 2.6765417e-39
-1.3823007 2.050519 -1.9159536 2.6761914e-39
-1.3820835 2.0592513 -1.9126712 2.6765417e-39
-1.3756585 2.0977709 -1.9074981 1.9618179e-44
-1.3754396 2.1065743 -1.9041889 3.412648e-39
-1.375221 2.1153774 -1.9008799 3.2275477e-39
-1.3629987 2.1671448 -1.9000337 2.8573232e-39
-1.3627765 2.1760905 -1.8966711 2.6743795e-39
-1.3878857 2.0388176 -1.9113407 2.768387e-39
-1.3876685 2.0475497 -1.9080583 2.768387e-39
-1.3874514 2.056282 -1.9047757 2.9534873e-39
-1.3872347 2.0650144 -1.9014933 2.6758383e-39
-1.3810703 2.0947773 -1.8995385 0
-1.3682754 2.1730487 -1.8885828 2.6761914e-39
-1.3932538 2.0358481 -1.9034455 2.9534873e-39
-1.3930368 2.0445807 -1.9001631 2.768387e-39
-1.3928195 2.0533128 -1.8968805 2.953137e-39
-1.3926027 2.0620451 -1.8935981 2.9534873e-39
-1.3923854 2.0707772 -1.8903157 2.861642e-39
-1.3864821 2.091784 -1.8915789 1.821688e-44
-1.3862633 2.1005874 -1.8882697 3.9633135e-39
-1.3737748 2.1700068 -1.8804946 2.4921491e-39
-1.3988389 2.0241468 -1.8988326 3.3215608e-39
-1.3986219 2.0328789 -1.8955501 2.953137e-39
-1.3984048 2.0416112 -1.8922676 2.953137e-39
-1.3981876 2.0503435 -1.8889852 3.1375185e-39
-1.3979708 2.0590758 -1.8857028 3.1375185e-39
-1.3977534 2.0678079 -1.8824203 2.9538377e-39
-1.3918939 2.0887904 -1.8836193 2.6624671e-44
-1.3916749 2.0975938 -1.8803102 3.9633135e-39
-1.3794962 2.1580193 -1.8757691 2.5825342e-39
-1.3792738 2.166965 -1.8724065 2.8609414e-39
-1.4039897 2.0299098 -1.8876548 2.8609414e-39
-1.4037727 2.0386419 -1.8843725 3.1371681e-39
-1.4035556 2.0473742 -1.8810899 3.2293652e-39
-1.4033387 2.0561066 -1.8778076 3.1371681e-39
-1.4031215 2.0648389 -1.8745251 3.1375185e-39
-1.3973055 2.0857971 -1.8756598 2.6624671e-44
-1.3970866 2.0946007 -1.8723506 3.9636638e-39
-1.3849956 2.1549776 -1.8676809 2.5828817e-39
-1.384773 2.1639233 -1.8643181 2.6765417e-39
-1.4093577 2.0269406 -1.8797596 3.3219111e-39
-1.4091408 2.0356727 -1.8764772 3.1371681e-39
-1.4089236 2.044405 -1.8731948 3.3219111e-39
-1.4087067 2.0531373 -1.8699124 3.1375185e-39
-1.4084895 2.0618696 -1.8666298 3.2300644e-39
-1.4027172 2.0828037 -1.8677003 3.0828566e-44
-1.4024984 2.0916071 -1.8643911 3.5048436e-39
-1.3904947 2.1519358 -1.8595926 2.6750774e-39
-1.3902725 2.1608813 -1.85623 2.6765417e-39
-1.4149431 2.015239 -1.8751469 3.4144655e-39
-1.4147258 2.0239713 -1.8718643 3.3215608e-39
-1.4142919 2.0414357 -1.8652995 3.4144655e-39
-1.4140748 2.050168 -1.862017 3.4144655e-39
-1.4138576 2.0589001 -1.8587345 3.3226202e-39
-1.4081291 2.0798101 -1.8597405 0
-1.4079103 2.0886135 -1.8564315 3.5048436e-39
-1.4196596 2.0384665 -1.8574041 3.413762e-39
-1.4194428 2.0471985 -1.8541217 3.4144655e-39
-1.4192255 2.0559311 -1.8508393 3.3226202e-39
-1.4135407 2.0768168 -1.851781 2.6624671e-44
-1.4133221 2.0856202 -1.8484719 3.6885244e-39
-1.4128842 2.1032267 -1.8418536 2.861642e-39
-1.4308466 1.9981297 -1.8552322 3.5066611e-39
-1.4248108 2.0442293 -1.8462265 3.3215608e-39
-1.4245937 2.0529618 -1.8429441 3.4148158e-39
-1.4189526 2.0738232 -1.8438215 2.9427268e-44
-1.4187337 2.0826266 -1.8405122 3.6885244e-39
-1.4182961 2.1002331 -1.833894 2.9538377e-39
-1.4180775 2.1090364 -1.8305849 7.0064923e-45
-1.4178585 2.1178401 -1.8272756 2.5825314e-39
-1.4176397 2.1266434 -1.8239665 2.9534873e-39
-1.430396 2.0325279 -1.8416138 3.4137564e-39
-1.4301788 2.0412602 -1.8383313 3.413762e-39
-1.4299618 2.0499923 -1.8350488 3.4148158e-39
-1.4243642 2.0708301 -1.835862 2.9427268e-44
-1.4241453 2.0796332 -1.8325528 3.8711178e-39
-1.4237078 2.09724 -1.8259345 3.3229705e-39
-1.4234887 2.1060433 -1.8226252 9.8090893e-45
-1.441499 1.9922374 -1.8395644 3.7825376e-39
-1.4361979 2.0120943 -1.8402832 3.5985064e-39
-1.4353298 2.0470231 -1.8271536 3.5992071e-39
-1.4351127 2.0557556 -1.8238711 3.9376487e-43
-1.4295571 2.0766399 -1.8245932 3.7807215e-39
-1.4293382 2.085443 -1.8212839 3.4144655e-39
-1.4291196 2.0942464 -1.8179748 3.5985064e-39
-1.4179908 2.1367266 -1.8191516 3.0424208e-39
-1.4415662 2.009125 -1.832388 3.7828879e-39
-1.441349 2.0178573 -1.8291056 3.7825376e-39
-1.4411321 2.0265894 -1.8258232 3.5981533e-39
-1.4409149 2.0353217 -1.8225406 3.5063108e-39
-1.4406979 2.0440538 -1.8192582 3.5992071e-39
-1.4404808 2.0527861 -1.8159758 0
-1.4349688 2.0736463 -1.8166335 3.4122977e-39
-1.43475 2.0824497 -1.8133243 4.4253902e-39
-1.4345313 2.0912528 -1.8100152 3.2315288e-39
-1.4234899 2.1336849 -1.8110635 2.8594714e-39
-1.4469342 2.0061557 -1.8244928 3.9672805e-39
-1.4517208 2.0036738 -1.8173829 3.8750849e-39
-1.4464999 2.0236204 -1.8179278 4.1502327e-39
-1.4462829 2.0323524 -1.8146453 3.7828879e-39
-1.4460658 2.0410845 -1.811363 3.8754338e-39
-1.4458487 2.0498168 -1.8080804 4.4841551e-44
-1.4403807 2.070653 -1.8086741 3.5044933e-39
-1.4401618 2.0794563 -1.8053647 4.1498627e-39
-1.4399431 2.0882597 -1.8020557 3.5985064e-39
-1.4518677 2.0206511 -1.8100326 3.8750849e-39
-1.4516509 2.0293832 -1.8067502 3.7825376e-39
-1.4514338 2.0381155 -1.8034678 3.8754338e-39
-1.4512167 2.0468476 -1.8001853 4.4841551e-44
-1.4457923 2.0676594 -1.8007144 3.4115886e-39
-1.4455734 2.0764627 -1.7974052 4.1502327e-39
-1.4451361 2.0940695 -1.790787 0
-1.4578872 1.991485 -1.8119847 4.0598349e-39
-1.4570189 2.0264139 -1.7988549 4.4257406e-39
-1.4568019 2.0351462 -1.7955725 4.0601796e-39
-1.4512041 2.064666 -1.7927548 3.4115886e-39
-1.4507667 2.0822728 -1.7861365 4.2442262e-39
-1.4505477 2.0910761 -1.7828274 0
-1.4341445 2.1639497 -1.7802711 2.8594939e-39
-1.4634721 1.9797834 -1.8073719 5.2544054e-39
-1.4632552 1.9885157 -1.8040894 4.1513271e-39
-1.4630383 1.9972479 -1.800807 4.0591258e-39
-1.4628209 2.0059803 -1.7975245 4.0598349e-39
-1.4619528 2.0409091 -1.7843947 0
-1.461736 2.0496414 -1.7811123 3.5044933e-39
-1.4559594 2.0880826 -1.7748678 0
-1.4448195 2.1483545 -1.7686228 2.9516895e-39
-1.4688404 1.9768143 -1.7994766 5.1622098e-39
-1.468623 1.9855465 -1.7961941 4.6108507e-39
-1.468189 2.003011 -1.7896292 4.0591258e-39
-1.4677548 2.0204756 -1.7830644 3.9672805e-39
-1.4671038 2.0466721 -1.773217 3.4123075e-39
-1.4668865 2.0554042 -1.7699345 4.5197509e-39
-1.4452302 2.1578176 -1.7639661 3.1360807e-39
-1.4742085 1.9738449 -1.7915813 5.1629104e-39
-1.4676583 2.0468822 -1.7721852 4.6242849e-44
-1.4795763 1.9708757 -1.7836862 5.2551089e-39
-1.4840761 2.0028353 -1.762661 4.4286076e-39
-1.4780443 2.058502 -1.7496479 4.5208032e-39
-1.4620832 2.1396029 -1.742898 4.2445765e-39
-1.4900953 1.9736695 -1.764613 5.3473465e-39
-1.4898784 1.9824017 -1.7613307 4.6122996e-39
-1.4896612 1.9911339 -1.7580482 4.7044953e-39
-1.4787756 2.0669456 -1.7448715 4.7966909e-39
-1.4676263 2.1365368 -1.7347456 4.2445765e-39
-1.4950292 1.9881647 -1.7501528 5.072189e-39
-1.5012655 1.9502665 -1.7553875 0
-1.4896827 2.0609126 -1.7288295 5.6235803e-39
-1.4890209 2.0875263 -1.7188252 2.6743795e-39
-1.4942541 2.0933814 -1.7074698 4.7981034e-39
-1.4890355 2.1150744 -1.7072798 4.5211564e-39
-1.5162827 1.9423267 -1.7331471 5.4395422e-39
-1.5001488 2.0726221 -1.7061182 0
-1.4945347 2.1120327 -1.6991917 4.6130003e-39
-1.5169353 1.9588232 -1.7251366 5.4427694e-39
-1.5167185 1.9675554 -1.7218543 5.4420603e-39
-1.5165015 1.9762876 -1.7185719 5.4420603e-39
-1.5056021 2.0696054 -1.6980972 0
-1.505161 2.0873482 -1.6914277 5.534965e-39
-1.4951167 2.1302235 -1.6905936 2.8609414e-39
-1.5267197 1.9450986 -1.7142223 5.9008706e-39
-1.5218693 1.9733183 -1.7106764 5.4427694e-39
-1.5106144 2.0843318 -1.6834067 5.9022775e-39
-1.5281056 1.9354202 -1.7159111 3.7835059e-43
-1.5278885 1.9441525 -1.7126286 5.8075792e-39
-1.5276716 1.9528847 -1.7093462 6.4536941e-39
-1.5274546 1.961617 -1.7060637 5.9937753e-39
-1.5272375 1.9703492 -1.7027813 5.4427694e-39
-1.5110323 2.1029072 -1.6749271 5.2594249e-39
-1.5375879 1.9305419 -1.7018116 5.5331671e-39
-1.5326053 1.9673799 -1.6948861 5.4420603e-39
-1.5323884 1.9761121 -1.6916037 5.9008706e-39
-1.521742 2.0694273 -1.6706997 2.1215533e-39
-1.5215214 2.0782986 -1.667365 5.8111917e-39
-1.5213009 2.0871699 -1.6640302 5.2583697e-39
-1.5379735 1.9644105 -1.6869909 6.0863395e-39
-1.5377562 1.9731429 -1.6837083 5.534965e-39
-1.5267544 2.0841532 -1.6560091 5.4434728e-39
-1.5480249 1.933314 -1.6828867 6.5455212e-39
-1.5433414 1.9614415 -1.6790954 6.4540444e-39
-1.5431244 1.9701736 -1.675813 6.0863395e-39
-1.5328697 2.0545228 -1.6579925 0
-1.5322078 2.0811369 -1.6479882 5.7193492e-39
-1.5273076 2.1027274 -1.6473 3.6878252e-39
-1.5489265 1.9497398 -1.6744825 6.4536941e-39
-1.5487098 1.9584721 -1.6712003 6.54624e-39
-1.5484924 1.9672045 -1.6679176 5.7193464e-39
-1.5328068 2.0996857 -1.6392119 3.4137564e-39
-1.5538604 1.9642351 -1.6600225 6.4540444e-39
-1.5433356 2.0662324 -1.635281 6.9146652e-39
-1.543115 2.0751035 -1.6319464 5.8115449e-39
-1.538306 2.0966439 -1.6311235 3.5063108e-39
-1.5490093 2.0543447 -1.6305947 2.7644045e-39
-1.5485685 2.0720873 -1.6239254 6.1792554e-39
-1.2323812 2.1094282 -2.1464984 1.7549638e-39
-1.2358545 2.0624073 -2.1602511 5.9923656e-39
-1.2374903 2.0705638 -2.1540556 7.0050924e-39
-1.2423981 2.0950341 -2.1354685 4.8802545e-39
-1.2470403 2.1015627 -2.1248362 3.0828566e-44
-1.2486762 2.1097195 -2.1186407 1.3832254e-38
-1.2516826 2.1080916 -2.1142039 2.4140729e-39
-1.2534602 2.0531738 -2.1341457 5.3495143e-39
-1.2629298 2.0839126 -2.1051717 1.2903885e-39
-1.2645521 2.0920007 -2.0990281 2.9427268e-44
-1.2661742 2.1000891 -2.0928843 1.2177809e-38
-1.2707776 2.1065629 -2.0823414 1.4654086e-38
-1.2859989 2.2037859 -2.0157728 1.6598745e-39
-1.2836344 2.0944118 -2.0655391 5.9970151e-39
-1.3007374 2.1820064 -1.9997945 5.5208917e-40
-1.3048878 2.1796558 -1.9937139 1.2914535e-39
-1.3061582 2.2008834 -1.9826734 3.1364423e-39
-1.3090619 2.1772914 -1.9875978 2.2137741e-39
-1.3165193 2.1680803 -1.9787567 2.2137741e-39
-1.308834 2.062928 -2.0358133 3.3168791e-39
-1.315519 2.1263087 -1.9979281 4.7019771e-39
-1.4139489 2.0318294 -1.8699006 6.5484219e-39
-1.4125457 2.0417831 -1.8681264 6.456585e-39
-1.4211186 2.0006263 -1.8707461 5.2544306e-39
-1.419561 2.0378382 -1.8578354 6.4569409e-39
-1.4202049 2.0466299 -1.8530622 6.640972e-39
-1.4261253 1.9945315 -1.8647733 8.2977188e-40
-1.4288409 2.0020609 -1.8570021 8.113577e-39
-1.4245293 2.0350525 -1.8505435 6.6406175e-39
-1.4273636 2.0392449 -1.843966 6.640979e-39
-1.4279101 2.0514433 -1.8379341 6.8246444e-39
-1.4337804 1.9992737 -1.8497601 7.5618199e-39
-1.4373636 2.0095725 -1.839354 7.1015942e-39
-1.4450815 2.0143332 -1.8242259 6.9179247e-39
-1.4456984 2.0230775 -1.8195189 6.7331747e-39
-1.4532615 2.1142354 -1.7685227 1.2907248e-39
-1.4568501 1.9774255 -1.8196298 9.2845832e-40
-1.4597527 2.0734611 -1.7745256 6.7327949e-39
-1.4603572 2.0822599 -1.7698175 7.562571e-39
-1.4635617 1.9811589 -1.8066446 4.2432018e-39
-1.4647151 1.9897568 -1.8010859 9.8685477e-39
-1.4637926 2.0039263 -1.7967302 6.8271668e-39
-1.4649907 2.0213256 -1.7874138 7.0097545e-39
-1.4681909 2.0870152 -1.754495 8.1164538e-39
-1.4681131 1.9786441 -1.799949 8.3370392e-40
-1.4691449 1.9900463 -1.7934241 7.9302717e-39
-1.4697344 1.9987274 -1.7887905 7.2863428e-39
-1.4715729 2.0044382 -1.7832731 8.6721696e-39
-1.4722439 2.1071177 -1.7391889 1.1081356e-39
-1.4756212 1.9703286 -1.7906469 7.5389857e-43
-1.479615 1.9950335 -1.7735175 7.2867044e-39
-1.50544 2.0345912 -1.7130166 1.9197789e-40
-1.5053283 2.080282 -1.694098 0
-1.5069163 2.0157614 -1.7183788 7.9309906e-39
-1.5074736 2.0244513 -1.7137957 8.4845231e-39
-1.5103954 2.031805 -1.7057469 4.3367973e-39
-1.5109506 2.0404954 -1.7011679 3.2308323e-39
-1.5114429 2.0949874 -1.6775405 8.3001206e-39
-1.5124208 2.0216713 -1.7065377 8.2086649e-39
-1.5154573 2.0251462 -1.6999159 8.6688989e-39
-1.515907 2.0377071 -1.6938974 1.5691194e-39
-1.5164582 2.0463982 -1.6893246 8.6674724e-39
-1.5181396 2.0635219 -1.6793013 8.114279e-39
-1.517879 2.1139331 -1.6586618 7.1944947e-39
-1.5217807 2.0206392 -1.6910373 9.3135691e-39
-1.5223088 2.0295157 -1.686426 1.9379145e-39
-1.5231129 2.0607197 -1.6720082 9.7727354e-39
-1.5236567 2.0694418 -1.6674347 0
-1.5280592 2.0125513 -1.6837329 8.7607526e-39
-1.5275239 2.0266027 -1.6787682 4.7045079e-39
-1.5321598 2.0826948 -1.6474186 9.1280974e-39
-1.5342128 2.0228488 -1.6689525 6.8246248e-39
-1.5356206 2.0695264 -1.6470355 0
-1.5366768 2.0091982 -1.6704671 9.0380542e-39
-1.5389332 2.0123651 -1.6653019 1.1986168e-38
-1.5389893 2.0585093 -1.6459085 1.2261649e-38
-1.5401326 2.0670335 -1.6403975 0
-1.5412759 2.0755577 -1.6348866 7.3799692e-39
-1.5407188 2.0874169 -1.6308755 9.4050529e-39
-1.2711022 2.199316 -2.0429986 3.0442032e-39
-1.2708815 2.2081873 -2.0396638 2.3984891e-39
-1.2817886 2.2021544 -2.023622 2.1219246e-39
-1.2815681 2.2110257 -2.020287 1.1102922e-39
-1.3145097 2.1840551 -1.9754962 2.6722089e-39
-1.314289 2.1929264 -1.9721613 2.0283039e-39
-1.319963 2.1810386 -1.9674753 2.2144551e-39
-1.3254167 2.1780221 -1.9594542 2.3984891e-39
-1.3453757 2.0451071 -1.9810678 3.5048436e-39
-1.3451587 2.0538392 -1.9777853 2.0322471e-39
-1.3449414 2.0625715 -1.9745028 2.0322471e-39
-1.3308702 2.1750057 -1.9514333 2.7647549e-39
-1.3507437 2.0421379 -1.9731724 4.1473558e-39
-1.3505266 2.0508699 -1.96989 2.6736733e-39
-1.3503095 2.0596023 -1.9666075 2.5821839e-39
-1.3436255 2.0981247 -1.9618738 2.6743795e-39
-1.3434068 2.1069281 -1.9585646 2.0322471e-39
-1.3365439 2.1631179 -1.9467468 0
-1.3363236 2.1719892 -1.9434122 2.7647549e-39
-1.3626815 1.9931079 -1.9733573 2.8609414e-39
-1.3561118 2.0391686 -1.9652772 3.9636638e-39
-1.3558947 2.0479009 -1.9619948 2.8587736e-39
-1.3556776 2.056633 -1.9587122 2.1237365e-39
-1.3488184 2.1039348 -1.950605 1.848216e-39
-1.3614796 2.0361993 -1.9573818 4.608334e-39
-1.3612629 2.0449317 -1.9540995 3.1346514e-39
-1.3610456 2.0536637 -1.950817 2.6736733e-39
-1.3542303 2.1009412 -1.9426454 2.2162698e-39
-1.3540117 2.1097445 -1.9393363 1.6815582e-44
-1.3666308 2.0419624 -1.9462042 2.9516895e-39
-1.3664136 2.0506945 -1.9429219 2.8580645e-39
-1.359642 2.0979476 -1.9346859 2.4928553e-39
-1.3594233 2.1067512 -1.9313768 1.5414283e-44
-1.3786606 1.9842694 -1.9498558 3.1371681e-39
-1.3724331 2.0215285 -1.9448738 1.098618e-42
-1.3778008 2.0185592 -1.9369785 0
-1.3775837 2.0272915 -1.933696 4.608334e-39
-1.3773669 2.0360239 -1.9304137 2.768387e-39
-1.3704655 2.0919609 -1.9187667 2.5850509e-39
-1.3893132 1.9783771 -1.934188 3.6878252e-39
-1.3831691 2.0155902 -1.9290835 1.821688e-44
-1.3829519 2.0243223 -1.9258009 4.2406136e-39
-1.3827347 2.0330546 -1.9225185 2.9534873e-39
-1.3760964 2.080164 -1.9141165 2.6761914e-39
-1.3758773 2.0889676 -1.9108073 2.6772508e-39
-1.3946395 1.975431 -1.9263542 3.8718633e-39
-1.3885368 2.0126209 -1.921188 3.0828566e-44
-1.3883198 2.021353 -1.9179054 4.608334e-39
-1.388103 2.0300853 -1.9146233 2.9534873e-39
-1.3812891 2.085974 -1.9028476 2.861642e-39
-1.3680531 2.1819942 -1.8852202 2.4928553e-39
-1.3999658 1.9724848 -1.9185202 3.3215608e-39
-1.393905 2.0096517 -1.9132928 0
-1.393688 2.0183837 -1.9100103 4.1502159e-39
-1.3934709 2.0271161 -1.9067279 3.1375185e-39
-1.404207 2.0211775 -1.8909374 3.6878252e-39
-1.3957714 2.1578395 -1.8481418 3.136815e-39
-1.4010487 2.1637433 -1.836691 3.1350017e-39
-1.4065475 2.1607015 -1.8286028 3.1360807e-39
-1.4120468 2.1576598 -1.8205146 2.9534873e-39
-1.4177684 2.1456723 -1.8157891 3.2297155e-39
-1.4175459 2.154618 -1.8124264 3.5044933e-39
-1.4232675 2.1426306 -1.807701 3.413762e-39
-1.4230453 2.151576 -1.8043383 3.4123075e-39
-1.4287667 2.1395888 -1.7996126 3.4144655e-39
-1.4285443 2.1485343 -1.7962501 3.8729171e-39
-1.4340435 2.1454926 -1.7881618 3.8725668e-39
-1.4395427 2.1424508 -1.7800736 3.6892545e-39
-1.4450418 2.1394091 -1.7719854 4.056958e-39
-1.450541 2.1363671 -1.7638973 3.9672805e-39
-1.4744253 1.9651127 -1.7948637 0
-1.4685334 2.0116689 -1.785422 4.2435227e-39
-1.456485 2.1154342 -1.7625344 3.0417145e-39
-1.4562626 2.1243799 -1.7591717 3.9665771e-39
-1.4674834 2.1093507 -1.7463579 3.2261044e-39
-1.467261 2.1182961 -1.7429953 4.6122996e-39
-1.4789962 2.0580745 -1.748206 3.1371681e-39
-1.4727603 2.1152542 -1.7349073 4.7955853e-39
-1.4784818 2.1032667 -1.7301815 2.6743795e-39
-1.4947572 2.1030869 -1.7025543 4.7977503e-39
-1.4007618 2.005785 -1.9032389 9.4972387e-39
-1.4856296 2.0188689 -1.7533114 7.3785441e-39
-1.4967753 2.0002556 -1.7421244 8.0249897e-39
-1.5294405 2.0071809 -1.6836278 8.6685612e-39
-1.5332644 1.9700992 -1.6926274 1.0606848e-38
-1.534398 1.9785523 -1.6871622 1.032917e-38
-1.5423584 2.0474923 -1.6447817 1.1895422e-38
-1.4656304 2.1036906 -1.751879 3.5032462e-44
-1.5082279 2.0829141 -1.6880615 1.7524498e-39
-1.2705145 2.0887721 -2.0902295 9.4734783e-41
-1.2875172 2.0797169 -2.0650759 1.5669824e-39
-1.3162423 2.0556681 -2.0262394 4.4250371e-39
-1.3374261 2.1276329 -1.9600857 5.6051939e-45
-1.1867335 2.1341109 -2.2138739 1.8435623e-39
-1.2051675 2.1242988 -2.1866007 9.8329113e-41
-1.2180699 2.0715854 -2.1866844 5.7154228e-39
-1.5042225 1.9754239 -1.7398331 7.6547582e-39
-1.5238358 1.9675249 -1.7097524 9.4061221e-39
-1.5160458 1.9642513 -1.7243812 5.0714603e-39
-1.268351 2.2289064 -2.0353062 3.0431704e-39
-1.2709204 2.2364767 -2.0277669 2.4925092e-39
-1.2769653 2.2311809 -2.0196927 4.4250371e-39
-1.2841235 2.2315814 -2.0073407 2.582565e-39
-1.2896169 2.2141454 -2.0052819 5.0697031e-39
-1.2912529 2.222302 -1.9990863 4.4246868e-39
-1.2954329 2.2169206 -1.9942225 2.9538447e-39
-1.2987745 2.2240057 -1.985571 2.4921561e-39
-1.3054017 2.1924264 -1.9874979 1.0148596e-39
-1.3060565 2.2152185 -1.9768516 2.5843531e-39
-1.3156958 2.1711845 -1.9788592 4.6094284e-39
-1.3293638 2.1629174 -1.9590523 4.7045009e-39
-1.4426435 2.0392106 -1.8179718 8.8540399e-39
-1.4438168 2.0479562 -1.8123176 8.8529679e-39
-1.447258 2.0040345 -1.8248285 7.1012383e-39
-1.4507923 2.0628901 -1.7941985 9.7745346e-39
-1.453697 1.9957653 -1.8173268 8.2083019e-39
-1.4548601 2.0044372 -1.8117203 9.4993953e-39
-1.4560233 2.0131092 -1.8061137 9.0384339e-39
-1.461777 2.0192449 -1.7937543 9.1306296e-39
-1.4691586 2.0498047 -1.7684091 3.3212301e-39
-1.4697529 2.0585325 -1.7637478 3.6907273e-39
-1.4746995 2.0557766 -1.7564806 2.768743e-39
-1.4738177 1.9847275 -1.7876952 1.0236956e-38
-1.4831927 2.0655069 -1.737955 7.6551183e-39
-1.4986923 1.9731516 -1.7501968 8.2075677e-39
-1.4992304 1.9820086 -1.7455765 8.3926904e-39
-1.5047579 1.9842813 -1.7352173 8.3937708e-39
-1.5040734 1.9961026 -1.7314384 8.3004934e-39
-1.5120406 1.9438021 -1.7397505 8.8529287e-39
-1.5116426 1.9553722 -1.7355891 9.2446042e-40
-1.526199 1.9443617 -1.7154173 6.4551178e-39
-1.5345145 1.9425606 -1.7020162 1.0761972e-42
-1.2743443 2.2426505 -2.019357 1.2028466e-39
-1.3361032 2.1808603 -1.9400777 2.3981388e-39
-1.3428795 2.1246164 -1.9520648 5.6051939e-45
-1.3426589 2.1334877 -1.9487301 3.3183e-39
-1.3405571 2.1972032 -1.925661 1.4790733e-39
-1.4019858 2.1269193 -1.8504956 9.8090893e-45
-1.4017651 2.1357911 -1.8471607 2.6747298e-39
-1.4074394 2.123903 -1.8424745 4.2038954e-45
-1.4072188 2.1327744 -1.8391397 2.9495189e-39
-1.4069982 2.1416454 -1.8358051 2.9534873e-39
-1.4181256 2.1267414 -1.8230978 2.6743795e-39
-1.4179052 2.1356125 -1.8197631 3.3212077e-39
-1.4237998 2.1148534 -1.8184116 0
-1.4292531 2.1118367 -1.8103907 0
-1.4347066 2.1088204 -1.8023697 0
-1.4344862 2.1176918 -1.799035 2.9502251e-39
-1.4403807 2.0969324 -1.7976836 4.2442262e-39
-1.4399396 2.114675 -1.791014 2.8573232e-39
-1.439719 2.1235466 -1.7876792 3.7818341e-39
-1.4453932 2.1116586 -1.7829931 2.5821839e-39
-1.4451727 2.1205299 -1.7796583 3.5066611e-39
-1.4508466 2.1086421 -1.774972 2.5825314e-39
-1.4506264 2.1175132 -1.7716374 3.6928671e-39
-1.4565206 2.0967543 -1.770286 0
-1.4560796 2.1144969 -1.7636164 3.5988568e-39
-1.4619743 2.0937376 -1.7622648 0
-1.4676483 2.0818498 -1.7575787 4.7973999e-39
-1.4674275 2.0907211 -1.754244 0
-1.4843313 2.0202954 -1.7549251 4.4275538e-39
-1.4841121 2.0290987 -1.7516158 4.6133534e-39
-1.4838935 2.0379021 -1.7483066 3.6251591e-42
-1.4785552 2.0758169 -1.7415369 4.6119465e-39
-1.4783347 2.0846882 -1.7382021 0
-1.4897431 2.017302 -1.7469653 4.6122996e-39
-1.489524 2.0261054 -1.743656 4.890299e-39
-1.4893051 2.0349085 -1.7403468 1.1294466e-42
-1.4890866 2.0437119 -1.7370378 3.3215608e-39
-1.4837881 2.0816717 -1.7301811 0
-1.4951549 2.0143085 -1.7390058 4.6122996e-39
-1.494936 2.0231118 -1.7356966 5.3484003e-39
-1.494717 2.0319152 -1.7323874 7.6931286e-43
-1.4944984 2.0407186 -1.7290783 3.3215608e-39
-1.4894621 2.0697839 -1.7254947 5.6239334e-39
-1.4892417 2.078655 -1.7221601 0
-1.5007852 2.0025117 -1.7343553 4.7966909e-39
-1.5001287 2.0289218 -1.7244278 1.8104776e-42
-1.49991 2.037725 -1.7211187 3.2293652e-39
-1.4996912 2.0465283 -1.7178096 5.4406015e-39
-1.4994721 2.0553317 -1.7145003 5.808675e-39
-1.4992535 2.0641351 -1.7111911 0
-1.4944745 2.0845101 -1.7108045 2.5814776e-39
-1.5057594 2.0171249 -1.7197776 5.7175584e-39
-1.5055404 2.0259283 -1.7164682 3.2285917e-42
-1.5053215 2.0347319 -1.7131591 3.3219111e-39
-1.5051028 2.0435348 -1.70985 5.073977e-39
-1.5048839 2.0523384 -1.7065407 5.4427694e-39
-1.4999279 2.0814934 -1.7027833 2.489282e-39
-1.5105145 2.0405416 -1.7018903 5.5346147e-39
-1.5102956 2.0493448 -1.6985811 5.9927159e-39
-1.5053813 2.0784769 -1.6947623 2.5814776e-39
-1.5159266 2.0375481 -1.6939307 5.350215e-39
-1.5267497 2.0315611 -1.6780115 6.2707448e-39
-1.5330368 1.9933544 -1.6832887 5.8108428e-39
-1.5321615 2.0285676 -1.6700521 5.8115449e-39
-1.5315051 2.0549781 -1.6601245 2.2144551e-39
-1.5312865 2.0637813 -1.6568153 6.3618488e-39
-1.538011 2.0079677 -1.6687109 2.8018262e-40
-1.537792 2.0167711 -1.6654016 3.5066611e-39
-1.5373546 2.0343776 -1.6587834 6.6387888e-39
-1.536698 2.0607877 -1.6488558 6.5465932e-39
-1.5423287 2.048991 -1.6442053 2.3981388e-39
-1.5490534 1.9931774 -1.6561009 7.0068623e-39
-1.5486156 2.0107841 -1.6494824 3.5988568e-39
-1.5483969 2.0195875 -1.6461734 6.3643529e-39
-1.5481782 2.0283909 -1.6428642 7.0068623e-39
-1.5479593 2.037194 -1.639555 0
-1.5477405 2.0459976 -1.6362457 2.6729152e-39
-1.5533708 2.0342009 -1.6315954 0
-1.2991871 2.1987784 -1.9954194 2.6711551e-39
-1.4449897 2.0567021 -1.8066634 9.3139418e-39
-1.4483656 2.0858645 -1.7887213 7.3785385e-39
-1.4489839 2.0946846 -1.7839801 7.4718061e-39
-1.4507483 2.0167825 -1.8135562 7.0094e-39
-1.4513611 2.025528 -1.8088559 6.9179247e-39
-1.4541578 2.0330191 -1.8009624 6.7338879e-39
-1.4547676 2.0417652 -1.7962668 6.9179134e-39
-1.4519655 2.0716357 -1.7885442 3.7272577e-40
-1.4531386 2.0803819 -1.7828898 9.6841565e-39
-1.4543115 2.0891278 -1.7772354 9.5916021e-39
-1.4571865 2.0217812 -1.8005072 8.8536896e-39
-1.4657377 2.0335948 -1.7810113 7.10159e-39
-1.4663347 2.0423217 -1.7763454 7.5632786e-39
-1.4701802 2.0184813 -1.7797709 7.2863456e-39
-1.4706792 2.0308478 -1.7737492 7.1023145e-39
-1.4712716 2.0395751 -1.7690907 7.3792419e-39
-1.4742035 2.0433948 -1.7625029 7.470004e-39
-1.4747273 1.9923903 -1.7829423 7.6544065e-39
-1.4756258 2.0280974 -1.7664798 7.1945073e-39
-1.4894595 1.9895177 -1.7590675 7.3792601e-39
-1.4944856 1.9830303 -1.7532253 7.7484e-39
-1.4950539 1.9916894 -1.748637 7.7466035e-39
-1.4956223 2.0003486 -1.7440479 7.7462448e-39
-1.4970291 2.0213139 -1.7328852 7.746249e-39
-1.5014082 2.0098503 -1.7302256 7.5632899e-39
-1.5019699 2.0185394 -1.7256359 7.838439e-39
-1.5091577 2.0000689 -1.7211261 7.7480356e-39
-1.5147214 2.0021362 -1.7107919 7.6547722e-39
-1.5173174 1.9400083 -1.732355 9.8663827e-39
-1.5175546 1.9736655 -1.717876 8.3919687e-39
-1.5330877 1.96112 -1.696683 8.4845273e-39
-1.5267072 1.9711281 -1.7033579 7.9317038e-39
-1.5322245 1.9680468 -1.6952555 8.3905324e-39
-1.5377412 1.9649655 -1.6871538 8.3001374e-39
-1.318338 2.2183161 -1.9546511 1.3868777e-39
-1.358358 2.1510515 -1.9146634 0
-1.3638115 2.1480353 -1.9066422 0
-1.3694853 2.1361473 -1.9019558 2.2162698e-39
-1.369265 2.1450186 -1.8986213 2.8025969e-45
-1.3753798 2.1153884 -1.9006042 3.5952414e-39
-1.3751594 2.1242595 -1.8972697 3.2275477e-39
-1.3749391 2.1331308 -1.8939351 2.4921491e-39
-1.3747184 2.1420019 -1.8906002 0
-1.3806131 2.1212432 -1.8892488 2.7690961e-39
-1.3803924 2.1301143 -1.8859141 2.4928553e-39
-1.3801719 2.1389856 -1.8825793 0
-1.3860664 2.1182265 -1.8812279 3.1371681e-39
-1.385846 2.1270978 -1.8778931 2.5850509e-39
-1.3915198 2.1152101 -1.8732067 2.9534873e-39
-1.3912994 2.1240811 -1.8698721 2.5850509e-39
-1.3910788 2.1329527 -1.8665373 0
-1.3969731 2.1121936 -1.8651857 3.3215608e-39
-1.3967528 2.1210647 -1.8618512 2.9527839e-39
-1.3965321 2.129936 -1.8585165 0
-1.4024267 2.1091769 -1.8571649 3.4123075e-39
-1.4022064 2.1180482 -1.8538303 3.136815e-39
-1.4078805 2.1061604 -1.849144 3.9644121e-39
-1.413334 2.1031439 -1.8411231 3.7807215e-39
-1.4187874 2.1001275 -1.8331021 3.8725668e-39
-1.4460548 2.0850449 -1.7929972 4.701624e-39
-1.4678688 2.0729787 -1.7609134 4.5208032e-39
-1.4797947 1.9880754 -1.7761211 4.7956021e-39
-1.48455 2.011492 -1.7582341 4.5204543e-39
-1.4910316 1.9591222 -1.7691033 8.7603939e-39
-1.4903147 1.983236 -1.7602391 8.7611128e-39
-1.5165617 1.9525926 -1.7283782 2.8124621e-40
-1.5339875 1.9339793 -1.7065018 9.3139138e-39
-1.5400178 1.93919 -1.6940585 6.4936171e-42
-1.2467752 2.0836215 -2.1327913 9.309595e-39
-1.2092495 2.0945077 -2.1921115 4.7037918e-39
-1.2213689 2.0880361 -2.1741889 5.9923656e-39
-1.2230185 2.096261 -2.1679411 5.440631e-39
-1.2307316 2.101203 -2.1527462 6.1785463e-39
-1.240497 2.0689359 -2.1496191 5.7182927e-39
-1.2435032 2.0673079 -2.1451826 5.1647672e-39
-1.2451392 2.0754647 -2.1389871 7.928827e-39
-1.2484107 2.091778 -2.1265955 4.6119465e-39
-1.2580634 2.0596476 -2.1236029 5.3469934e-39
-1.2596856 2.0677359 -2.1174593 5.0704065e-39
-1.2610447 2.0580332 -2.1192036 4.5194005e-39
-1.2626669 2.0661216 -2.1130598 4.7941784e-39
-1.2642889 2.0742099 -2.1069162 3.7825376e-39
-1.2751671 2.0508292 -2.0981784 5.8079716e-39
-1.2797329 2.0572505 -2.0877211 5.3469934e-39
-1.281342 2.065273 -2.0816274 4.978564e-39
-1.4106406 1.9973973 -1.8899314 1.2932471e-39
-1.4165876 1.9636 -1.8939435 6.8250046e-39
-1.4556408 1.9600791 -1.8289427 7.1023117e-39
-1.4646535 1.95285 -1.8166255 9.2228252e-39
-1.4658066 1.9614481 -1.8110667 9.4068437e-39
-1.4729828 1.9529986 -1.8023859 7.655124e-39
-1.4750378 1.9616724 -1.7952601 8.0235519e-39
-1.4845358 1.9296405 -1.7924895 7.6551296e-39
-1.5356128 1.9167193 -1.7109534 9.6837879e-39
-1.5361096 1.9256983 -1.7063532 9.7745346e-39
-1.5411094 1.9136686 -1.7028736 1.0142608e-38
-1.5416061 1.9226475 -1.6982733 1.0512104e-38
-1.2979047 2.0631194 -2.0543363 2.8573232e-39
-1.3034463 2.0515089 -2.0497594 2.7658689e-40
-1.303231 2.0601735 -2.0465024 3.2261044e-39
-1.3151102 2.0284007 -2.0395701 1.571269e-39
-1.3148967 2.0369971 -2.0363388 2.7658689e-40
-1.3085574 2.0572271 -2.0386686 2.8591211e-39
-1.3203949 2.0254774 -2.0317976 1.6634646e-39
-1.3201811 2.0340738 -2.0285661 4.6097815e-40
-1.3254657 2.0311508 -2.0207937 1.8404094e-40
-1.3250384 2.0483437 -2.0143309 1.5709214e-39
-1.330964 2.0196314 -2.0162525 1.7556616e-39
-1.3307505 2.0282276 -2.013021 2.7623797e-40
-1.3305367 2.0368242 -2.0097897 3.3204524e-39
-1.3303231 2.0454204 -2.0065584 1.7556616e-39
-1.3362485 2.0167081 -2.0084801 2.4903358e-39
-1.3360349 2.0253046 -2.0052488 3.6734198e-40
-1.3358212 2.033901 -2.0020173 3.3204524e-39
-1.3415332 2.0137851 -2.0007076 2.0318786e-39
-1.3413193 2.0223815 -1.9974761 2.7623797e-40
-1.3411058 2.030978 -1.9942448 3.7800208e-39
-1.3408918 2.0395744 -1.9910133 1.848216e-39
-1.3468176 2.0108619 -1.9929352 2.1240742e-39
-1.346604 2.0194585 -1.9897037 1.460153e-42
-1.3463902 2.028055 -1.9864722 3.412648e-39
-1.3461766 2.0366514 -1.9832408 2.0322471e-39
-1.3521023 2.0079389 -1.9851626 2.0322471e-39
-1.3518887 2.0165353 -1.9819311 0
-1.3458412 2.0366042 -1.9838312 3.6888748e-39
-1.3515985 2.0163291 -1.9825113 2.0322471e-39
-1.3511778 2.0246735 -1.9797372 2.3081151e-39
-1.3567094 2.0220473 -1.9714206 1.098618e-42
-1.3567629 2.0129719 -1.9751245 2.6765417e-39
-1.3565459 2.021704 -1.9718421 2.3081151e-39
-1.3675772 2.0074909 -1.9590096 2.5850509e-39
-1.367716 1.9983009 -1.9626164 2.9534873e-39
-1.367499 2.0070333 -1.959334 3.0424558e-39
-1.3729033 2.0045445 -1.9511758 2.6772508e-39
-1.3724726 2.0218732 -1.9446619 4.1484152e-39
-1.3784451 1.9929339 -1.9465988 2.9534873e-39
-1.3726499 2.0127964 -1.9481562 2.861642e-39
-1.377799 2.0189271 -1.9368281 3.8732674e-39
-1.3837717 1.9899879 -1.938765 2.9534873e-39
-1.3780178 2.0098271 -1.9402609 2.9538377e-39
-1.3890978 1.9870416 -1.9309311 3.1375185e-39
-1.383386 2.0068579 -1.9323658 2.9538377e-39
-1.3944238 1.9840955 -1.9230971 3.1375185e-39
-1.3942088 1.9927598 -1.9198403 3.1378688e-39
-1.3997505 1.9811492 -1.9152633 3.1375185e-39
-1.3995351 1.9898137 -1.9120064 3.1378688e-39
-1.4050764 1.9782032 -1.9074293 3.3219111e-39
-1.4044305 2.0041962 -1.8976587 4.426444e-39
-1.4104029 1.9752569 -1.8995956 3.4144655e-39
-1.4101876 1.9839213 -1.8963386 3.4148158e-39
-1.4099721 1.9925857 -1.8930817 3.0828566e-44
-1.4097568 2.00125 -1.8898247 4.609036e-39
-1.431062 1.9894654 -1.8584893 4.7934287e-39
-1.436819 1.9691905 -1.8571693 3.5992071e-39
-1.4366037 1.9778548 -1.8539122 2.9427268e-44
-1.4421452 1.9662442 -1.8493354 3.7832382e-39
-1.4419297 1.9749086 -1.8460784 3.9376487e-43
-1.4472561 1.9719625 -1.8382444 0
-1.4470408 1.9806268 -1.8349876 4.7022924e-39
-1.4530132 1.9516877 -1.8369246 3.9672805e-39
-1.452798 1.9603519 -1.8336676 4.0601852e-39
-1.4525825 1.9690163 -1.8304107 4.4841551e-44
-1.4576936 1.9747344 -1.8193197 4.9781787e-39
-1.4630195 1.9717883 -1.8114858 4.7962859e-39
-1.4689921 1.942849 -1.8134228 4.2442262e-39
-1.4687768 1.9515134 -1.8101659 4.2449296e-39
-1.4685613 1.9601778 -1.806909 4.6242849e-44
-1.4743184 1.939903 -1.8055891 4.4282573e-39
-1.4741027 1.9485674 -1.8023319 4.2449296e-39
-1.4738877 1.9572316 -1.7990752 4.6242849e-44
-1.516498 1.9336623 -1.7364041 0
-1.5275815 1.9104412 -1.7272502 5.534965e-39
-1.5269352 1.9364343 -1.7174792 5.901221e-39
-1.5336908 1.9237188 -1.7112983 6.3636495e-39
-1.2244009 2.0863943 -2.1697152 9.4936261e-39
-1.2391264 2.0787206 -2.1478598 7.7451742e-39
-1.2407622 2.0868773 -2.141664 7.1930612e-39
-1.242133 2.0770926 -2.1434233 7.1026634e-39
-1.2437683 2.0852494 -2.1372275 7.6518645e-39
-1.2454044 2.093406 -2.131032 4.6086829e-39
-1.2550821 2.0612621 -2.1280022 6.084564e-39
-1.2567046 2.0693505 -2.1218581 5.2569656e-39
-1.2613076 2.075824 -2.1113155 4.9782109e-39
-1.3993502 2.0003772 -1.9079031 7.0082958e-39
-1.4115869 1.9696422 -1.8999281 6.917203e-39
-1.4122339 1.9783593 -1.8951815 6.8250032e-39
-1.4128813 1.9870765 -1.8904335 6.9186295e-39
-1.4171462 1.9756237 -1.8879644 6.8250088e-39
-1.4177891 1.9843407 -1.883224 6.7331564e-39
-1.4204786 1.9919084 -1.8754817 4.9800059e-39
-1.4259449 1.9639192 -1.8778826 7.2859757e-39
-1.4282609 1.9697864 -1.8714871 6.7335222e-39
-1.4254898 1.9858125 -1.8695014 7.1937689e-39
-1.4295193 1.9625505 -1.872371 8.945867e-39
-1.4331551 1.967059 -1.8642974 6.9172002e-39
-1.4374329 1.9556578 -1.8617837 7.0097531e-39
-1.4380535 1.9643291 -1.857101 7.1015858e-39
-1.4429569 1.9615965 -1.8498977 7.2849037e-39
-1.4435735 1.9702678 -1.8452214 7.2863372e-39
-1.450714 1.9628534 -1.8361683 7.1934241e-39
-1.4513228 1.9715266 -1.8315049 7.378886e-39
-1.456068 1.9455826 -1.834278 7.1945045e-39
-1.4562453 1.968752 -1.8242866 7.3796203e-39
-1.4624084 1.9725608 -1.8122033 7.1019123e-39
-1.4744303 1.9385302 -1.8059723 9.3150222e-39
-1.5122889 1.9198906 -1.749328 7.9320696e-39
-1.5108856 1.9330093 -1.7462302 8.3004976e-39
-1.5274528 1.9085112 -1.7282758 8.6692759e-39
-1.5330216 1.9029883 -1.7211074 9.8678275e-39
-1.5351164 1.9077405 -1.7155539 9.4972387e-39
-1.5406129 1.9046898 -1.7074739 9.6816327e-39
-1.2932246 2.0400727 -2.0719409 1.6634646e-39
-1.2930092 2.048737 -2.0686841 1.3868777e-39
-1.2983354 2.0457909 -2.0608501 1.4790733e-39
-1.3036621 2.0428445 -2.0530162 1.4790733e-39
-1.3196408 2.0340061 -2.0295146 2.0311877e-39
-1.3518138 2.0076649 -1.9857682 2.5843461e-39
-1.3571399 2.0047188 -1.9779344 2.5843461e-39
-1.3563288 2.0304363 -1.9685597 7.1746481e-43
-1.3677926 1.9988264 -1.9622666 3.1346514e-39
-1.367065 2.0244977 -1.9527692 7.1746481e-43
-1.4746424 1.9563805 -1.7981461 4.5226207e-39
-1.5072848 1.9211004 -1.7573396 5.6242823e-39
-1.5068507 1.938565 -1.7507747 6.0863395e-39
-1.5339079 1.9149865 -1.7145808 6.1785463e-39
-1.4387003 1.9574782 -1.8588653 8.9455167e-39
-1.4494078 1.9485576 -1.8443705 8.3008605e-39
-1.477123 1.9515324 -1.7959517 7.4710942e-39
-1.4878235 1.9291348 -1.7871048 7.3778098e-39
-1.2656481 2.0645072 -2.1086607 5.2547978e-39
-1.2781241 2.049228 -2.0938151 5.0729232e-39
-1.2966281 2.0483267 -2.0626962 5.7157759e-39
-1.3146592 2.0477736 -2.0322359 5.2547978e-39
-1.5147351 1.9100494 -1.7492801 8.5770803e-39
-1.5006347 1.9189178 -1.7695717 7.3785315e-39
-1.4306436 1.953667 -1.8741727 8.1161077e-39
-1.4730638 1.9326766 -1.8107464 7.7473238e-39
-1.5061909 1.9146589 -1.7618952 8.2090222e-39
-1.5198791 1.9071887 -1.7417207 8.8529455e-39
-1.5408754 1.9163817 -1.7021379 8.5767229e-39
-1.5413927 1.9249235 -1.6976845 9.4061179e-39
-1.513024 1.9341639 -1.7421076 8.5767173e-39
-1.5334609 1.925398 -1.7109871 8.3937736e-39
-1.2719493 2.0347838 -2.1103659 5.16477e-39
-1.2859747 2.027632 -2.0894837 4.7963462e-39
-1.2996842 2.0199766 -2.0693505 2.1237365e-39
-1.3047547 2.0256503 -2.0583465 1.7556616e-39
-1.3100394 2.022727 -2.0505741 1.7556616e-39
-1.3153238 2.019804 -2.0428016 1.6634646e-39
-1.3206085 2.0168808 -2.0350289 2.2141076e-39
-1.3261067 2.0053613 -2.030488 2.1237365e-39
-1.325893 2.013958 -2.0272563 1.7556616e-39
-1.3311776 2.0110347 -2.019484 1.7556616e-39
-1.336462 2.0081117 -2.0117116 2.0322471e-39
-1.3417466 2.0051887 -2.0039392 2.0322471e-39
-1.3470312 2.0022655 -1.9961665 2.4921491e-39
-1.352316 1.9993424 -1.988394 2.5843461e-39
-1.4372498 1.9518616 -1.8636831 3.8750849e-39
-1.4802138 1.8862063 -1.8180109 6.6369909e-39
-1.3520293 1.9990002 -1.9890252 2.7690961e-39
-1.4915897 1.8790784 -1.8016288 8.0220736e-39
-1.4825438 1.9007435 -1.8079648 8.0235463e-39
-1.5321282 1.8946031 -1.7261344 8.853677e-39
-1.4761617 1.8952549 -1.8211231 8.021698e-39
-1.2485937 2.0289092 -2.1525767 1.124822e-38
-1.2548192 2.0434713 -2.13589 6.1756653e-39
-1.2689921 2.0363851 -2.1147296 5.0729232e-39
-1.2889075 2.0260439 -2.0851562 4.7963462e-39
-1.2956309 2.0145235 -2.0785298 3.3215692e-39
-1.4077649 1.9645414 -1.9085673 8.761124e-39
-1.4132597 1.9473214 -1.9064157 6.5487848e-39
-1.427673 1.9427201 -1.8838073 7.1941416e-39
-1.4270532 1.9540967 -1.8801038 7.1015928e-39
-1.43555 1.9233069 -1.8785182 7.4710816e-39
-1.4521133 1.9209023 -1.8513306 7.100867e-39
-1.4649991 1.9109305 -1.8335682 7.1019586e-39
-1.4655033 1.922973 -1.8276738 7.1945073e-39
-1.466096 1.9315281 -1.8230873 7.1941514e-39
-1.4704378 1.9167643 -1.821871 7.1948591e-39
-1.4770058 1.8984932 -1.8183323 1.0603215e-38
-1.4775846 1.907077 -1.8137577 7.5607703e-39
-1.485365 1.9080571 -1.8001046 7.6544093e-39
-1.5348543 1.8810207 -1.7271743 9.6830859e-39
-1.5387143 1.8882045 -1.7176001 8.9462257e-39
-1.3112998 1.9891249 -2.0624816 1.7553141e-39
-1.3049686 2.0170534 -2.0615778 2.1244427e-39
-1.3049539 1.9908586 -2.0725579 5.3523716e-39
-1.3165445 1.9862238 -2.0547674 2.5821839e-39
-1.3104669 2.0055342 -2.0570369 1.7556616e-39
-1.3102529 2.0141306 -2.0538056 2.1244427e-39
-1.3155376 2.0112076 -2.0460329 2.1237365e-39
-1.3210361 1.9996879 -2.041492 1.7556616e-39
-1.3266101 1.997485 -2.0329251 2.0322471e-39
-1.3267478 1.9795721 -2.0401821 1.4794209e-39
-1.3263206 1.9967648 -2.0337193 1.8475097e-39
-1.3320327 1.9766489 -2.0324094 1.571269e-39
-1.3313913 2.0024381 -2.0227156 2.4921491e-39
-1.337317 1.9737259 -2.0246372 1.6641708e-39
-1.336676 1.9995151 -2.0149429 2.4921491e-39
-1.3421739 1.9879956 -2.010402 2.0315409e-39
-1.3419607 1.996592 -2.0071704 2.768387e-39
-1.3474585 1.9850725 -2.0026295 2.3081151e-39
-1.3472451 1.993669 -1.999398 2.6765417e-39
-1.3527433 1.9821495 -1.9948567 2.4917987e-39
-1.3525296 1.9907459 -1.9916254 2.6761914e-39
-1.3526753 1.9730073 -1.9987961 3.0424558e-39
-1.3580017 1.9700613 -1.9909621 3.0424558e-39
-1.3633281 1.967115 -1.9831282 3.1346514e-39
-1.3686543 1.9641689 -1.9752942 3.1346514e-39
-1.3740952 1.9618605 -1.9669981 2.7690961e-39
-1.3793799 1.9589375 -1.9592258 2.8609414e-39
-1.3846642 1.9560144 -1.9514532 2.8609414e-39
-1.389949 1.9530914 -1.9436809 2.8609414e-39
-1.3897351 1.9616878 -1.9404494 2.8609414e-39
-1.3952335 1.9501684 -1.9359083 3.1371681e-39
-1.3950197 1.9587647 -1.9326767 3.2297155e-39
-1.3952855 1.9494381 -1.9361248 3.1371681e-39
-1.4003043 1.9558417 -1.9249043 3.4123075e-39
-1.4058026 1.9443222 -1.9203633 3.2293652e-39
-1.4110869 1.9413991 -1.9125907 3.3215608e-39
-1.4168062 1.9289891 -1.9080464 5.901221e-39
-1.4221325 1.9260429 -1.9002124 6.085971e-39
-1.4324389 1.9211104 -1.884732 3.5985064e-39
-1.4427946 1.9238605 -1.8659557 3.8747346e-39
-1.4425807 1.932457 -1.8627242 3.7825376e-39
-1.4482929 1.9123411 -1.8614146 3.8747346e-39
-1.4480792 1.9209374 -1.8581833 3.9672805e-39
-1.4478654 1.929534 -1.8549517 3.9669302e-39
-1.4535773 1.9094181 -1.8536421 3.5992071e-39
-1.4533637 1.9180144 -1.8504108 3.9672805e-39
-1.4531499 1.9266108 -1.8471793 3.8747346e-39
-1.4529362 1.9352072 -1.843948 4.0598349e-39
-1.4584343 1.9236878 -1.8394067 4.0598349e-39
-1.4582206 1.9322842 -1.8361754 4.0598349e-39
-1.4641464 1.903572 -1.8380971 3.9665771e-39
-1.4639326 1.9121683 -1.8348658 4.0591258e-39
-1.463719 1.9207647 -1.8316344 4.0591258e-39
-1.4694229 1.9255203 -1.8199368 4.4282573e-39
-1.4692076 1.9341847 -1.8166798 4.4282573e-39
-1.4797864 1.903399 -1.8115484 4.5204543e-39
-1.4802907 1.9109635 -1.8075258 4.520104e-39
-1.4808787 1.9184822 -1.8033808 4.5204543e-39
-1.4969828 1.9095744 -1.779695 5.4395422e-39
-1.5069224 1.8962327 -1.7683564 5.3484157e-39
-1.5220628 1.8800143 -1.7493683 5.7175584e-39
-1.5218492 1.8886108 -1.7461369 5.4427694e-39
-1.5273472 1.8770913 -1.7415957 5.9930663e-39
-1.5224705 1.9047229 -1.738341 5.4427694e-39
-1.5277967 1.9017768 -1.730507 5.4427694e-39
-1.5390953 1.8698916 -1.72461 6.4540444e-39
-1.5386648 1.8872201 -1.7180963 6.4540444e-39
-1.5384493 1.8958845 -1.7148393 5.9927159e-39
-1.5444218 1.8669454 -1.7167761 6.5462428e-39
-1.5437754 1.8929383 -1.7070054 6.2693028e-39
-1.549317 1.8813279 -1.7024283 6.3636495e-39
-1.229576 2.0477219 -2.1770792 6.6330239e-39
-1.2456126 2.0305235 -2.1569757 1.106346e-38
-1.2628171 2.0219412 -2.1312809 4.8895956e-39
-1.283042 2.0292203 -2.0938118 4.8888921e-39
-1.4222578 1.9460709 -1.8916227 6.7335278e-39
-1.4249371 1.953599 -1.8839144 6.7331677e-39
-1.4305658 1.9294176 -1.8844458 6.640249e-39
-1.4644074 1.9023738 -1.8381534 7.8387865e-39
-1.467276 1.9039018 -1.8326317 8.483793e-39
-1.4712265 1.9284264 -1.8156517 7.286703e-39
-1.4747059 1.9054821 -1.819324 7.2852596e-39
-1.5280654 1.8752373 -1.7411487 8.2994172e-39
-1.5279708 1.8851891 -1.7371482 8.9447824e-39
-1.5267183 1.8943416 -1.7354522 8.4841658e-39
-1.5332825 1.8806866 -1.7299895 1.032882e-38
-1.3005389 1.9855909 -2.0822761 5.5356684e-39
-1.3058233 1.9826678 -2.0745034 4.9850128e-39
-1.3108943 1.9883412 -2.0634995 1.1102922e-39
-1.3161789 1.9854182 -2.055727 1.3868777e-39
-1.3214635 1.9824952 -2.0479546 1.2031941e-39
-1.3322461 1.9680525 -2.035641 5.8111917e-39
-1.3375307 1.9651294 -2.0278685 5.8108428e-39
-1.3524598 1.9816716 -1.9955388 2.5839958e-39
-1.3522444 1.9903359 -1.992282 2.5839958e-39
-1.3577861 1.9787256 -1.9877051 2.5839958e-39
-1.3575708 1.9873898 -1.9844483 2.5839958e-39
-1.3631123 1.9757793 -1.9798713 2.768387e-39
-1.362897 1.9844437 -1.9766142 2.5839958e-39
-1.3682233 1.9814974 -1.9687804 2.6761914e-39
-1.3735497 1.9785514 -1.9609467 2.8609414e-39
-1.378876 1.9756051 -1.9531127 2.8612917e-39
-1.3950702 1.9581022 -1.932868 3.2297155e-39
-1.4001813 1.9638205 -1.9217772 3.4144655e-39
-1.4059379 1.9435458 -1.9204571 3.3212077e-39
-1.4055074 1.9608743 -1.9139434 3.3219111e-39
-1.4108335 1.9579282 -1.9061095 3.4144655e-39
-1.4161599 1.9549819 -1.8982756 3.4144655e-39
-1.4434376 1.9142582 -1.8688771 5.7193492e-39
-1.448764 1.911312 -1.861043 5.7189961e-39
-1.4536593 1.9256945 -1.8466954 4.0591258e-39
-1.4594165 1.9054197 -1.8453752 6.3625522e-39
-1.4913741 1.8877428 -1.7983719 5.7189961e-39
-1.4967004 1.8847966 -1.7905381 6.2700021e-39
-1.4964851 1.893461 -1.7872812 5.3484157e-39
-1.5177901 1.8816762 -1.7559456 5.4427694e-39
-1.4123944 1.9619836 -1.9017565 8.761124e-39
-1.4181727 1.9445668 -1.8992054 6.3643823e-39
-1.4888506 1.9183034 -1.7898862 7.8387963e-39
-1.5301094 1.8781778 -1.7364402 1.1340435e-38
-1.5081531 1.8861716 -1.7704694 6.0849172e-39
-1.5296252 1.8742945 -1.7388881 5.9952341e-39
-1.5349932 1.8713254 -1.7309929 6.1785463e-39
