# .PCD v0.7 - Point Cloud Data file format
VERSION 0.7
FIELDS x y z rgb
SIZE 4 4 4 4
TYPE F F F F
COUNT 1 1 1 1
WIDTH 1092
HEIGHT 1
VIEWPOINT 0 0 0 1 0 0 0
POINTS 1092
DATA ascii
2.0389891 1.0213647 1.292731 1.0877614e-38
1.8305545 1.0553627 1.2319949 1.0693617e-38
1.8397367 1.0566115 1.2290919 1.1614131e-38
2.0580897 1.0401722 1.2537696 1.3183975e-38
1.8494018 1.0708011 1.1998861 1.11528e-38
2.0483844 1.0580194 1.217908 1.2259848e-38
2.050005 1.0615313 1.2107103 1.2168378e-38
2.0470369 1.0615792 1.2107314 1.1888552e-38
2.0440693 1.0616271 1.2107525 1.1429715e-38
2.0516253 1.0650432 1.2035127 1.2630073e-38
2.0486574 1.065091 1.2035339 1.1800672e-38
2.0064859 0.98165607 1.3746792 1.7330633e-38
2.0340097 0.97792035 1.3811686 1.7606134e-38
2.010921 0.98498201 1.3677469 1.4196695e-38
2.0377212 0.98130322 1.3741496 1.7977083e-38
2.0364647 0.9820388 1.3727058 1.7606851e-38
2.0716114 1.0471908 1.2389746 1.5394875e-38
2.0985482 1.0437834 1.2448207 1.742283e-38
2.0913749 1.0461955 1.2402079 1.7330636e-38
2.0966537 1.048539 1.2352374 1.6593069e-38
2.019249 0.95254982 1.433287 1.8069278e-38
2.0453267 0.97038496 1.3960221 1.769941e-38
1.994902 0.95193642 1.4355043 1.7239153e-38
1.9776908 0.9555943 1.4287615 1.7330633e-38
2.040328 1.0178275 1.299862 1.1061292e-38
2.0588911 1.0224689 1.2896944 1.2445691e-38
2.0291967 1.0751659 1.1838477 1.4468952e-38
2.0243435 1.0824015 1.1693451 1.3366574e-38
1.9947494 1.0647219 1.2064342 1.4006513e-38
2.0260668 1.0718206 1.1907669 1.317747e-38
2.0301597 1.0601783 1.2142502 1.115061e-38
2.0456898 1.0651391 1.2035549 1.1887456e-38
2.0304308 1.067205 1.1999675 1.087762e-38
2.0473101 1.068651 1.1963573 1.2075807e-38
1.9328979 0.98655421 1.3676667 1.382574e-38
1.9757023 0.98231775 1.3745636 1.5114318e-38
1.9823442 0.98465002 1.3695614 1.5298717e-38
1.8890909 0.97603047 1.3907892 1.6870028e-38
2.0362403 1.0511392 1.2323666 9.678711e-39
1.9170588 0.99338591 1.354423 1.5117233e-38
1.8580959 0.98353612 1.3767812 1.0968037e-38
2.0708852 1.0067875 1.3210658 7.0979495e-39
1.9254577 0.97038329 1.400808 1.5301245e-38
1.9553887 0.9645797 1.4114013 1.7516119e-38
1.9231603 0.97203046 1.3975542 1.7700507e-38
1.9210384 0.9733718 1.3949143 1.5487806e-38
1.9068567 0.97725284 1.3875976 1.5671131e-38
1.9462621 0.9705314 1.399677 1.6131016e-38
1.929711 0.97433084 1.3926204 1.5762251e-38
1.9425962 0.97173649 1.3973757 1.6498719e-38
1.9577879 0.96943575 1.4014426 1.6593778e-38
1.9643143 0.97049463 1.3990315 1.6038089e-38
1.9614419 0.97146404 1.3971772 1.5668232e-38
1.9453274 0.97523803 1.390155 1.5945175e-38
1.9329723 0.97822744 1.3845761 1.5945892e-38
1.9264559 0.98265278 1.3758479 1.4654795e-38
1.9775393 0.96888894 1.4017651 1.5948782e-38
1.9748565 0.97137016 1.3968326 1.7422477e-38
1.9669596 0.97362524 1.3925675 1.7328848e-38
1.9622655 0.97544879 1.389051 1.64987e-38
1.9534801 0.97767419 1.3848816 1.6037717e-38
1.9508218 0.97884452 1.3826106 1.6128126e-38
1.9394425 0.98135054 1.3779746 1.5207601e-38
1.9248799 0.98545486 1.3702196 1.5206887e-38
1.8956957 0.99463081 1.3527467 1.4472943e-38
1.9805301 0.97365505 1.3919655 1.7145527e-38
1.9694535 0.9772411 1.3851238 1.7882736e-38
1.9749774 0.97672313 1.3859556 1.7422097e-38
1.9711717 0.97953421 1.3803978 1.7791273e-38
1.9690353 0.98088491 1.3777397 1.7790552e-38
1.9668986 0.98223573 1.3750814 1.7144421e-38
1.9953805 0.97860605 1.3813171 1.6593794e-38
1.8950067 0.97395968 1.3947589 1.7423564e-38
1.9692546 0.96513641 1.4097173 1.6313236e-38
1.8643135 1.0664369 1.2081554 1.7699062e-38
2.2058024 1.0033343 1.3226968 1.8254028e-38
1.9068211 1.006915 1.3273528 1.2265266e-38
2.014924 1.0037934 1.32938 1.3003181e-38
2.0120304 1.0038401 1.3294007 1.1985432e-38
2.0091367 1.0038868 1.3294213 1.1709198e-38
2.0136104 1.0072641 1.322383 1.2999937e-38
2.0107167 1.0073109 1.3224036 1.1618798e-38
1.8482889 1.0340168 1.2746422 1.1157836e-38
2.0209067 1.0085295 1.3195218 1.1893943e-38
2.0195849 1.0120213 1.3124824 1.1525156e-38
1.8341979 1.0457374 1.2513992 1.143405e-38
1.8421803 1.050156 1.2421062 1.1156377e-38
1.8290942 1.0521973 1.2384821 1.3093579e-38
1.8264194 1.0522405 1.2385012 1.3923711e-38
1.8278798 1.0554059 1.2320139 1.5028253e-38
1.8372931 1.0630673 1.2160773 1.3831147e-38
1.8506309 1.0675539 1.2064325 9.9617972e-39
1.8479236 1.0675976 1.2064518 1.2540411e-38
1.8466946 1.0708449 1.1999054 1.419994e-38
2.0567422 1.043732 1.246593 1.2906669e-38
1.8604139 1.0723149 1.1963723 1.1061661e-38
1.8481727 1.0740484 1.1933398 1.262865e-38
1.8454654 1.0740921 1.193359 1.4015909e-38
1.8427582 1.0741358 1.1933782 1.3927301e-38
1.8400509 1.0741795 1.1933974 1.3924074e-38
2.0583625 1.047244 1.2393954 1.3460562e-38
1.8591781 1.07558 1.18979 1.12457e-38
1.8469436 1.0772957 1.1867933 1.3738598e-38
1.8442364 1.0773394 1.1868126 1.4015909e-38
1.8415291 1.0773832 1.1868318 1.4293216e-38
1.8482897 1.0757557 1.1898674 1.2908848e-38
1.8683285 1.0770403 1.1864588 1.2076549e-38
1.8552202 1.0788889 1.1832272 1.3646771e-38
1.8524981 1.0789329 1.1832465 1.4015906e-38
1.849776 1.0789769 1.1832658 1.3092875e-38
1.8670852 1.0803249 1.1798373 1.3737152e-38
2.0726585 1.0557626 1.2215229 1.3367287e-38
2.0572882 1.0578755 1.2178447 1.3459842e-38
2.0543203 1.0579234 1.2178657 1.3091414e-38
2.0513523 1.0579715 1.2178869 1.2353846e-38
1.8957654 1.0797963 1.1797664 1.2076886e-38
1.8685803 1.0835651 1.1731964 1.1711013e-38
1.865842 1.0836093 1.1732159 1.410702e-38
1.8631036 1.0836536 1.1732353 1.3462007e-38
1.8603654 1.0836978 1.1732547 1.2630451e-38
2.0742891 1.059297 1.2142794 1.2907032e-38
2.0559406 1.0614355 1.2106681 1.2999937e-38
2.0529728 1.0614834 1.2106892 1.2722271e-38
1.8972789 1.0830766 1.1730436 1.2077258e-38
1.8777175 1.085103 1.1697081 1.2998509e-38
1.8645988 1.0868938 1.1665944 1.180284e-38
1.8618604 1.0869381 1.1666137 1.2261663e-38
2.0699463 1.0629277 1.2070785 1.3091779e-38
2.0545931 1.0649952 1.2034917 1.3091411e-38
1.8919898 1.0897714 1.159657 1.2167299e-38
1.8892176 1.0898162 1.1596767 1.1430813e-38
1.9826673 0.96079206 1.4180058 1.7330996e-38
1.9819089 0.96480352 1.4098885 1.7700506e-38
1.9917015 0.97427529 1.39026 1.6869656e-38
1.9997216 0.97621638 1.3859974 1.7145883e-38
2.0196502 0.97353375 1.3906511 1.6777103e-38
2.0780823 1.0414326 1.2504119 1.4289248e-38
1.8981658 0.97666615 1.3891358 1.6314333e-38
1.8880651 0.97920585 1.3843805 1.705406e-38
1.902428 0.98002565 1.3821424 1.6314694e-38
1.8840077 0.98430407 1.3741877 1.6223582e-38
1.9117587 0.97893071 1.3839941 1.5669314e-38
1.912712 0.98187822 1.3779695 1.6038091e-38
1.8931147 0.98640227 1.3695626 1.5670035e-38
1.9177647 0.98315638 1.3751718 1.5025036e-38
1.8995224 0.98946303 1.3630903 1.4840636e-38
1.8843316 0.99299699 1.3565186 1.7513956e-38
1.8979645 0.97292435 1.3967439 1.6404378e-38
2.0151756 1.0780023 1.178646 1.3546271e-38
2.0042601 1.0677963 1.1998106 1.032408e-38
2.0518985 1.0721148 1.1891385 1.2077258e-38
2.0365999 1.0741365 1.185643 1.1799589e-38
2.0213397 1.0761573 1.1821471 1.1519043e-38
2.0229397 1.0796245 1.1750413 1.1431873e-38
1.8378502 0.99745905 1.3493104 1.760577e-38
1.8920487 0.97499508 1.392774 1.7055138e-38
1.8432423 1.0000118 1.3439103 1.7145517e-38
1.8447697 1.0036584 1.3364428 1.6593431e-38
2.2110105 1.0157671 1.2972369 1.2261649e-38
2.1936505 0.97432405 1.3821036 1.8898329e-38
2.0531371 1.0625427 1.2085311 1.3733187e-38
2.079376 1.058157 1.2163918 1.5299063e-38
2.0672774 1.0614567 1.2101728 1.2994559e-38
2.0525491 1.0640311 1.2055316 1.3916498e-38
2.0846841 1.0611888 1.2100222 1.5390552e-38
2.0726252 1.0637708 1.2052593 1.428276e-38
2.078299 1.0650953 1.2023426 1.4928845e-38
2.0732405 1.0674815 1.1976978 1.4007974e-38
2.0731306 1.0701914 1.1921983 1.33637e-38
2.0815771 1.0711254 1.1899643 1.3734631e-38
2.0795105 1.0724318 1.1873933 1.3181105e-38
2.0373793 1.0178751 1.2998829 1.069215e-38
2.0360403 1.0214124 1.2927521 1.0231526e-38
2.0585313 1.0381876 1.2577828 1.0232245e-38
2.0571752 1.0417702 1.2505605 1.0509191e-38
2.0588057 1.0453045 1.243317 1.0969097e-38
2.0421758 1.0510434 1.2323244 1.0965494e-38
2.0392079 1.0510913 1.2323455 1.0047133e-38
2.0096557 0.9856385 1.3664641 1.5115767e-38
2.1040995 1.0121483 1.3088527 1.8436619e-38
2.1010818 1.0131178 1.307004 1.7237346e-38
2.0841236 1.0182761 1.2972035 1.7422829e-38
2.1071904 1.0296179 1.273247 1.7882006e-38
2.104105 1.0364133 1.2595682 1.8159313e-38
2.0916626 1.0410104 1.2507278 1.6038442e-38
2.0952904 1.0456731 1.2411126 1.6776015e-38
2.1176462 1.0444485 1.2427078 1.6593431e-38
2.0993776 1.0493569 1.2334672 1.7235561e-38
2.1117549 1.0502778 1.2311031 1.6961852e-38
2.1116374 1.0536962 1.2241651 1.70526e-38
2.0919015 1.0585437 1.2151067 1.6221759e-38
2.0958543 1.0280966 1.2767894 1.8067119e-38
2.1115551 1.032616 1.2669836 1.7882002e-38
2.1098042 1.0372188 1.2577047 1.7696892e-38
2.0245049 1.0062461 1.3240161 1.087762e-38
2.038718 1.014338 1.3070138 1.0969097e-38
2.0007105 1.0643054 1.2070425 1.3270043e-38
2.0135944 1.0656686 1.2037599 1.4284558e-38
2.030261 1.0658536 1.2027191 1.3273301e-38
2.0365984 1.068079 1.1979463 1.3456982e-38
2.0415866 1.069383 1.1950986 1.4192365e-38
2.0514526 1.0774981 1.1782227 1.3088558e-38
2.05775 1.0797095 1.1734799 1.3180755e-38
2.0557103 1.080999 1.1709421 1.3274007e-38
2.0285497 1.0566887 1.2214019 1.0139329e-38
2.0256004 1.0567364 1.2214229 1.0047133e-38
2.010411 1.0588688 1.2176977 9.862389e-39
2.0074809 1.0589161 1.2177185 9.862389e-39
2.0043199 0.98302549 1.3719842 1.5852979e-38
1.9697645 1.0548295 1.2275237 1.5301623e-38
1.8822877 1.0643016 1.2117753 1.8809023e-38
1.910459 1.0981807 1.1418402 1.0048951e-38
2.2000012 0.99229944 1.3453408 1.4473269e-38
2.0438488 1.0573207 1.2195078 1.2718684e-38
1.9183007 1.0431328 1.2533339 1.7144817e-38
1.8842639 1.0630522 1.2142339 1.7609776e-38
1.8664613 1.0079981 1.3267633 1.7606514e-38
1.8676984 0.98184675 1.3798293 1.2812347e-38
1.8596606 0.98786664 1.367923 1.5021066e-38
1.8225282 0.9930957 1.3587841 1.2167707e-38
1.8723582 0.98250014 1.3783164 1.6317931e-38
1.8783352 0.98226422 1.3785568 1.6685636e-38
1.8671327 0.98460376 1.3742522 1.6317933e-38
1.8514712 0.98999059 1.3639359 1.4842092e-38
1.8588352 0.99204063 1.3594784 1.7053708e-38
1.8674043 0.99385411 1.3554531 1.8065339e-38
1.8596065 0.99584186 1.351727 1.6684567e-38
1.8377278 1.0010993 1.3419216 1.8621037e-38
1.864159 0.99837089 1.3464086 1.6776764e-38
1.8622289 1.0075316 1.3278795 1.8069665e-38
1.8939588 1.0060308 1.329662 1.1990123e-38
1.8779864 0.98592383 1.371138 1.5762245e-38
1.866122 0.98882049 1.3657279 1.6500525e-38
1.8820313 0.98907918 1.3645679 1.6131025e-38
1.8478248 1.0109518 1.3215078 1.5856595e-38
1.8229023 1.0208955 1.3023055 1.6871467e-38
1.8248852 1.0285975 1.2865831 1.6409415e-38
1.8618361 1.053233 1.2350723 1.7609758e-38
1.8558478 1.0585917 1.2244273 1.7426427e-38
1.8629539 1.0598675 1.2215525 1.7794492e-38
1.872587 1.0610863 1.2186927 1.8806855e-38
1.8955983 1.0626177 1.2146642 1.7606493e-38
1.8888699 1.0659317 1.2082018 1.8713213e-38
1.8925692 1.0690774 1.2016649 1.8345151e-38
1.9335032 1.0640388 1.2102656 1.6777102e-38
1.8905646 1.0755442 1.1886102 1.5581797e-38
1.9372157 1.067238 1.2036197 1.6592353e-38
1.8613594 1.0471917 1.2473617 1.9819575e-38
1.8611436 1.0512197 1.2391891 1.9082716e-38
1.8876811 1.0747178 1.1904041 1.6963295e-38
1.8341511 1.0141566 1.3155441 1.7146961e-38
1.8635966 1.0632944 1.2145666 1.7794474e-38
1.8393015 1.0392776 1.2643161 1.1435854e-38
1.8315231 1.0457807 1.2514181 1.1708126e-38
1.8329834 1.0489458 1.244931 1.1708845e-38
1.884932 1.0865806 1.1664191 1.1523378e-38
1.896811 1.0881532 1.1627512 1.0970561e-38
1.8940227 1.0881983 1.1627711 1.1338267e-38
1.8912345 1.0882432 1.1627909 1.1618091e-38
1.9243096 1.0912285 1.1554079 1.1429013e-38
2.0036669 1.0756185 1.1839467 1.4192373e-38
1.9994031 1.0801139 1.1749865 1.4560794e-38
2.0078068 1.0867386 1.161196 1.3457685e-38
1.9967606 1.0724841 1.1905886 1.4745177e-38
1.8471379 1.0375016 1.2676104 1.8623897e-38
1.8374953 1.0385162 1.2659345 1.6689235e-38
1.8403388 1.0438883 1.2549098 1.9083799e-38
1.8507442 1.0431919 1.2559091 1.7056934e-38
1.8487362 1.0457379 1.2508181 1.7793776e-38
1.8474644 1.0462306 1.2498682 1.908416e-38
1.848881 1.046243 1.2497866 1.8623181e-38
1.8481916 1.0501155 1.2419487 1.7978885e-38
1.8558363 1.0529155 1.2359565 1.7978523e-38
1.8471154 1.0539511 1.234201 1.8070362e-38
1.8523375 1.0543697 1.2331426 1.7241325e-38
1.8547782 1.0562097 1.229308 1.9175999e-38
1.8566433 1.0565392 1.2285643 1.8438431e-38
1.8623635 1.0592591 1.2228119 1.8070004e-38
1.8644269 1.0638394 1.2134265 1.6781429e-38
1.8979264 1.0830122 1.1731485 1.3553495e-38
1.8657191 1.0504117 1.2406477 1.9266035e-38
1.8729163 1.0526384 1.2358378 1.9726647e-38
1.8578659 1.0557798 1.230058 1.9173842e-38
1.8621957 1.0589776 1.2233901 1.8990174e-38
1.8729565 1.06516 1.2104038 1.7886329e-38
1.8440654 1.0368825 1.2689904 1.3001749e-38
1.8321623 1.0452602 1.2524495 1.3554924e-38
1.8309332 1.0485075 1.2459033 1.3646754e-38
1.8221211 1.0536879 1.2357329 1.4292842e-38
1.8408585 1.0596502 1.2228756 1.3924064e-38
1.8591799 1.0689836 1.2031876 1.318614e-38
1.8564253 1.069028 1.2032073 1.3187215e-38
1.8579291 1.0722874 1.196527 1.3093944e-38
1.8546369 1.0772613 1.1865561 1.3647118e-38
1.8594331 1.075547 1.1898469 1.2908833e-38
1.8566786 1.0755914 1.1898664 1.272517e-38
1.8778745 1.0833899 1.1731814 1.2447856e-38
1.8751023 1.0834347 1.1732012 1.2540408e-38
1.8723303 1.0834794 1.1732209 1.2355659e-38
1.8695582 1.0835241 1.1732405 1.2448209e-38
1.8667862 1.0835689 1.1732603 1.2814837e-38
1.8813474 1.0850788 1.1696124 1.1986874e-38
1.8940113 1.0865297 1.1661605 1.1801043e-38
1.9200886 1.093055 1.1518667 1.1060586e-38
1.904815 1.0982718 1.1418803 9.772371e-39
1.798317 0.99906749 1.3476208 1.2354259e-38
1.796303 1.0003408 1.3451151 1.1984761e-38
1.8261486 1.0046002 1.3352733 1.8251163e-38
1.8335491 1.0278181 1.2878206 1.5949882e-38
1.8370482 1.028875 1.2855341 1.6963304e-38
1.8480079 1.027494 1.287902 1.4473663e-38
1.839687 1.0299735 1.2831978 1.5396355e-38
1.8431587 1.0310513 1.2808702 1.7609029e-38
1.8405266 1.0318795 1.2792931 1.7055499e-38
1.8502996 1.0304223 1.2818626 1.5028635e-38
1.8381586 1.0364981 1.270007 1.7333158e-38
1.8459716 1.0362519 1.270195 1.3920846e-38
1.84372 1.0370336 1.2686974 1.3738619e-38
1.8404583 1.0378282 1.2672135 1.5858035e-38
1.8386303 1.0401789 1.262512 1.7978529e-38
1.8499899 1.041458 1.2594608 1.7977446e-38
1.8528267 1.0446701 1.2528237 1.9359667e-38
1.8662176 1.0442396 1.2531638 1.6500163e-38
1.8515757 1.0488153 1.2444543 1.8899768e-38
1.8431829 1.0509045 1.2405457 1.8070722e-38
1.8670964 1.0462471 1.2490513 1.5119021e-38
1.8442985 1.0521551 1.2379613 1.7610472e-38
1.84683 1.0534264 1.2352784 1.7149847e-38
1.8665732 1.0499419 1.2415679 1.5210857e-38
1.8677645 1.0494852 1.2424479 1.6132475e-38
1.854286 1.053335 1.2351663 1.7976723e-38
1.8620741 1.05367 1.234175 1.6594885e-38
1.860111 1.0549113 1.2317325 1.3551704e-38
1.8554914 1.0565616 1.2285647 1.5950218e-38
1.8537052 1.0586779 1.2243376 1.6042788e-38
1.8661356 1.0576317 1.2259667 1.3183265e-38
1.8760142 1.0562687 1.228341 1.4841368e-38
1.867768 1.0609962 1.2190678 1.3182183e-38
1.8721091 1.0614955 1.2178805 1.760904e-38
1.8982139 1.0719295 1.1956469 1.2720119e-38
1.900744 1.0746412 1.1900381 1.2721209e-38
1.8980452 1.0783578 1.1825973 1.2812314e-38
1.8615085 1.0390191 1.2639548 1.7514673e-38
1.8681629 1.0538626 1.2335411 1.3917223e-38
1.8650137 1.0579913 1.2252812 1.9357508e-38
1.8792393 1.0587963 1.2230785 1.5211933e-38
1.8673314 1.0609899 1.2190982 1.4471132e-38
1.8398588 1.0592264 1.2237761 1.6964366e-38
1.8426594 1.0276915 1.2877141 1.2263466e-38
1.8399683 1.027735 1.2877331 1.2541129e-38
1.8441286 1.0308759 1.2811878 1.2356735e-38
1.8414376 1.0309193 1.2812068 1.2541129e-38
1.8283561 1.0330766 1.2773472 1.2818086e-38
1.8509799 1.0339735 1.2746232 1.1527698e-38
1.8298165 1.0362419 1.2708601 1.2816637e-38
1.8271416 1.036285 1.2708791 1.3004266e-38
1.8327373 1.0425723 1.2578861 1.1342586e-38
1.8288481 1.0458237 1.2514372 1.3463456e-38
1.8261733 1.045867 1.2514561 1.3556002e-38
1.8338596 1.0438741 1.255197 1.4109891e-38
1.8303086 1.0489889 1.2449501 1.2076554e-38
1.8276339 1.0490322 1.2449691 1.3555654e-38
1.8353288 1.0470585 1.2486708 1.4200288e-38
1.8326378 1.0471019 1.24869 1.4294286e-38
1.8475623 1.0500691 1.2420679 1.1525898e-38
1.8237444 1.0522838 1.23852 1.484279e-38
1.8678292 1.0527244 1.2358661 1.1618813e-38
1.8665934 1.0559895 1.2292838 1.1895757e-38
1.8543184 1.0578121 1.2260717 1.2080151e-38
1.8407822 1.0580306 1.2261679 1.4844222e-38
1.8653575 1.0592546 1.2227014 1.2263464e-38
1.8530891 1.0610595 1.2195252 1.1710996e-38
1.8668437 1.0624757 1.2160999 1.1895404e-38
1.8641216 1.0625197 1.2161192 1.2815934e-38
1.8656079 1.0657407 1.2095176 1.2357461e-38
1.8533382 1.0675102 1.2064131 1.1988303e-38
1.8907299 1.0651904 1.209633 8.6645787e-39
1.8747964 1.0671426 1.2063037 1.198795e-38
1.8867248 1.0685389 1.2029918 1.1987224e-38
1.8735532 1.0704271 1.1996824 1.1711349e-38
1.8995411 1.0698214 1.1998756 1.1153523e-38
1.8854742 1.0718429 1.1963311 1.171101e-38
1.8982825 1.0731465 1.1931725 1.2538959e-38
1.8842236 1.0751468 1.1896706 1.1986141e-38
1.8970239 1.0764714 1.1864693 1.2079072e-38
1.8829731 1.0784507 1.18301 1.1708126e-38
1.8985374 1.0797516 1.1797466 1.2721552e-38
1.8804719 1.0850586 1.1696886 1.0693614e-38
1.8904762 1.0864911 1.1663797 1.1707396e-38
1.8877041 1.0865359 1.1663995 1.1523733e-38
1.8821599 1.0866253 1.1664389 1.1708492e-38
1.9207954 1.0894421 1.1591763 1.1523365e-38
1.9195216 1.0928077 1.1523917 1.1707749e-38
1.9167157 1.0928531 1.1524115 1.2350246e-38
1.9920753 1.0869514 1.1613914 1.1244973e-38
1.9182477 1.0961732 1.1456069 1.1796709e-38
2.0077066 1.0816226 1.1715909 1.0969097e-38
2.0063851 1.0851145 1.1645515 1.1061661e-38
1.8005066 1.0037974 1.3379266 1.180108e-38
1.8178642 1.003684 1.3374645 1.1799281e-38
1.8360555 1.0310062 1.2812451 1.3832231e-38
1.8333646 1.0310497 1.2812643 1.318614e-38
1.8415132 1.0418818 1.2589382 1.4016259e-38
1.9052954 1.0751849 1.1887523 1.7884164e-38
1.9298966 1.0895115 1.1586725 1.1339334e-38
1.913281 1.0981351 1.1418202 1.0599981e-38
1.8483543 1.0501719 1.2418276 1.8070363e-38
1.8585693 1.0521494 1.2374035 1.8438427e-38
1.8606253 1.0563265 1.2288375 1.8162204e-38
1.864794 1.0592529 1.2227275 1.7885616e-38
1.8696668 1.0614884 1.2179924 1.8069651e-38
1.862607 1.0630344 1.215134 1.6320806e-38
1.8713208 1.0651556 1.2104782 1.7055495e-38
1.8724885 1.0671813 1.2063172 1.6134629e-38
1.8765861 1.0698854 1.2006617 1.659524e-38
1.8824399 1.0716953 1.1967517 1.6962948e-38
1.8947082 1.0728978 1.19382 1.7883824e-38
1.8959429 1.0777221 1.1839724 1.5026832e-38
1.9048448 1.0802732 1.1784357 1.392015e-38
1.9023004 1.0759513 1.1873152 1.7054398e-38
1.9229282 1.0930091 1.1518464 1.0969109e-38
1.9076369 1.0982262 1.1418602 9.772371e-39
1.8551745 1.0723319 1.1965466 1.3278694e-38
1.8640141 1.0836136 1.17328 1.2356015e-38
1.8785591 1.0851239 1.1696322 1.2079069e-38
1.8757708 1.085169 1.1696521 1.2171265e-38
1.8912054 1.0865749 1.1661805 1.1618091e-38
1.8772931 1.0884683 1.16289 1.2079067e-38
1.8745049 1.0885134 1.1629097 1.1986871e-38
1.9030147 1.0882081 1.1623923 1.1341855e-38
1.9172491 1.0931008 1.1518868 1.1244973e-38
1.9019929 1.0983174 1.1419004 9.772371e-39
1.8685473 1.040748 1.2601625 1.7054782e-38
1.8881534 1.0403141 1.2602615 1.5670397e-38
1.8745961 1.0471274 1.2469641 1.428531e-38
1.8891523 1.0479695 1.244673 1.5577837e-38
1.8740381 1.057518 1.2258824 1.8069662e-38
1.88624 1.061803 1.2166924 1.7700504e-38
1.9120362 1.0586948 1.2219762 1.6040267e-38
1.8980172 1.0616374 1.2165588 1.3458415e-38
1.9274952 1.0585357 1.2216825 1.5670781e-38
1.9115282 1.063022 1.2132076 1.3549183e-38
1.8978761 1.067142 1.2053841 1.5760432e-38
1.9161624 1.0649858 1.2090341 1.5670767e-38
1.9065189 1.066981 1.2053665 1.3365871e-38
1.9062591 1.0676248 1.204069 1.5393069e-38
1.9035412 1.0684233 1.2025558 1.8067848e-38
1.9094933 1.0707456 1.1976016 1.622391e-38
1.9167448 1.0725151 1.193718 1.3918335e-38
1.9027101 1.0756624 1.1878858 1.7333169e-38
1.9480959 1.0658759 1.2059519 1.5392719e-38
1.9282053 1.0746236 1.1889784 1.4470759e-38
1.9361807 1.0756632 1.1865487 1.5762593e-38
1.9336357 1.0767524 1.1844378 1.465444e-38
1.958396 1.0714194 1.1942819 1.3178928e-38
1.9404535 1.0770904 1.1834794 1.5394539e-38
1.9386719 1.0796107 1.1784315 1.5207257e-38
1.972684 1.0725724 1.1913701 1.4008331e-38
1.9621149 1.0746408 1.1875905 1.4839536e-38
1.9458438 1.0796129 1.1781411 1.5115772e-38
1.9799405 1.0752162 1.1857107 1.4376763e-38
1.9660643 1.0780351 1.1805388 1.3365857e-38
1.9634962 1.0791309 1.1784157 1.5116851e-38
1.9527321 1.0814815 1.1740708 1.502286e-38
1.9434212 1.0843824 1.1685504 1.4839892e-38
1.9711188 1.0809183 1.1744812 1.4103778e-38
1.9679445 1.0817637 1.1728907 1.4839176e-38
1.9437308 1.0853931 1.1664853 1.4009771e-38
1.9902647 1.0781171 1.1794066 1.4745186e-38
1.9634039 1.0850137 1.1664708 1.3459138e-38
1.9578582 1.086814 1.1630356 1.4655491e-38
1.9400374 1.091724 1.1537739 1.2166934e-38
1.9805642 1.0836023 1.1686528 1.4744821e-38
1.9810342 1.0854751 1.1648303 1.3366574e-38
1.9675288 1.0884055 1.1594173 1.3549886e-38
1.9916446 1.085874 1.1635969 1.4101608e-38
1.9739479 1.0888113 1.158337 1.4837363e-38
1.9736297 1.090548 1.1548223 1.1707381e-38
1.9138514 1.0398464 1.2601861 1.7513595e-38
1.8952521 1.0517254 1.236801 1.7790536e-38
1.8827291 1.0550414 1.2305657 1.4563666e-38
1.8888328 1.061305 1.2176002 1.4837032e-38
1.9093546 1.064146 1.2110111 1.4746615e-38
1.9209697 1.0681252 1.2024657 1.4561531e-38
1.9589541 1.0672644 1.2026985 1.2163332e-38
1.979039 1.0848397 1.1662006 1.548059e-38
1.9260272 1.0720577 1.1942767 1.4284542e-38
1.9307646 1.0752431 1.187618 1.5301934e-38
2.0044515 1.0871993 1.160394 1.3088898e-38
1.8471776 1.0040374 1.3355772 1.41967e-38
1.8464141 1.0081227 1.32731 1.6409045e-38
1.8438165 1.0106007 1.3223808 1.6042077e-38
1.8543628 1.0105629 1.3220366 1.668672e-38
1.8576851 1.0137012 1.3155299 1.6871465e-38
1.8507518 1.0192831 1.3044695 1.631758e-38
1.8521725 1.0183703 1.3062667 1.7240965e-38
1.8508769 1.0209529 1.3010727 1.7885256e-38
1.8485099 1.0233455 1.2963079 1.7425002e-38
1.8506447 1.0241812 1.294525 1.9267837e-38
1.8484341 1.0284258 1.2859924 1.9544061e-38
1.849227 1.0295815 1.2836133 1.7701225e-38
1.8481878 1.031646 1.2794616 1.7978529e-38
1.8482397 1.0335113 1.2756711 1.8162919e-38
1.8511804 1.0378799 1.2666806 1.8070367e-38
1.8519562 1.0400475 1.2622471 1.9638413e-38
1.8554003 1.0403837 1.2614269 1.917564e-38
1.8844346 1.059424 1.2215961 1.8438431e-38
1.8825672 1.0640906 1.2121924 1.7423916e-38
1.8855484 1.0664486 1.2072845 1.770122e-38
1.888222 1.0670792 1.205897 1.7239163e-38
1.9008778 1.0687076 1.2020845 1.7239885e-38
1.8935797 1.0739719 1.1916835 1.641084e-38
1.9027393 1.0753701 1.1884784 1.5304885e-38
1.9233661 1.0812008 1.1758126 1.5026456e-38
1.9457252 1.080725 1.175887 1.4654802e-38
1.9497309 1.0834643 1.1701634 1.4931376e-38
1.9465415 1.0831378 1.1709539 1.4011237e-38
1.9557723 1.0874172 1.1618937 1.4283481e-38
1.9535232 1.0912604 1.1541777 1.2625377e-38
1.8442142 0.99156713 1.3610235 1.2076198e-38
1.8693572 1.0069845 1.3287065 1.8255127e-38
1.8572782 1.0267892 1.2889637 1.8068218e-38
1.8763694 1.0439994 1.2532465 2.1293616e-38
1.8884517 1.0709287 1.1980691 1.68711e-38
1.9208455 1.0771735 1.184093 1.548636e-38
1.9703515 1.0878806 1.1603707 1.4836294e-38
1.8544531 1.0237342 1.2952811 1.2725518e-38
1.8517309 1.0237782 1.2953004 1.2540408e-38
1.8410152 1.0289801 1.2851623 1.2724436e-38
1.8467875 1.0368385 1.2689711 1.3554921e-38
1.8496513 0.98561645 1.3728927 1.7240265e-38
1.8356795 0.98944879 1.3656665 1.1986896e-38
1.8417977 0.99254405 1.3591356 1.3734286e-38
1.8490633 0.99446511 1.3549439 1.8622466e-38
1.8500371 0.99820668 1.3473058 1.7147703e-38
1.8503003 1.0021363 1.3393136 1.8068934e-38
1.8445818 1.0036625 1.3364421 1.8437718e-38
1.8663763 1.0000528 1.3429041 1.603954e-38
1.8564426 1.0046761 1.3339103 1.7516473e-38
1.8498245 1.0061581 1.3311642 1.8623187e-38
1.8480089 1.0071061 1.3293114 1.7240248e-38
1.869269 1.0055149 1.331695 1.816185e-38
1.8369294 1.0130838 1.3176122 1.696187e-38
1.8315952 1.0147146 1.3145125 1.6595977e-38
1.8535653 1.0135249 1.3160523 1.7148412e-38
1.8509574 1.0142076 1.31477 1.6871104e-38
1.85079 1.0180788 1.3069139 1.6133181e-38
1.8491412 1.0190325 1.3050425 1.622573e-38
1.853938 1.0180532 1.3068404 1.806893e-38
1.8607587 1.0197546 1.3031124 1.8621752e-38
1.8533043 1.0218382 1.299178 1.6225016e-38
1.8391926 1.0244241 1.2944889 1.6318652e-38
1.8552837 1.021346 1.3000985 1.7700151e-38
1.8478076 1.0271484 1.2886118 1.7885623e-38
1.865031 1.0237983 1.2947288 1.6409405e-38
1.8531481 1.0306711 1.2812439 1.4750964e-38
1.8537331 1.0320649 1.2783897 1.668672e-38
1.8483467 1.033455 1.275781 1.8069647e-38
1.8794774 1.0288756 1.2838402 1.6593801e-38
1.8516954 1.0368631 1.2687255 1.8161125e-38
1.8868815 1.0313798 1.2784585 1.6316848e-38
1.8686193 1.0346605 1.2725239 1.4933905e-38
1.8659587 1.0354878 1.2709498 1.5487802e-38
1.8680073 1.0358878 1.2700553 1.6132102e-38
1.8659989 1.0391649 1.2634797 1.4289618e-38
1.8855828 1.0363634 1.2683883 1.6684206e-38
1.8721772 1.0389327 1.2637049 1.5302688e-38
1.8820746 1.0386499 1.2638842 1.5026484e-38
1.8835491 1.040288 1.2604982 1.6684557e-38
1.8890839 1.0396631 1.2615467 1.5302332e-38
1.8775483 1.045604 1.2499406 1.4932824e-38
1.8840913 1.0571618 1.2262048 1.6224305e-38
1.8978723 1.0573742 1.2252233 1.5117941e-38
1.8882161 1.0605536 1.2191511 1.3827196e-38
1.9106231 1.0625601 1.2141819 1.5946981e-38
1.9461944 1.0712855 1.1950405 1.2998161e-38
1.9387249 1.0745738 1.1886599 1.4748446e-38
1.9175597 1.0812888 1.1758655 1.3644244e-38
1.9459537 1.0781789 1.1810493 1.5117585e-38
1.9727345 1.0786504 1.1790229 1.3089278e-38
1.9579856 1.0847756 1.1671709 1.2905234e-38
1.9850104 1.0829613 1.1697774 1.3549536e-38
1.9902474 1.0856847 1.164037 1.373175e-38
1.9879577 1.0859327 1.1636246 1.520759e-38
1.8750733 1.0224591 1.2970482 1.5945548e-38
1.8823693 1.0247165 1.2921723 1.7329927e-38
1.8794929 1.0257233 1.2902421 1.6405452e-38
1.8741652 1.0303029 1.2811531 1.5578919e-38
1.8689145 1.0322732 1.2773608 1.6131389e-38
1.888332 1.0322516 1.2766299 1.5487093e-38
1.8956279 1.0345088 1.2717543 1.6406171e-38
1.8928289 1.0508722 1.2386307 1.7145526e-38
1.9029744 1.0530183 1.2338669 1.742248e-38
1.9063532 1.0564513 1.2267593 1.7238084e-38
1.8916703 1.0603118 1.2195045 1.6407599e-38
1.8425658 1.0122879 1.3190038 1.6961141e-38
1.8958901 1.0131875 1.3150489 1.5118653e-38
1.850439 1.0219208 1.2991244 1.4383234e-38
1.8833278 1.0195405 1.3026468 1.4749511e-38
1.8556876 1.0254422 1.2917627 1.4013388e-38
1.874354 1.025977 1.2899319 1.530304e-38
1.8841723 1.0279496 1.2855335 1.4376738e-38
1.8872473 1.0352907 1.2705007 1.5208313e-38
1.8543024 1.022311 1.298178 1.2264185e-38
1.9228271 1.0693399 1.1999246 8.9433236e-39
1.9102395 1.0746404 1.189661 1.1891088e-38
1.9533799 1.0722065 1.1928831 1.059707e-38
1.9391817 1.0741674 1.1894672 9.6790768e-39
1.9363598 1.0742129 1.1894872 1.0136459e-38
1.8415358 0.99495512 1.354249 1.6958981e-38
1.8344964 0.99701774 1.3503406 1.3733211e-38
1.8365133 0.99799263 1.34828 1.2997071e-38
1.8241217 1.0058815 1.3327515 1.2997081e-38
1.8403709 1.0050477 1.3337967 1.7699432e-38
1.8303791 1.0080789 1.3280388 1.5854815e-38
1.8447524 1.0083889 1.3268358 1.7146986e-38
1.8529565 1.0147475 1.3135936 1.6225381e-38
1.8412604 1.0006171 1.34276 1.7327033e-38
1.8462973 1.0073051 1.3289753 1.6132457e-38
1.8480643 1.0144486 1.3143957 1.4474728e-38
1.8611331 1.0203813 1.3018246 1.2264182e-38
1.8476589 1.0256456 1.2916701 1.318901e-38
1.9067712 1.0715424 1.1960918 1.8254386e-38
1.9007469 1.0769036 1.185443 1.6595586e-38
1.9254166 1.0754995 1.1873106 1.5579264e-38
1.9310901 1.0778418 1.182327 1.493247e-38
1.9404297 1.0800439 1.1774815 1.5115058e-38
1.9445682 1.0808297 1.1757205 1.5116836e-38
1.9418015 1.0816202 1.1742253 1.4838826e-38
1.9476123 1.0836645 1.1698412 1.4746993e-38
1.9473916 1.0854108 1.1663033 1.3733908e-38
1.9692899 1.0829536 1.1704205 1.4655144e-38
1.9418008 1.0896358 1.1579448 1.281339e-38
1.9703616 1.086428 1.1633208 1.5112882e-38
1.9554994 1.090011 1.1566362 1.3915429e-38
1.9655527 1.0896548 1.1569587 1.2717977e-38
1.9635766 1.0909042 1.1544999 1.2715826e-38
1.9143432 1.0689358 1.201084 1.5115067e-38
1.9340702 1.0691638 1.1998338 1.5574578e-38
1.9209361 1.0723816 1.193822 1.6314685e-38
1.8542696 1.0009915 1.3414806 1.24439e-38
1.8566983 1.015334 1.3122531 1.7608309e-38
1.8502315 1.0168425 1.3094472 1.8160408e-38
1.8466673 1.0185876 1.3060449 1.5948427e-38
1.8553686 1.0202504 1.3023202 1.7239163e-38
1.8508556 1.0251923 1.2924632 1.8254044e-38
1.8493518 1.0260148 1.2908527 1.7793416e-38
1.8503621 1.0296226 1.2834846 1.7700864e-38
1.8469018 1.0340166 1.274698 1.7793063e-38
1.8497829 1.0378714 1.2667538 1.7977456e-38
1.8525188 1.040863 1.2605683 1.8991246e-38
1.848719 1.0420749 1.2582583 1.825404e-38
1.8543615 1.0455173 1.2510415 1.8807927e-38
1.8861146 1.0668075 1.2065328 1.8530987e-38
1.8882405 1.0668694 1.2063224 1.7054424e-38
1.8898118 1.0699521 1.1999983 1.7884897e-38
1.8919476 1.0737706 1.1921574 1.6593805e-38
1.9047154 1.0741206 1.190937 1.4936806e-38
1.9108164 1.0762632 1.1863421 1.5028283e-38
1.9160146 1.0776403 1.1833377 1.4935692e-38
1.931151 1.0787883 1.1804022 1.4195619e-38
1.9230183 1.080548 1.1771523 1.3550985e-38
1.9387193 1.0813842 1.1748277 1.4839183e-38
1.9399282 1.0874152 1.1625297 1.2721202e-38
1.9714993 1.0833169 1.169594 1.4931372e-38
1.8628815 1.051405 1.2387435 1.9636615e-38
1.9202656 1.0764198 1.1856469 1.5395597e-38
1.9174086 1.0774199 1.1837298 1.5484923e-38
1.8729905 1.0573461 1.2262732 1.8438425e-38
1.8886204 1.0725589 1.1947513 1.6686357e-38
1.9156779 1.078586 1.1814303 1.5211938e-38
1.9508089 1.0842198 1.1685859 1.4378923e-38
1.9674555 1.0888944 1.1584274 1.3084198e-38
1.9156985 1.0897408 1.1587733 1.1616281e-38
2.0607493 0.96544337 1.4054435 1.7699414e-38
2.0957365 0.99717897 1.3395901 1.8072183e-38
2.0954123 1.0002347 1.3333964 1.8529895e-38
2.0629809 0.96634448 1.4035243 1.7513945e-38
2.111644 0.99330741 1.3468189 1.7517931e-38
2.1400619 1.0192764 1.2929401 1.8715015e-38
2.1581309 1.0370388 1.2561424 1.5765142e-38
2.1530795 1.0298891 1.2708654 9.306351e-39
2.1547649 1.0335417 1.2633797 1.0042817e-38
2.181607 1.0474777 1.2340034 1.1614835e-38
2.1801865 1.0512302 1.2264384 1.0602125e-38
2.1933205 1.0602305 1.2076342 1.1431873e-38
2.1838701 1.0603831 1.2077013 9.6761929e-39
2.1807201 1.060434 1.2077237 9.6740363e-39
2.1918902 1.064009 1.2000169 1.1523718e-38
2.1967604 1.0676858 1.1923547 1.3091779e-38
2.1936102 1.0677366 1.1923772 1.2353849e-38
2.1904602 1.0677874 1.1923995 1.1707396e-38
2.1983638 1.0657347 1.1962534 1.0597786e-38
2.2146044 1.0749683 1.1768515 1.2167653e-38
2.1184225 0.99568778 1.3417137 1.6596327e-38
2.125201 0.99806815 1.3366085 1.6500519e-38
2.1229942 0.99946052 1.3338685 1.8620663e-38
2.1319797 1.0004486 1.3315033 1.2997458e-38
2.1277061 1.0032446 1.3259946 1.9267829e-38
2.1318846 1.0067166 1.3187762 2.0005042e-38
2.1434014 1.0131311 1.3052883 1.9268555e-38
2.0984056 0.97193873 1.3907484 1.6498349e-38
2.0778508 0.95215464 1.4317516 1.6683831e-38
2.1575675 1.026137 1.2783073 1.0319762e-38
2.179899 1.0437756 1.2415909 1.0139329e-38
2.1947508 1.056452 1.2152514 1.1431883e-38
2.1065652 1.0119209 1.309216 1.9267457e-38
2.2144344 1.053459 1.2205451 1.5488538e-38
2.2217164 1.06441 1.1980124 1.4841725e-38
2.110095 0.98038536 1.3731264 1.3558168e-38
2.1379991 1.0098934 1.3120798 1.5119023e-38
2.1564178 1.0282742 1.2740124 1.3554205e-38
2.1623394 1.0297396 1.2707995 1.3091782e-38
2.1687968 1.0369949 1.255806 1.36446e-38
2.1760719 1.0348312 1.2599105 1.3462004e-38
2.1160352 0.99053127 1.3522823 1.1241383e-38
2.1434691 1.0160004 1.2994579 1.2814128e-38
2.1455445 1.0247941 1.2815145 1.0597087e-38
2.160938 1.0334419 1.2633357 1.2998865e-38
2.0924916 0.96447116 1.4061517 1.3731761e-38
2.1182308 0.98914313 1.355014 1.6130645e-38
2.1228139 0.9929117 1.347177 1.2346279e-38
2.1273966 0.99668008 1.3393402 1.0226509e-38
2.1466546 1.0138093 1.303781 9.5836441e-39
2.1797543 1.030349 1.2688671 1.5029348e-38
2.1763577 1.0422342 1.2448628 1.36446e-38
2.1797504 1.0495872 1.229793 1.3369808e-38
2.2047803 1.0713117 1.1846702 1.3369811e-38
2.1320248 1.0061144 1.3199937 1.2629734e-38
2.1342049 1.011457 1.3090557 1.4749161e-38
2.1915681 1.0622355 1.203632 1.336729e-38
2.2016306 1.0713625 1.1846926 1.391867e-38
2.1984804 1.0714134 1.184715 1.3642798e-38
2.122442 0.99490649 1.3431401 1.6688876e-38
2.1557837 1.0197798 1.2912903 1.5490682e-38
2.1794646 1.0421841 1.2448407 1.3736433e-38
2.2162457 1.0767896 1.1730868 1.3920461e-38
2.1164317 1.0144168 1.303753 1.7792324e-38
2.1215916 1.0178862 1.2965008 1.8622091e-38
2.1181295 1.0184702 1.2954526 1.75161e-38
2.1608231 1.042485 1.2449732 9.4907395e-39
2.1916006 1.0565029 1.2152739 1.0600684e-38
2.1901705 1.0602814 1.2076566 1.0415923e-38
2.18874 1.0640599 1.2000393 1.0874383e-38
2.206439 1.0693856 1.188516 1.2630075e-38
2.2032671 1.0694368 1.1885387 1.189107e-38
2.204999 1.07319 1.1808466 1.2721552e-38
2.201827 1.0732411 1.1808691 1.189107e-38
2.2163479 1.078747 1.169107 1.2813025e-38
2.2131546 1.0787987 1.1691296 1.2444242e-38
2.1384606 1.0105531 1.3107215 1.9360373e-38
2.1930308 1.0527245 1.2228911 1.0969465e-38
2.2015352 1.0656836 1.1962308 1.115061e-38
2.0978591 1.0048951 1.3238333 1.779089e-38
2.0787954 0.99109042 1.3526323 1.8343343e-38
2.2096674 1.071241 1.1846187 1.1246775e-38
2.211411 1.0750198 1.1768742 1.2076536e-38
2.1966319 1.0619817 1.2039454 1.0319762e-38
2.079391 0.99087858 1.3530388 1.8897607e-38
2.1199753 1.0219992 1.2882112 1.9359308e-38
2.0261047 1.0097133 1.3169101 1.0418441e-38
2.1366274 1.0322492 1.2667283 1.005221e-38
2.0664101 1.0487423 1.2360311 1.2814823e-38
2.1488755 1.0409962 1.2484739 9.7662375e-39
2.0086522 0.98028666 1.3773742 1.7884903e-38
2.0225825 0.9807511 1.375875 1.6316097e-38
2.0404744 0.98025656 1.3761656 1.8437706e-38
2.0273364 0.98393482 1.3692189 1.4748774e-38
2.0493176 0.98238838 1.3714828 2.0004327e-38
2.0265815 0.98745942 1.3620905 1.5949495e-38
2.0203648 0.99052256 1.3561169 1.5304114e-38
2.0179288 0.99139118 1.35445 1.4288159e-38
2.0312989 0.99022639 1.3562822 1.5858025e-38
2.0283191 0.992428 1.3519294 1.5211206e-38
2.0597534 0.98626226 1.3631984 1.7794136e-38
2.073842 0.9863466 1.362465 1.9912486e-38
2.0544353 0.99030566 1.355198 1.6317556e-38
2.0674429 0.98926777 1.3567872 1.8714291e-38
2.0622621 0.99185759 1.3517338 1.8621022e-38
2.0773919 0.99065864 1.3535653 1.7609023e-38
2.068995 0.99422193 1.346663 1.7976021e-38
2.0697801 0.99704802 1.3408917 1.7977444e-38
2.0868225 0.99619329 1.3419478 1.9914276e-38
2.084281 0.99817502 1.3380241 1.9452217e-38
2.1040783 1.0078645 1.3175542 1.9636255e-38
2.093807 1.0103211 1.3129742 1.9174194e-38
2.1054718 1.0122827 1.3085247 1.8990883e-38
2.0721462 1.0187442 1.2967305 1.6502683e-38
2.095778 1.0172726 1.2987769 1.6131737e-38
2.0799317 1.022197 1.2894071 1.6595949e-38
2.1032939 1.0208528 1.291205 1.9175639e-38
2.0816433 1.0258688 1.2818812 1.6134607e-38
2.0793693 1.0292988 1.2750052 1.6595948e-38
2.0792882 1.0314491 1.2706413 1.5394874e-38
2.1149938 1.0248855 1.2825475 1.8715385e-38
2.0913587 1.0331826 1.2666385 1.751721e-38
2.0889926 1.0392873 1.2543339 1.511432e-38
2.0803702 1.0421636 1.248836 1.4934256e-38
2.1023383 1.0391248 1.2541313 1.7977464e-38
2.08074 1.0437002 1.2457001 1.6777833e-38
2.1327481 1.0372896 1.2566457 1.7515404e-38
2.1200614 1.039757 1.2521404 1.8252232e-38
2.0906622 1.0525942 1.2272401 1.5667139e-38
2.08476 1.0543071 1.2239966 1.4376396e-38
2.1126895 1.0493298 1.2329915 1.5488165e-38
2.0954063 1.0564178 1.2192847 1.5674356e-38
2.1484916 1.0505923 1.2289987 1.4104871e-38
2.0927863 1.0642773 1.2034259 1.428855e-38
2.0532243 0.97282827 1.3907443 1.8253678e-38
2.0671427 0.97967982 1.376273 1.9451507e-38
2.1174045 1.0274638 1.2772148 1.8989437e-38
2.0174599 0.99470317 1.3477416 1.1156006e-38
2.0219605 0.99810106 1.3406608 1.2171971e-38
2.0190492 0.99814802 1.3406814 1.1524437e-38
2.0161383 0.99819511 1.3407021 1.0971613e-38
2.0290346 1.009666 1.3168893 1.1432236e-38
2.0430057 1.0107532 1.3141236 1.1340769e-38
2.0475647 1.0141952 1.3069508 1.2354214e-38
2.044616 1.0142428 1.3069718 1.1708476e-38
2.0416667 1.0142905 1.3069927 1.1431873e-38
2.046226 1.0177324 1.2998201 1.2262013e-38
2.043277 1.0177799 1.299841 1.1616281e-38
2.0478361 1.0212219 1.2926682 1.2815193e-38
2.0448871 1.0212694 1.2926892 1.1986141e-38
2.0419383 1.0213171 1.2927102 1.1524437e-38
2.0559232 1.0225168 1.2897155 1.2077255e-38
2.0575435 1.0260288 1.2825179 1.2262013e-38
2.1246445 1.0309056 1.2699353 1.0234807e-38
2.1352353 1.0359272 1.2593136 1.0605737e-38
2.1338429 1.0396053 1.2518986 1.0327358e-38
2.0928538 1.0660032 1.1999179 1.171029e-38
2.0463035 0.98729658 1.3616341 8.9382747e-39
2.044982 0.99078846 1.3545947 8.6653102e-39
2.0452495 0.99772513 1.3404952 9.1277177e-39
2.0307057 1.0000889 1.3362743 1.2908836e-38
2.0719528 0.99622369 1.3424792 8.6634983e-39
2.0439279 1.0012169 1.3334558 1.2541127e-38
2.029392 1.0035597 1.3292773 1.2818439e-38
2.0861301 0.99726254 1.3398036 8.2954361e-39
2.0706139 0.99976087 1.3353484 8.4816322e-39
2.0692751 1.003298 1.3282175 1.0322318e-38
2.0679362 1.0068351 1.3210869 1.0510302e-38
2.0611815 0.97380424 1.3884447 1.8804691e-38
2.0851371 1.0626214 1.2070946 1.4013032e-38
2.0162375 1.0003226 1.336377 1.3096461e-38
2.013344 1.0003693 1.3363976 1.244676e-38
2.0238175 1.0084826 1.319501 1.2169453e-38
2.05971 1.0436841 1.2465719 1.3185777e-38
2.0740142 1.0521803 1.228745 1.3185424e-38
2.0713024 1.0593452 1.2143006 1.2907383e-38
2.0112569 0.96149468 1.4154382 1.6870744e-38
2.0208926 0.96127254 1.4155049 1.74232e-38
1.9986975 0.96772975 1.4032754 1.6868946e-38
2.0140288 0.96835864 1.4013865 1.7238444e-38
2.0081608 0.97052675 1.3972169 1.6409037e-38
2.0245712 0.96898717 1.3996892 1.732956e-38
2.0118439 0.97337008 1.3912948 1.7145526e-38
2.0131986 0.97630495 1.3852799 1.7790175e-38
2.0168169 0.97444367 1.3889159 1.668455e-38
2.0129843 0.97754788 1.382764 1.7698359e-38
2.0108182 0.9789173 1.380069 1.8252975e-38
2.052074 0.97142291 1.3936446 1.8252232e-38
2.0240037 0.97715747 1.3831173 1.6687078e-38
2.0218377 0.97852683 1.3804225 1.6320094e-38
2.0369625 0.97694051 1.3830409 1.770014e-38
2.0306914 0.9795059 1.3780807 1.7978183e-38
2.0285254 0.98087525 1.3753858 1.7887419e-38
2.037379 0.98185426 1.3730441 1.9268922e-38
2.0305295 0.98437953 1.3681883 1.7703028e-38
2.0257688 0.98746437 1.3621128 1.6319711e-38
2.0406873 0.98463416 1.3672659 1.7517203e-38
2.0347762 0.98719591 1.3622986 1.6964734e-38
2.0367146 0.98716462 1.3622848 1.7518633e-38
2.0337451 0.98936033 1.3579437 1.6781788e-38
2.0641007 0.98801076 1.3594736 1.7608677e-38
2.0558009 0.99092197 1.353892 1.7886333e-38
2.0764167 1.010038 1.3142432 1.7242039e-38
2.075896 1.0171775 1.2997634 1.6780347e-38
2.0830979 1.0198357 1.2940769 1.7056929e-38
2.0764532 1.0263962 1.2810172 1.6688146e-38
2.0835197 1.0322026 1.2689419 1.6779979e-38
2.0775552 1.0370967 1.2592396 1.5948417e-38
2.0802963 1.0400115 1.2532098 1.5580361e-38
2.0101621 0.95873547 1.4210861 1.7791614e-38
2.036437 0.96528369 1.4067378 1.5209409e-38
2.0572569 0.98126626 1.3734453 9.2177483e-39
2.0362484 0.99092942 1.3546568 1.3648203e-38
2.0349269 0.99442124 1.3476175 1.3465607e-38
2.0291045 0.9945153 1.3476588 1.3374124e-38
2.0232823 0.9946093 1.3477001 1.217342e-38
2.049006 0.99537152 1.3451256 1.3556718e-38
2.0476758 0.99888599 1.3380406 1.4015553e-38
2.0293722 1.0014518 1.3335594 1.364855e-38
2.0522056 1.0023059 1.3309137 1.3741468e-38
2.0492756 1.0023532 1.3309345 1.4200278e-38
2.0463452 1.0024005 1.3309554 1.3370159e-38
2.0663259 1.0033457 1.3282385 1.4383967e-38
2.0508752 1.0058204 1.3238287 1.4387206e-38
2.0479453 1.0058676 1.3238496 1.5121885e-38
2.0450151 1.0059149 1.3238704 1.4201724e-38
2.0420852 1.0059623 1.3238912 1.3832228e-38
2.0267289 1.0084355 1.3194804 1.2725518e-38
2.1049457 1.0018321 1.3297716 1.392443e-38
2.0649872 1.0068828 1.3211077 1.3738598e-38
2.049545 1.0093349 1.3167435 1.4201018e-38
2.0466149 1.0093821 1.3167644 1.4477232e-38
2.043685 1.0094295 1.3167851 1.4476513e-38
2.040755 1.0094768 1.316806 1.3648553e-38
2.0378249 1.0095241 1.3168268 1.281699e-38
2.0348947 1.0095713 1.3168477 1.1985785e-38
2.0636482 1.01042 1.3139769 1.3924783e-38
2.0606992 1.0104675 1.3139977 1.3832584e-38
2.0577505 1.0105152 1.3140188 1.3556002e-38
2.0423546 1.012944 1.3097001 1.3646401e-38
2.0394244 1.0129913 1.3097209 1.3737152e-38
2.0364945 1.0130386 1.3097416 1.2999937e-38
2.0335646 1.0130858 1.3097625 1.2170169e-38
2.0623095 1.0139571 1.306846 1.3649282e-38
2.0593605 1.0140047 1.306867 1.4384683e-38
2.0534627 1.0141 1.306909 1.3279411e-38
2.0505137 1.0141476 1.3069298 1.2540408e-38
2.1074474 1.0103385 1.3123947 9.2144833e-39
2.0609705 1.0174943 1.2997153 1.4292135e-38
2.0580215 1.0175419 1.2997361 1.4476884e-38
2.0550728 1.0175896 1.2997571 1.4384683e-38
2.0521238 1.0176371 1.2997781 1.3646398e-38
2.0491748 1.0176847 1.2997991 1.2724436e-38
2.1060827 1.0139438 1.3051268 8.2943697e-39
2.0905614 1.0163069 1.3009464 1.1066369e-38
2.0596318 1.0210315 1.2925844 1.4843143e-38
2.0892053 1.0198894 1.2937241 1.3186862e-38
2.0737302 1.0222293 1.289589 1.4937504e-38
2.0582929 1.0245686 1.2854536 1.5027181e-38
2.0648267 1.0223731 1.2896523 1.3648197e-38
2.0618589 1.022421 1.2896733 1.2909549e-38
2.1003478 1.0212026 1.2906122 1.3556004e-38
2.0723829 1.0257891 1.2824123 1.4570879e-38
2.0694149 1.0258371 1.2824334 1.4844941e-38
2.066447 1.025885 1.2824546 1.4385036e-38
2.0605116 1.0259808 1.2824967 1.2909186e-38
2.1274948 1.0221564 1.2875919 1.3646398e-38
2.1153913 1.0223519 1.2876779 8.666392e-39
2.0864933 1.0270544 1.2792796 1.4292123e-38
2.0710356 1.029349 1.2752359 1.4386481e-38
2.0680676 1.0293969 1.275257 1.4293567e-38
2.1140175 1.0259812 1.2803611 9.3117614e-39
2.0851371 1.0306369 1.2720573 1.4291767e-38
2.0696881 1.0329088 1.2680594 1.4661626e-38
2.0667202 1.0329567 1.2680805 1.4109171e-38
2.0607843 1.0330526 1.2681227 1.3278692e-38
2.1290739 1.0272027 1.2772794 9.2163134e-39
2.1126437 1.0296108 1.2730441 9.6805411e-39
2.0837812 1.0342194 1.2648351 1.4291417e-38
2.0683405 1.0364686 1.2608829 1.4476884e-38
2.0624049 1.0365645 1.2609249 1.4016259e-38
2.0594368 1.0366124 1.2609462 1.3185777e-38
2.0824251 1.0378019 1.2576129 1.4199575e-38
2.066993 1.0400286 1.2537063 1.4107376e-38
2.0935249 1.0392286 1.2542725 1.4382521e-38
2.0921602 1.0428338 1.2470045 1.4015906e-38
2.0767262 1.0450151 1.2431897 1.4750227e-38
2.0907955 1.0464388 1.2397367 1.3923355e-38
2.0753703 1.0485977 1.2359674 1.401518e-38
2.089431 1.0500441 1.2324686 1.3461656e-38
2.0872049 0.98663092 1.3613544 9.9549378e-39
2.1016843 0.99476361 1.3442585 1.0975596e-38
2.1003282 0.99834609 1.3370364 1.0328056e-38
2.1131823 1.0030797 1.3269094 1.1341502e-38
2.1118174 1.0066848 1.3196414 9.1298715e-39
2.1088119 1.0067334 1.3196627 9.2137952e-39
2.0743592 0.98212272 1.3710234 1.0136459e-38
2.0288594 0.98977011 1.3573062 1.2910285e-38
2.0730205 0.98565984 1.3638927 9.2173728e-39
2.0304394 0.99319416 1.3502887 1.2908483e-38
2.0275459 0.99324089 1.3503093 1.2727688e-38
2.0591264 0.99171507 1.3521483 8.5727292e-39
2.0291257 0.99666506 1.3432916 1.3463806e-38
2.0888252 0.99014282 1.3541569 1.0329861e-38
2.0732915 0.99268657 1.3496101 1.0043894e-38
2.0394273 0.99781907 1.3405366 1.3279413e-38
2.0874777 0.99370277 1.3469801 1.0138976e-38
2.0381057 1.0013109 1.3334973 1.3186862e-38
2.0551355 1.0022585 1.3308929 1.4016257e-38
2.0847828 1.0008224 1.3326269 7.4674705e-39
2.101959 1.0018804 1.3297929 1.1898275e-38
2.082088 1.0079421 1.318274 8.4762302e-39
2.0665975 1.0103723 1.3139559 1.2353858e-38
2.0807405 1.0115019 1.3110974 8.2976067e-39
2.0652585 1.0139096 1.306825 1.3185424e-38
2.0793929 1.0150617 1.3039209 1.005003e-38
2.0639198 1.0174466 1.2996943 1.3463809e-38
2.0625808 1.0209839 1.2925634 1.4476884e-38
2.0937257 1.0014517 1.330992 1.7422473e-38
2.0976148 1.0045 1.3246455 1.9082713e-38
2.1347539 1.033165 1.2649431 1.8897614e-38
2.072717 1.0518271 1.2295141 1.4008324e-38
2.0705683 0.98382467 1.3677179 1.7976724e-38
2.061518 1.0381395 1.2577616 1.1061292e-38
2.0600812 0.9932363 1.3490205 1.6498367e-38
2.0668142 0.9956007 1.3439497 1.6500163e-38
2.080548 0.99527979 1.3440535 1.8160038e-38
2.1039121 1.0072953 1.3187169 1.945222e-38
2.0999882 1.0087016 1.3160172 1.8344067e-38
2.1088603 1.0169414 1.2989274 1.8713209e-38
2.0742493 1.0253452 1.2832397 1.4750579e-38
2.084924 1.0238258 1.2858998 1.3919022e-38
2.0947926 1.024701 1.2837284 1.6777092e-38
2.0782864 1.0304207 1.2727698 1.3826096e-38
2.1048067 1.0254543 1.2817988 1.871321e-38
2.1102054 1.0286648 1.2750626 1.8712847e-38
2.0890307 1.0339279 1.2652178 1.585369e-38
2.0963821 1.0355277 1.2616751 1.7605068e-38
2.0889745 1.0373069 1.258357 1.5945884e-38
2.0812342 1.0387832 1.2556673 1.4010497e-38
2.121604 1.0311904 1.2694783 1.8160396e-38
2.0914564 1.0419877 1.2487509 1.5667852e-38
2.0959725 1.0431492 1.2462115 1.6407599e-38
2.0919113 1.0458622 1.2408633 1.5853323e-38
2.0925124 1.0482734 1.235942 1.5301588e-38
2.1433733 1.0401286 1.2504557 1.419741e-38
2.0966506 1.050522 1.23121 1.6129921e-38
2.0958991 1.0525863 1.2270471 1.6868569e-38
2.0946431 1.0543153 1.2235854 1.6774581e-38
2.0936418 1.0542314 1.2237958 1.6221762e-38
2.1294985 1.0505105 1.2299225 1.585515e-38
2.0948818 1.0576173 1.2168692 1.7050809e-38
2.0971286 1.067848 1.1960005 1.4378944e-38
2.1091881 1.0209404 1.2907921 1.9357502e-38
2.1124008 1.0239853 1.2844796 1.9450778e-38
2.0997021 1.0445528 1.2432121 1.806892e-38
2.0529554 1.0225646 1.2897366 1.1615185e-38
2.0499873 1.0226127 1.2897576 1.0877614e-38
2.066942 1.0238094 1.2866504 1.1799596e-38
2.0516078 1.0261246 1.2825601 1.0968746e-38
2.0625994 1.0274401 1.2794495 1.0969097e-38
2.06423 1.0309744 1.2722059 1.1339687e-38
2.0612433 1.0310228 1.2722272 1.0692503e-38
2.0658607 1.0345087 1.2649626 1.2076536e-38
2.0598872 1.0346051 1.265005 1.0692503e-38
2.1276608 1.0583163 1.2141417 1.5577824e-38
2.0875835 0.98793411 1.3586924 1.8346963e-38
2.0931594 0.99103361 1.3521745 2.0374545e-38
2.0903902 0.99223799 1.349839 2.0097595e-38
2.0987301 0.99413651 1.3456501 1.9821002e-38
2.1015217 0.99844694 1.3367839 1.9268557e-38
2.101027 1.000275 1.3330907 1.8346595e-38
2.1052532 1.0031086 1.3271669 1.917635e-38
2.1151533 1.01406 1.3045287 1.9729173e-38
2.1223204 1.017215 1.2978346 1.9268192e-38
2.1326416 1.0247644 1.2820896 1.9175277e-38
2.1589735 1.041729 1.2465826 1.2999592e-38
2.0738325 0.98297238 1.3693187 1.9542615e-38
2.1001506 0.97580767 1.3828206 1.4108825e-38
2.1117256 0.98391974 1.3658828 1.3834033e-38
2.1076577 0.99466717 1.3442161 1.3923711e-38
2.1164641 1.0101929 1.3123307 1.3275092e-38
2.1410859 1.0285217 1.2741214 8.755694e-39
2.0637503 0.95187247 1.4328871 1.7606516e-38
2.0724916 0.9592337 1.4175872 1.7514311e-38
2.0942533 0.97726029 1.3801056 1.7791266e-38
2.1065726 0.98716533 1.3594962 1.889941e-38
2.1107504 0.99061406 1.3523248 1.9175279e-38
2.1094086 0.99840307 1.3365583 1.8714655e-38
2.1282222 1.0195711 1.2928138 1.7978188e-38
2.0805757 0.97592485 1.3833637 1.9266391e-38
2.1482766 1.0361705 1.2582991 1.7975647e-38
2.098803 0.97936755 1.3756441 1.4201023e-38
2.1191933 1.0029825 1.3268666 1.3465256e-38
2.1315596 1.0126369 1.3067647 8.0202939e-39
2.1301765 1.0162905 1.2993988 8.1121364e-39
2.1516781 1.0335915 1.2634015 8.847891e-39
2.1502767 1.0372939 1.2559377 9.2137952e-39
2.0902646 0.96587902 1.403381 1.2439942e-38
2.0846574 0.95962095 1.4163153 1.3274711e-38
2.0744672 0.98242521 1.3704047 1.8991253e-38
2.0820024 0.98483807 1.3652035 1.9359312e-38
2.100626 1.0035273 1.3265011 1.9452223e-38
2.1087389 0.98396784 1.3659041 1.3466688e-38
2.0548449 0.95807815 1.4206383 1.6684557e-38
2.0742476 0.97429144 1.3869337 1.7329557e-38
2.1239123 1.0077851 1.3169241 9.6808887e-39
2.1302426 1.0148975 1.3022257 1.1248921e-38
2.1288686 1.018527 1.2949088 1.2447506e-38
2.1426413 1.0233524 1.2845587 1.3186511e-38
2.1304569 1.023549 1.2846453 8.7556912e-39
2.1412585 1.027006 1.2771927 1.318614e-38
2.1472187 1.0284226 1.2740778 1.1339687e-38
2.155026 1.0319521 1.2665976 1.3737152e-38
2.1536336 1.0356301 1.2591828 1.3829347e-38
2.1578512 1.0334917 1.2633578 1.0326964e-38
2.0930543 0.98702514 1.3603202 1.8069646e-38
2.0882792 0.97599936 1.382905 1.0969109e-38
