# .PCD v0.7 - Point Cloud Data file format
VERSION 0.7
FIELDS x y z rgb
SIZE 4 4 4 4
TYPE F F F F
COUNT 1 1 1 1
WIDTH 384
HEIGHT 1
VIEWPOINT 0 0 0 1 0 0 0
POINTS 384
DATA ascii
-2.8312838 -0.12462576 0.52217674 8.8230516e-39
-2.8258071 -0.11766751 0.52414811 9.0992783e-39
-2.9485581 -0.24734432 0.63318956 1.0101905e-39
-2.9466498 -0.2429288 0.64548934 9.1835496e-40
-2.9419355 -0.23711741 0.64614952 3.4897517e-39
-2.8871996 -0.19601144 0.50002521 8.6376009e-39
-2.8654521 -0.16838236 0.50785297 8.5454039e-39
-2.8927913 -0.20189124 0.50515467 7.9011149e-39
-2.8764808 -0.18116933 0.51102543 8.085146e-39
-2.8710439 -0.17426214 0.51298243 7.9000317e-39
-2.8865216 -0.19110185 0.52387875 7.5348435e-39
-2.9085851 -0.21789944 0.52313185 6.9838235e-39
-2.9256546 -0.22859642 0.58107466 5.8774788e-39
-2.9137735 -0.2117524 0.59555489 5.4182999e-39
-2.9081678 -0.20463085 0.59757262 5.6019723e-39
-2.9025626 -0.19750927 0.59959024 5.7856419e-39
-2.8969572 -0.19038777 0.60160792 5.6019723e-39
-2.9363554 -0.239179 0.59479052 5.4182999e-39
-2.9307499 -0.23205742 0.59680814 5.8774774e-39
-2.9251444 -0.22493602 0.59882575 5.6019723e-39
-2.9022264 -0.19397254 0.61784714 5.3264756e-39
-2.8909268 -0.17961702 0.62191433 6.6279708e-39
-2.8852773 -0.17243925 0.62394786 6.7176679e-39
-2.8796275 -0.16526121 0.62598151 6.9938946e-39
-2.8673894 -0.14786619 0.6411587 7.6475079e-39
-2.8616955 -0.14063218 0.64320821 7.6475079e-39
-2.9193368 -0.21443796 0.61911023 5.3264728e-39
-2.8903282 -0.17572604 0.64038217 6.7176679e-39
-2.8846338 -0.16849205 0.64243174 6.9009802e-39
-2.947747 -0.249259 0.61630619 5.2346261e-39
-2.9420969 -0.24208143 0.61833978 5.2346233e-39
-2.9364474 -0.23490357 0.62037337 4.7754486e-39
-2.9132664 -0.20358606 0.63960564 5.6019723e-39
-2.9018784 -0.18911797 0.64370471 6.9009802e-39
-2.8961844 -0.18188387 0.64575428 6.3496042e-39
-2.8904903 -0.17464997 0.64780378 6.5339941e-39
-2.8847961 -0.16741584 0.64985335 6.6283211e-39
-2.930511 -0.2242118 0.64087862 5.2346261e-39
-2.9016964 -0.18563789 0.66271806 6.2613491e-39
-2.895956 -0.17834491 0.66478425 6.3585697e-39
-2.8787346 -0.15646596 0.6709829 7.3698476e-39
-2.8729942 -0.14917296 0.67304915 7.4620432e-39
-2.867254 -0.14188012 0.67511529 7.6475079e-39
-2.9591434 -0.25930595 0.63805258 5.2346261e-39
-2.9190814 -0.20643151 0.66400152 4.9591224e-39
-2.9076006 -0.19184572 0.66813391 6.0755159e-39
-2.9018602 -0.1845527 0.67020017 7.0042923e-39
-2.9307258 -0.21993256 0.66735095 5.2346261e-39
-2.9135046 -0.19805375 0.67354971 5.9891034e-39
-2.9009988 -0.18026868 0.68911415 7.5545892e-39
-2.8952143 -0.1729193 0.69119632 6.9113876e-39
-2.8894296 -0.16557011 0.69327843 6.9113876e-39
-2.9538512 -0.24801946 0.66656828 5.1427878e-39
-2.9481111 -0.2407264 0.66863447 5.1427878e-39
-2.9069486 -0.18652444 0.69457179 7.0035888e-39
-2.9011638 -0.17917524 0.69665396 6.9113876e-39
-2.8838098 -0.15712759 0.70290035 7.0043021e-39
-2.9712362 -0.26881319 0.66785163 5.2346233e-39
-2.8477147 -0.14550047 0.51626259 8.9123928e-39
-2.8367608 -0.13158396 0.52020538 8.7290805e-39
-2.8697784 -0.17229772 0.51551569 8.086225e-39
-2.8533475 -0.15142332 0.5214299 8.2670205e-39
-2.8754113 -0.1782209 0.52068299 7.9000317e-39
-2.8699346 -0.17126265 0.52265435 7.2586153e-39
-2.8644578 -0.16430445 0.52462572 7.2586153e-39
-2.8589809 -0.15734625 0.52659708 7.5348435e-39
-2.8858893 -0.18861572 0.53392237 7.4419276e-39
-2.8803701 -0.18160392 0.53590894 6.890909e-39
-2.8748512 -0.17459224 0.5378955 6.706159e-39
-2.9183528 -0.20231621 0.68286771 6.9142995e-39
-2.9244497 -0.20535618 0.70811546 7.3752776e-39
-2.8801405 -0.16902292 0.60766083 6.8120019e-39
-2.8745351 -0.1619015 0.60967857 6.9938946e-39
-2.9193187 -0.22859976 0.53639024 7.0742339e-39
-2.9032648 -0.20990609 0.53224182 6.890909e-39
-2.9088976 -0.21582898 0.53740907 6.6143319e-39
-2.9196334 -0.2265133 0.55077726 6.6136131e-39
-2.9141145 -0.21950151 0.55276376 6.521416e-39
-2.9085951 -0.2124898 0.55475032 5.9711163e-39
-2.9030762 -0.20547812 0.55673689 6.1529937e-39
-2.8975573 -0.19846633 0.55872339 6.2451893e-39
-2.8686099 -0.15689909 0.59708375 6.902778e-39
-2.9199326 -0.22258 0.57582587 6.1529782e-39
-2.9143691 -0.21551207 0.57782841 5.9693199e-39
-2.9088058 -0.20844398 0.57983088 5.6938106e-39
-2.9032426 -0.20137605 0.58183342 5.7856475e-39
-2.8911917 -0.18432574 0.59631938 5.8774718e-39
-2.8855865 -0.17720412 0.59833705 6.5332752e-39
-2.8799808 -0.17008248 0.60035473 6.9034969e-39
-2.8743753 -0.1629609 0.60237241 7.0867937e-39
-2.8567061 -0.13868602 0.61938816 7.2719081e-39
-2.8913517 -0.18326619 0.60362554 5.326463e-39
-2.885746 -0.17614456 0.60564321 6.7133477e-39
-2.8794663 -0.16632929 0.61861759 6.9938946e-39
-2.8738165 -0.15915152 0.62065119 7.0860903e-39
-2.8560014 -0.13339822 0.64525777 7.8318992e-39
-2.9131372 -0.22256145 0.52803099 6.9816641e-39
-2.9026039 -0.2086077 0.53515631 6.7980071e-39
-2.8121777 -0.12888397 0.36265522 2.1213998e-38
-2.8318877 -0.14911708 0.38360012 2.1489505e-38
-2.821486 -0.13590248 0.38734409 2.1764652e-38
-2.7994423 -0.10650153 0.40341523 2.2132353e-38
-2.7980494 -0.10333677 0.41205311 2.3509527e-38
-2.7874961 -0.089929372 0.41585171 2.3509168e-38
-2.8205466 -0.13213331 0.40270081 2.1856847e-38
-2.8153079 -0.12547773 0.40458643 2.1856847e-38
-2.8100691 -0.11882237 0.40647209 2.341805e-38
-2.8048306 -0.11216681 0.40835774 2.3509168e-38
-2.8259344 -0.13779888 0.40764332 2.3050708e-38
-2.8206956 -0.1311433 0.40952888 2.3142544e-38
-2.8154571 -0.12448774 0.4114145 2.3509886e-38
-2.8102183 -0.11783238 0.41330016 1.9993198e-38
-2.8049798 -0.11117666 0.41518578 1.3508195e-38
-2.9393969 -0.23365839 0.64842784 3.3060807e-39
-2.865202 -0.16520056 0.52464741 7.8993114e-39
-2.8640811 -0.16241151 0.53300983 7.7145586e-39
-2.8782058 -0.17647414 0.55056816 6.4284917e-39
-2.8715985 -0.16709235 0.55870187 6.708666e-39
-2.7857637 -0.099980265 0.34502292 2.3509886e-38
-2.7805989 -0.093418524 0.34688199 2.3509886e-38
-2.7581873 -0.062512636 0.36913592 2.3509886e-38
-2.8170478 -0.1373985 0.34733233 2.2775202e-38
-2.8118827 -0.13083684 0.34919143 2.2499695e-38
-2.8051424 -0.12099551 0.35906684 2.2683366e-38
-2.7999415 -0.11438818 0.36093879 2.2224189e-38
-2.7947407 -0.10778106 0.36281079 2.1856847e-38
-2.8275249 -0.14954598 0.35034612 2.1765011e-38
-2.82236 -0.14298391 0.35220516 2.158134e-38
-2.8171954 -0.13642208 0.3540642 2.1765011e-38
-2.8104913 -0.12661991 0.36397341 2.1856847e-38
-2.8052905 -0.12001266 0.36584547 2.2132353e-38
-2.8000898 -0.11340518 0.36771739 2.1948682e-38
-2.794889 -0.1067979 0.36958936 2.2132353e-38
-2.7896883 -0.10019073 0.37146133 2.2316024e-38
-2.7844877 -0.093583301 0.37333325 2.2867037e-38
-2.77789 -0.083840147 0.38364542 2.3142544e-38
-2.7726514 -0.07718458 0.38553104 2.3326215e-38
-2.7674124 -0.070529215 0.38741663 2.2958873e-38
-2.7621741 -0.0638735 0.38930222 2.2224189e-38
-2.8173425 -0.13544592 0.36079618 2.1489505e-38
-2.8158405 -0.13224424 0.36888018 2.139731e-38
-2.8002381 -0.11242239 0.37449613 2.1489505e-38
-2.7898366 -0.099207632 0.37824002 2.158134e-38
-2.7885168 -0.096160986 0.38670221 2.158134e-38
-2.783278 -0.089505568 0.38858786 2.1856847e-38
-2.778039 -0.082850151 0.39047354 2.2040518e-38
-2.7728007 -0.076194428 0.39235914 2.2132353e-38
-2.7675619 -0.06953907 0.39424479 2.2224189e-38
-2.8367918 -0.15769042 0.36817092 2.1397669e-38
-2.8315909 -0.15108302 0.37004292 2.1397669e-38
-2.8263903 -0.14447582 0.37191489 2.1488787e-38
-2.8211894 -0.13786857 0.37378687 2.1396952e-38
-2.8055873 -0.11804648 0.37940276 2.1304399e-38
-2.7729499 -0.075204283 0.39918718 2.1489505e-38
-2.8369403 -0.15670742 0.37494949 2.139731e-38
-2.8317392 -0.15010002 0.37682152 2.1489505e-38
-2.8265386 -0.14349282 0.37869346 2.1120728e-38
-2.8213377 -0.13688557 0.38056546 2.1396593e-38
-2.7715158 -0.070815556 0.41467199 2.139731e-38
-2.8256359 -0.13977902 0.39398709 2.1489505e-38
-2.8203971 -0.13312346 0.39587265 2.1213998e-38
-2.8151581 -0.12646818 0.39775833 2.139731e-38
-2.8033261 -0.11004064 0.41015381 2.323402e-38
-2.7716665 -0.069818109 0.42154959 2.2407501e-38
-2.841501 -0.15875566 0.39515838 2.1397669e-38
-2.8362625 -0.15209989 0.39704397 2.084558e-38
-2.8310239 -0.1454445 0.39892954 2.1213281e-38
-2.8257849 -0.13878903 0.40081522 2.1213998e-38
-2.84584 -0.16167593 0.40871468 2.3509886e-38
-2.8405635 -0.15497218 0.41061398 2.3050708e-38
-2.8089037 -0.1147498 0.42200974 1.3316511e-38
-2.8132589 -0.11879188 0.42913604 1.322506e-38
-2.8459907 -0.16067827 0.41559219 2.3509886e-38
-2.840714 -0.15397468 0.41749147 2.3509886e-38
-2.8354373 -0.14727096 0.4193908 2.3509886e-38
-2.8301606 -0.14056736 0.42129007 2.2487857e-38
-2.8566945 -0.17308843 0.41867116 2.3050708e-38
-2.8507791 -0.16406436 0.42959955 2.3509886e-38
-2.8454621 -0.15730986 0.43151331 1.8698857e-38
-2.8658266 -0.1753016 0.47013989 1.0300347e-38
-2.8875675 -0.20170736 0.46940389 9.560995e-39
-2.8767743 -0.18799421 0.47328892 9.8397399e-39
-2.8713775 -0.18113796 0.47523147 9.9308565e-39
-2.8659804 -0.17428167 0.47717404 9.9301376e-39
-2.8877215 -0.20068735 0.47643808 9.3766135e-39
-2.8823247 -0.19383061 0.47838059 9.2865661e-39
-2.8769279 -0.18697435 0.48032314 9.6535493e-39
-2.897918 -0.21085371 0.48902494 9.0092603e-39
-2.8870444 -0.19703919 0.49293885 9.0081799e-39
-2.8816075 -0.19013193 0.49489579 8.9166849e-39
-2.8761706 -0.18322463 0.49685276 9.0081799e-39
-2.870734 -0.17631744 0.49880967 9.007461e-39
-2.898073 -0.2098261 0.49611136 8.3638909e-39
-2.8926361 -0.20291893 0.4980683 8.1791409e-39
-2.8817625 -0.18910433 0.50198215 8.1791409e-39
-2.8763258 -0.18219689 0.50393915 8.5472032e-39
-2.8708892 -0.17528968 0.50589603 8.3628119e-39
-2.8469412 -0.14161983 0.53344119 8.3609916e-39
-2.8359029 -0.12759641 0.53741431 8.269875e-39
-2.8982282 -0.20879856 0.50319761 7.4444485e-39
-2.8873546 -0.19498374 0.50711155 7.4444457e-39
-2.8819175 -0.18807663 0.50906849 8.5475381e-39
-2.8983831 -0.20777079 0.51028401 7.5359225e-39
-2.8522205 -0.14407372 0.55634826 7.0817589e-39
-2.8466573 -0.13700549 0.55835074 7.5445321e-39
-2.8410938 -0.12993765 0.56035328 7.9133132e-39
-2.8523793 -0.14302193 0.56359953 7.8243616e-39
-2.8468158 -0.13595414 0.565602 7.8225637e-39
-2.8412526 -0.128886 0.56760454 7.6392514e-39
-2.8636646 -0.15610632 0.56684583 7.5470558e-39
-2.8581014 -0.14903824 0.56884831 7.361601e-39
-2.8525379 -0.14197037 0.57085079 7.5463524e-39
-2.8569193 -0.14583448 0.57920057 7.638548e-39
-2.8514738 -0.13765328 0.58852446 7.5463524e-39
-2.8458681 -0.13053186 0.59054208 7.6392669e-39
-2.8402629 -0.12341014 0.5925597 8.0977059e-39
-2.9309006 -0.23776752 0.56456971 6.2451893e-39
-2.9310591 -0.236716 0.57182097 6.0611568e-39
-2.9254959 -0.22964814 0.57382345 5.9693143e-39
-2.9080083 -0.20569026 0.59026647 5.6019723e-39
-2.9305899 -0.23311715 0.58950198 5.8774774e-39
-2.9249845 -0.22599557 0.59151959 5.6019723e-39
-2.919379 -0.2188739 0.59353727 5.4182999e-39
-2.8786149 -0.16341072 0.62963808 6.902778e-39
-2.8729208 -0.15617666 0.63168764 7.1782705e-39
-2.9419611 -0.24630055 0.59277278 5.4182999e-39
-2.9304752 -0.22986154 0.60767913 5.4182999e-39
-2.9248257 -0.22268371 0.60971278 5.4182999e-39
-2.9191761 -0.21550575 0.61174637 5.4182999e-39
-2.9135261 -0.20832819 0.61377996 5.4182999e-39
-2.9078763 -0.20115021 0.61581349 5.4182999e-39
-2.8965766 -0.18679471 0.61988074 6.3409694e-39
-2.8844714 -0.16956842 0.63501006 6.9938946e-39
-2.8787775 -0.16233437 0.63705963 6.8098635e-39
-2.9362862 -0.23597153 0.61300945 5.0509579e-39
-2.9306364 -0.22879376 0.61504298 5.326463e-39
-2.9187982 -0.21189614 0.63013458 5.4182943e-39
-2.9131043 -0.20466213 0.63218403 5.1427948e-39
-2.9074101 -0.19742832 0.63423365 5.7863537e-39
-2.9017162 -0.19019404 0.6362831 6.6261911e-39
-2.9533968 -0.25643679 0.61427253 5.2346261e-39
-2.9246547 -0.21805404 0.63550657 4.8672855e-39
-2.9189603 -0.21082006 0.6375562 5.326463e-39
-2.9075725 -0.19635196 0.64165521 5.3264588e-39
-2.8900518 -0.17213696 0.65936852 6.8195423e-39
-2.9648376 -0.26653993 0.63600308 5.1427892e-39
-2.783577 -0.087525032 0.402244 2.0935622e-38
-2.7783384 -0.080869615 0.40412968 2.0935622e-38
-2.7663898 -0.063114509 0.42344886 2.1488787e-38
-2.8706222 -0.17265713 0.51936936 7.5333932e-39
-2.7859111 -0.099003941 0.35175487 1.7162116e-38
-2.7807462 -0.092442207 0.35361388 1.7808193e-38
-2.7991436 -0.10848192 0.38975906 2.0935622e-38
-2.7939048 -0.10182635 0.39164469 2.1027816e-38
-2.7886662 -0.095170841 0.39353031 2.1212205e-38
-2.7834275 -0.088515267 0.39541593 2.1395876e-38
-2.7781887 -0.0818597 0.39730152 2.1212922e-38
-2.7713654 -0.071812905 0.40779451 2.1673176e-38
-2.766089 -0.065109164 0.40969375 2.1948682e-38
-2.760812 -0.058405355 0.41159305 2.2132353e-38
-2.8202477 -0.13411389 0.38904467 2.1120728e-38
-2.8150089 -0.12745817 0.39093027 2.1120728e-38
-2.8045316 -0.1141474 0.39470157 2.0845221e-38
-2.7992928 -0.10749168 0.39658713 2.1120728e-38
-2.7940545 -0.10083611 0.39847276 2.1304399e-38
-2.7888153 -0.094180748 0.40035841 2.0844863e-38
-2.782069 -0.084223166 0.41087344 2.1213281e-38
-2.7767923 -0.077519208 0.41277274 2.1488787e-38
-2.7662392 -0.064111806 0.41657132 2.1304399e-38
-2.8361132 -0.15309019 0.39021584 2.1396234e-38
-2.8099198 -0.11981253 0.39964393 2.1213281e-38
-2.8046808 -0.1131571 0.40152961 2.1304399e-38
-2.7927728 -0.096633181 0.41395241 2.3325497e-38
-2.7822196 -0.08322572 0.41775098 2.3325497e-38
-2.8087533 -0.11574695 0.41513208 2.2765157e-38
-2.7982001 -0.10233948 0.41893068 1.7212946e-38
-2.7918403 -0.092778504 0.42986113 1.7751743e-38
-2.7812071 -0.079268955 0.43368846 1.9352177e-38
-2.7758906 -0.072514214 0.43560216 2.2311002e-38
-2.8079422 -0.11203719 0.43104973 1.2954954e-38
-2.8026254 -0.1052826 0.4329634 1.3512074e-38
-2.7973087 -0.098528005 0.43487713 1.3788662e-38
-2.7919922 -0.091773324 0.43679082 1.3142942e-38
-2.7866757 -0.085018672 0.43870449 1.3048228e-38
-2.8346775 -0.14480534 0.42841092 1.3695117e-38
-2.8293607 -0.13805075 0.43032464 1.4892504e-38
-2.824044 -0.13129616 0.43223831 1.5357085e-38
-2.818727 -0.1245415 0.43415204 1.4897898e-38
-2.8134105 -0.11778676 0.43606573 1.4899331e-38
-2.8080938 -0.11103237 0.43797943 1.4987574e-38
-2.8027771 -0.10427777 0.43989319 1.4249656e-38
-2.7909029 -0.087692142 0.45291367 1.3696116e-38
-2.7855463 -0.080886677 0.45484179 1.3044984e-38
-2.8401456 -0.1505551 0.43342701 1.5082681e-38
-2.8348289 -0.14380036 0.43534067 1.508589e-38
-2.8295124 -0.13704592 0.43725443 1.5730904e-38
-2.8188787 -0.12353668 0.44108182 1.5638334e-38
-2.8178394 -0.12070721 0.45025501 1.5636893e-38
-2.8124826 -0.11390182 0.45218319 1.6096072e-38
-2.8071258 -0.10709629 0.45411131 1.5635094e-38
-2.7964125 -0.093485177 0.45796752 1.5725489e-38
-2.8509305 -0.16305947 0.43652934 1.1493926e-38
-2.8456137 -0.15630497 0.43844303 1.3245233e-38
-2.8501325 -0.16052805 0.44566831 1.4446654e-38
-2.8447759 -0.1537223 0.4475964 1.4813635e-38
-2.8394191 -0.14691678 0.44952452 1.490583e-38
-2.8340623 -0.14011118 0.45145267 1.518097e-38
-2.8190303 -0.12253164 0.44801158 1.5274593e-38
-2.823349 -0.12650003 0.45530882 1.4996206e-38
-2.8179922 -0.1196948 0.45723704 1.508876e-38
-2.8126354 -0.11288927 0.45916516 1.5546511e-38
-2.7952065 -0.089228749 0.4742904 1.5637259e-38
-2.7898097 -0.082372338 0.47623292 1.5820208e-38
-2.7844131 -0.075515874 0.4781754 1.4522324e-38
-2.8663557 -0.17993179 0.44686595 1.2324742e-38
-2.8277411 -0.129347 0.46966931 1.4445218e-38
-2.871865 -0.18572493 0.45191973 1.1403135e-38
-2.8494823 -0.15575266 0.46893334 1.1310201e-38
-2.8386886 -0.14203976 0.47281843 1.0665199e-38
-2.833292 -0.13518314 0.47476092 1.0847795e-38
-2.8278952 -0.12832682 0.47670349 1.1032895e-38
-2.8048713 -0.097540542 0.49394768 1.4073896e-38
-2.7994347 -0.090633079 0.49590462 1.4536319e-38
-2.8874137 -0.20272729 0.46236977 9.8372568e-39
-2.8766203 -0.18901445 0.46625486 1.0483674e-38
-2.8376474 -0.1379566 0.48929232 1.0942119e-38
-2.832211 -0.13104905 0.4912492 1.0849923e-38
-2.8267739 -0.12414189 0.4932062 1.0849923e-38
-2.821337 -0.11723462 0.49516317 1.0573336e-38
-2.8159001 -0.11032751 0.49712014 1.020385e-38
-2.8649867 -0.17146537 0.48659387 1.0296046e-38
-2.8378024 -0.13692905 0.49637875 1.0019818e-38
-2.8323658 -0.13002165 0.49833563 1.0204554e-38
-2.8160555 -0.10929952 0.50420642 1.0204929e-38
-2.8814526 -0.19115965 0.48780945 9.3769638e-39
-2.870579 -0.17734484 0.4917233 9.0996567e-39
-2.859705 -0.1635305 0.49563727 9.7428723e-39
-2.8475585 -0.14653555 0.50912404 9.4655651e-39
-2.8256507 -0.11870303 0.5170095 1.0021239e-38
-2.9298811 -0.2176533 0.67468905 4.1358455e-39
-2.9112217 -0.21946417 0.53259051 5.9703933e-39
-2.8972423 -0.20055281 0.54433638 6.2462557e-39
-2.8859181 -0.18437821 0.55883592 6.6121725e-39
-2.908438 -0.21353298 0.54755688 6.6143179e-39
-2.9029188 -0.2065213 0.54954338 6.4295679e-39
-2.8973997 -0.19950968 0.55152988 6.2451893e-39
-2.9027667 -0.20453063 0.56007969 6.2451893e-39
-2.8972034 -0.19746278 0.56208211 6.0611568e-39
-2.8916399 -0.1903947 0.56408459 6.1529937e-39
-2.8805134 -0.17625877 0.5680896 6.1529937e-39
-2.8682902 -0.15901792 0.58247143 6.9956771e-39
-2.8570793 -0.14477491 0.58650678 7.4545001e-39
-2.9029253 -0.20347911 0.5673309 6.1533412e-39
-2.8973622 -0.19641115 0.56933337 6.0611568e-39
-2.9020829 -0.20068794 0.57767165 6.0611568e-39
-2.8964772 -0.19356643 0.57968926 6.0611568e-39
-2.890872 -0.18644471 0.58170694 6.3366548e-39
-2.8740554 -0.16508017 0.58775997 6.9956771e-39
-2.8684499 -0.15795866 0.58977759 7.0867937e-39
-2.8628445 -0.15083687 0.59179527 7.3640897e-39
-2.8572392 -0.14371535 0.59381294 7.3623044e-39
-2.8516333 -0.13659403 0.59583062 7.1782733e-39
-2.9253373 -0.23069948 0.56657219 6.4292204e-39
-2.9197741 -0.2236315 0.56857467 5.6948812e-39
-2.9142106 -0.21656342 0.57057714 6.0611568e-39
-2.9086471 -0.20949563 0.57257968 5.6023352e-39
-2.903084 -0.20242755 0.57458216 5.6026855e-39
-2.9078484 -0.20674981 0.58296019 5.9693199e-39
-2.9022427 -0.19962855 0.58497781 5.8774774e-39
-2.8966374 -0.19250688 0.58699548 5.6023352e-39
-2.8910317 -0.1853853 0.58901316 6.4284847e-39
-2.8854263 -0.17826366 0.59103078 6.4399824e-39
-2.8798208 -0.17114204 0.59304851 7.0860903e-39
-2.8742154 -0.16402061 0.59506613 6.9949736e-39
-2.8678446 -0.15410939 0.60795701 7.0867937e-39
-2.8621945 -0.14693177 0.60999054 7.3623044e-39
-2.856545 -0.13975394 0.61202419 7.3623044e-39
-2.9024026 -0.19856884 0.59228408 6.2448165e-39
-2.8967974 -0.19144717 0.59430176 5.5101396e-39
-2.8793051 -0.16739713 0.61125374 7.0867937e-39
-2.8736553 -0.16021937 0.61328727 7.0860903e-39
-2.8680055 -0.1530416 0.61532092 7.0867937e-39
-2.8672268 -0.14894271 0.63373715 7.1865354e-39
-2.912066 -0.22265556 0.51993245 7.5333946e-39
