# .PCD v0.7 - Point Cloud Data file format
VERSION 0.7
FIELDS x y z rgb
SIZE 4 4 4 4
TYPE F F F F
COUNT 1 1 1 1
WIDTH 1027
HEIGHT 1
VIEWPOINT 0 0 0 1 0 0 0
POINTS 1027
DATA ascii
-1.0717686 -0.85697943 2.2619629 1.0836963e-38
-1.0712374 -0.85221756 2.2637005 1.0837316e-38
-1.0726894 -0.84752321 2.2643683 1.3317603e-38
-1.0731784 -0.843656 2.2652924 1.3318312e-38
-1.0736674 -0.83978873 2.2662168 1.304352e-38
-1.0741564 -0.83592141 2.2671409 1.3135011e-38
-1.0746455 -0.8320542 2.2680652 1.3043887e-38
-1.0745898 -0.82874721 2.2691061 1.1022423e-38
-1.0756235 -0.8243196 2.2699137 1.2949897e-38
-1.0761126 -0.82045239 2.270838 1.304352e-38
-1.0770905 -0.81271774 2.2726862 1.3318312e-38
-1.0768219 -0.8096565 2.2737651 1.3410159e-38
-1.0773143 -0.80576336 2.2746956 1.3410509e-38
-1.0778066 -0.80187017 2.2756259 1.3410878e-38
-1.0782988 -0.79797697 2.2765563 1.3411228e-38
-1.0787911 -0.79408383 2.2774868 1.313608e-38
-1.0792834 -0.79019064 2.2784171 1.3411228e-38
-1.0797757 -0.7862975 2.2793477 1.3411228e-38
-1.0802679 -0.7824043 2.280278 1.3411228e-38
-1.0785544 -0.77962846 2.2820339 1.120574e-38
-1.0812525 -0.77461797 2.2821388 1.3319032e-38
-1.0817448 -0.77072483 2.2830691 1.3503073e-38
-1.0818062 -0.7656365 2.2845933 1.1206098e-38
-1.0827293 -0.7629385 2.28493 1.3318323e-38
-1.0825065 -0.75951487 2.2860954 1.3594543e-38
-1.083714 -0.75515211 2.2867908 1.3686739e-38
-1.0844889 -0.74383867 2.2898419 1.3869332e-38
-1.0849844 -0.7399196 2.2907784 1.3870424e-38
-1.08548 -0.73600054 2.2917151 1.3777509e-38
-1.0859755 -0.73208153 2.2926517 1.3869332e-38
-1.086471 -0.72816241 2.2935882 1.3870414e-38
-1.0889488 -0.70856714 2.2982712 1.4236319e-38
-1.0894445 -0.70464814 2.2992079 1.4053007e-38
-1.0899401 -0.70072913 2.3001444 1.4052651e-38
-1.0904355 -0.69681001 2.3010809 1.4328518e-38
-1.0909313 -0.69289106 2.3020179 1.4421064e-38
-1.0907704 -0.68897545 2.3033004 1.3961881e-38
-1.0912694 -0.68503058 2.3042433 1.405336e-38
-1.0917681 -0.68108559 2.305186 1.3960458e-38
-1.092267 -0.67714065 2.306129 1.4328162e-38
-1.092795 -0.67241299 2.3072958 1.2582203e-38
-1.0926249 -0.66912502 2.3083918 1.4693713e-38
-1.0922649 -0.66436493 2.3100381 1.2490719e-38
-1.0929534 -0.66099381 2.3107049 1.4879892e-38
-1.0934591 -0.65699536 2.3116608 1.5338694e-38
-1.0939647 -0.65299696 2.3126161 1.4326337e-38
-1.0944703 -0.6489985 2.3135717 1.2948805e-38
-1.0624259 -0.9084065 2.2511749 1.2309196e-38
-1.0624135 -0.90665728 2.2517164 1.037957e-38
-1.0633974 -0.9007237 2.253011 1.2492161e-38
-1.0638831 -0.89688224 2.2539289 1.249288e-38
-1.0684071 -0.85574687 2.2641184 1.2949549e-38
-1.0688961 -0.85187966 2.2650428 1.3042092e-38
-1.0693851 -0.84801221 2.2659667 1.3225407e-38
-1.0694826 -0.84471595 2.2669237 1.1113537e-38
-1.070363 -0.84027773 2.2678154 1.3135717e-38
-1.0708523 -0.83641046 2.2687397 1.3135011e-38
-1.0713413 -0.83254319 2.2696638 1.2859855e-38
-1.0718303 -0.82867587 2.2705882 1.2859855e-38
-1.0723194 -0.82480866 2.2715125 1.2949897e-38
-1.0734956 -0.81014878 2.2753744 1.3410159e-38
-1.073988 -0.80625564 2.276305 1.3410509e-38
-1.0731608 -0.80369425 2.2775261 1.1113544e-38
-1.0749725 -0.79846925 2.2781656 1.3411228e-38
-1.0754648 -0.79457617 2.2790961 1.3228634e-38
-1.0759571 -0.79068291 2.2800264 1.3411228e-38
-1.0764494 -0.78678977 2.280957 1.3411228e-38
-1.0769417 -0.7828967 2.2818875 1.3411228e-38
-1.0774339 -0.77900344 2.2828178 1.3410878e-38
-1.0779262 -0.7751103 2.2837481 1.3411228e-38
-1.0784185 -0.77121711 2.2846785 1.3410878e-38
-1.0789108 -0.76732397 2.285609 1.3227207e-38
-1.0794032 -0.76343077 2.2865393 1.3318323e-38
-1.0798954 -0.75953752 2.2874696 1.3594543e-38
-1.0811404 -0.74433416 2.2914617 1.3869332e-38
-1.0816361 -0.74041522 2.2923987 1.3870424e-38
-1.0821315 -0.73649609 2.293335 1.3777509e-38
-1.0826269 -0.73257703 2.2942715 1.3869332e-38
-1.0831226 -0.72865796 2.2952082 1.3870414e-38
-1.0836183 -0.72473902 2.296145 1.3870411e-38
-1.084114 -0.72082001 2.2970817 1.3870411e-38
-1.0842545 -0.71592623 2.2985041 1.1756391e-38
-1.0851049 -0.71298176 2.2989547 1.3870411e-38
-1.0856006 -0.70906281 2.2998915 1.4051928e-38
-1.0860962 -0.70514375 2.300828 1.4053007e-38
-1.0865916 -0.70122468 2.3017645 1.4052651e-38
-1.0870873 -0.69730562 2.3027012 1.4236322e-38
-1.0879108 -0.68918914 2.3047481 1.1941137e-38
-1.0878989 -0.68552947 2.3058741 1.4329587e-38
-1.0873929 -0.68131185 2.3074319 1.2031905e-38
-1.0882281 -0.67756873 2.308135 1.4604747e-38
-1.0887302 -0.67359793 2.3090842 1.4693713e-38
-1.0885261 -0.6694963 2.3104467 1.478555e-38
-1.0890317 -0.66549784 2.3114023 1.4879171e-38
-1.0895373 -0.66149944 2.3123579 1.4972089e-38
-1.0904636 -0.65662247 2.3133597 1.2215204e-38
-1.0905484 -0.65350252 2.3142688 1.4234502e-38
-1.0910541 -0.64950413 2.3152246 1.2948805e-38
-1.0915596 -0.64550567 2.3161802 2.2082283e-38
-1.0651031 -0.85623586 2.265717 1.3226482e-38
-1.0655921 -0.85236865 2.2666411 1.3042092e-38
-1.066081 -0.84850127 2.2675655 1.2949897e-38
-1.0665702 -0.84463406 2.2684898 1.2949897e-38
-1.0670592 -0.84076679 2.2694139 1.3042814e-38
-1.0673106 -0.83773899 2.2702072 1.1022069e-38
-1.0680372 -0.83303219 2.2712624 1.3042814e-38
-1.0675639 -0.82992029 2.272465 1.0837317e-38
-1.0701693 -0.81064105 2.2769837 1.3410159e-38
-1.0706617 -0.80674797 2.2779143 1.3318323e-38
-1.0711539 -0.80285472 2.2788446 1.3410509e-38
-1.0706868 -0.79891956 2.2802954 1.1205734e-38
-1.0721384 -0.79506838 2.2807055 1.3411575e-38
-1.0726308 -0.79117519 2.2816358 1.331938e-38
-1.0731231 -0.78728211 2.2825663 1.3410857e-38
-1.0736154 -0.78338897 2.2834969 1.3501624e-38
-1.0741076 -0.77949578 2.2844272 1.3317976e-38
-1.0746 -0.77560258 2.2853575 1.3318323e-38
-1.0747775 -0.77234727 2.2862594 1.129793e-38
-1.0755847 -0.76781631 2.2872183 1.3410878e-38
-1.0760769 -0.76392305 2.2881486 1.3777134e-38
-1.0765692 -0.76002991 2.2890792 1.3501268e-38
-1.077792 -0.74482977 2.293082 1.3594543e-38
-1.0782876 -0.74091077 2.2940185 1.3686739e-38
-1.0787832 -0.7369917 2.2949553 1.3503073e-38
-1.0792787 -0.73307264 2.2958918 1.3686739e-38
-1.0797743 -0.72915357 2.2968283 1.3778566e-38
-1.0802699 -0.72523457 2.297765 1.4053004e-38
-1.0807655 -0.72131556 2.2987015 1.4237035e-38
-1.081261 -0.71739638 2.2996383 1.3961528e-38
-1.0817566 -0.71347737 2.3005748 1.3594543e-38
-1.0822521 -0.70955837 2.3015115 1.3777136e-38
-1.0827478 -0.70563936 2.3024483 1.4237038e-38
-1.0832434 -0.7017203 2.3033848 1.4053007e-38
-1.0826037 -0.69812006 2.3048244 1.1848228e-38
-1.0835307 -0.69391811 2.3056192 1.4053007e-38
-1.0840296 -0.68997324 2.3065622 1.405337e-38
-1.0845283 -0.6860283 2.3075049 1.4329587e-38
-1.0850272 -0.68208337 2.3084478 1.4329587e-38
-1.0848354 -0.67807084 2.3097765 1.4604376e-38
-1.0856005 -0.67362493 2.3107316 1.1939703e-38
-1.0851099 -0.67000192 2.3120997 1.4236317e-38
-1.0856155 -0.66600347 2.3130553 1.478949e-38
-1.0861211 -0.66200507 2.3140106 1.5247594e-38
-1.0866268 -0.65800661 2.3149664 1.5156455e-38
-1.0871323 -0.65400821 2.315922 1.3958995e-38
-1.087638 -0.65000969 2.3168774 1.3132476e-38
-1.0889617 -0.646478 2.3172576 2.2362791e-38
-1.0551608 -0.91016823 2.2544799 1.0471407e-38
-1.0554243 -0.90242451 2.2567093 1.0746205e-38
-1.0613098 -0.86059219 2.2663915 1.3042092e-38
-1.0617988 -0.85672492 2.2673156 1.2949897e-38
-1.0626211 -0.85314584 2.2679753 1.0837316e-38
-1.0621785 -0.84824979 2.2697074 1.0929151e-38
-1.0632658 -0.84512299 2.2700882 1.3042092e-38
-1.063755 -0.84125584 2.2710128 1.3042814e-38
-1.0658036 -0.82239813 2.275697 1.1021708e-38
-1.0658122 -0.80724317 2.2803283 1.1113544e-38
-1.0678276 -0.80334705 2.2804539 1.3410509e-38
-1.0683199 -0.79945385 2.2813845 1.3411228e-38
-1.0688121 -0.79556066 2.2823148 1.3411575e-38
-1.0693046 -0.79166758 2.2832453 1.3411575e-38
-1.0696262 -0.78858697 2.2840176 1.1205367e-38
-1.0702893 -0.78388131 2.2851062 1.3501624e-38
-1.0698835 -0.78073663 2.2862828 1.1205388e-38
-1.0712737 -0.77609485 2.2869668 1.3318323e-38
-1.073511 -0.74902654 2.2940633 1.1481243e-38
-1.0744437 -0.74532533 2.2947018 1.3594543e-38
-1.0749391 -0.74140626 2.2956383 1.3594543e-38
-1.0754348 -0.7374872 2.2965751 1.3503073e-38
-1.0759305 -0.73356825 2.2975118 1.3686739e-38
-1.076426 -0.72964919 2.2984486 1.3778566e-38
-1.0769217 -0.72573018 2.2993851 1.3776416e-38
-1.0774171 -0.72181106 2.3003216 1.3776416e-38
-1.0779127 -0.71789193 2.3012581 1.3869332e-38
-1.0784082 -0.71397293 2.3021946 1.3594543e-38
-1.0789039 -0.71005398 2.3031316 1.3869332e-38
-1.0793995 -0.70613486 2.3040681 1.3960811e-38
-1.0796615 -0.69836193 2.3063073 1.4053007e-38
-1.0801603 -0.69441694 2.30725 1.4053007e-38
-1.0803909 -0.6905002 2.308326 1.1848231e-38
-1.0811579 -0.68652713 2.3091357 1.4329587e-38
-1.0816567 -0.68258214 2.3100784 1.4329587e-38
-1.0814428 -0.67857295 2.3114181 1.451218e-38
-1.0819449 -0.67460221 2.3123672 1.4421067e-38
-1.0816936 -0.67050749 2.3137524 1.4421067e-38
-1.0821993 -0.66650909 2.314708 1.4697295e-38
-1.082705 -0.66251075 2.3156638 1.4879171e-38
-1.0832206 -0.65784436 2.3168182 1.1848577e-38
-1.0837162 -0.65451378 2.3175747 1.386716e-38
-1.0842217 -0.65051532 2.3185303 1.3224311e-38
-1.0847274 -0.64651698 2.3194861 2.3014632e-38
-1.086852 -0.64114118 2.3200061 2.3509503e-38
-1.0573986 -0.86178637 2.2680957 1.1021355e-38
-1.0584948 -0.85721397 2.2689145 1.3041013e-38
-1.0589838 -0.85334671 2.2698386 1.2949549e-38
-1.0590861 -0.84666401 2.2718284 1.3041745e-38
-1.0595784 -0.84277093 2.2727587 1.3042115e-38
-1.0600708 -0.8388778 2.2736893 1.2950268e-38
-1.0605631 -0.83498466 2.2746198 1.3224688e-38
-1.0610554 -0.83109146 2.2755504 1.3593471e-38
-1.0615476 -0.82719827 2.2764807 1.3593471e-38
-1.06204 -0.82330513 2.2774112 1.3317973e-38
-1.0625322 -0.81941193 2.2783415 1.3225407e-38
-1.0640092 -0.80773258 2.2811329 1.3500905e-38
-1.0645014 -0.80383933 2.2820632 1.3501624e-38
-1.0649937 -0.79994613 2.2829938 1.368602e-38
-1.065486 -0.79605299 2.2839241 1.3594543e-38
-1.0659783 -0.7921598 2.2848547 1.368602e-38
-1.0664706 -0.78826666 2.285785 1.3593824e-38
-1.066963 -0.78437352 2.2867153 1.3501268e-38
-1.0674553 -0.78048033 2.2876458 1.3500918e-38
-1.0677019 -0.7735272 2.2896421 1.1389048e-38
-1.0674657 -0.7659654 2.2920802 1.1480523e-38
-1.0691131 -0.76149714 2.2925756 1.3593821e-38
-1.0682145 -0.75778294 2.2941871 1.1389049e-38
-1.0705998 -0.74973994 2.2953854 1.3685669e-38
-1.0710953 -0.74582088 2.2963221 1.3685669e-38
-1.070861 -0.74191958 2.2976396 1.1388336e-38
-1.0720863 -0.73798275 2.2981951 1.3318323e-38
-1.0711156 -0.73399335 2.2999294 1.1389408e-38
-1.0730776 -0.73014468 2.3000684 1.3869332e-38
-1.0735732 -0.72622567 2.3010051 1.4051928e-38
-1.0740688 -0.72230667 2.3019416 1.4144124e-38
-1.0745643 -0.71838754 2.3028784 1.4236319e-38
-1.0755554 -0.71054947 2.3047514 1.4236319e-38
-1.0762908 -0.6988607 2.3079379 1.4053357e-38
-1.0767897 -0.69491577 2.3088806 1.4053357e-38
-1.0772886 -0.6909709 2.3098235 1.3870761e-38
-1.0777875 -0.68702602 2.3107665 1.3961881e-38
-1.0786024 -0.68284428 2.3116143 1.2031905e-38
-1.0780503 -0.67907506 2.3130596 1.4604029e-38
-1.0784128 -0.67483342 2.3141654 1.2124103e-38
-1.0782776 -0.67101318 2.3154054 1.4421079e-38
-1.0787832 -0.66701472 2.316361 1.4421785e-38
-1.0792887 -0.66301626 2.3173165 1.442212e-38
-1.0797944 -0.6590178 2.3182721 1.442212e-38
-1.0803 -0.6550194 2.3192277 1.386716e-38
-1.0814121 -0.65010488 2.3201427 1.7003601e-38
-1.081311 -0.64702249 2.3211386 2.3021099e-38
-1.081668 -0.64205784 2.3224688 2.3509865e-38
-1.0482135 -0.91132247 2.2578025 1.0746557e-38
-1.0484836 -0.90357941 2.2600281 1.0746191e-38
-1.0547017 -0.8615703 2.2695889 1.2949549e-38
-1.0552158 -0.85484314 2.2713745 1.0836964e-38
-1.05493 -0.84769726 2.2737114 1.0929158e-38
-1.0562522 -0.84326327 2.2743683 1.313431e-38
-1.0567445 -0.83937013 2.2752986 1.3042465e-38
-1.0572369 -0.83547699 2.2762294 1.3132493e-38
-1.0577291 -0.83158374 2.2771597 1.3224688e-38
-1.0582215 -0.82769066 2.2780902 1.3224688e-38
-1.0587137 -0.8237974 2.2790205 1.3041745e-38
-1.0590427 -0.81575185 2.2813075 1.102099e-38
-1.0606829 -0.80822486 2.2827423 1.3500905e-38
-1.0611751 -0.8043316 2.2836726 1.3501624e-38
-1.0585949 -0.80098611 2.2860615 1.1297212e-38
-1.0621598 -0.79654527 2.2855334 1.3594543e-38
-1.0618001 -0.79334509 2.2867026 1.3593824e-38
-1.062053 -0.79016888 2.2875407 1.1389048e-38
-1.0627912 -0.78550702 2.2885759 1.3593824e-38
-1.0632868 -0.7815879 2.2895126 1.3593115e-38
-1.0637823 -0.77766883 2.2904491 1.3500918e-38
-1.0642779 -0.77374983 2.2913857 1.3593824e-38
-1.0647736 -0.76983082 2.2923226 1.3594543e-38
-1.0652691 -0.7659117 2.2932589 1.3500905e-38
-1.0657647 -0.76199269 2.2941957 1.3501624e-38
-1.0662602 -0.75807363 2.2951322 1.3593824e-38
-1.0667558 -0.75415462 2.2960687 1.3593834e-38
-1.0659456 -0.75045967 2.2976277 1.1388336e-38
-1.0677469 -0.74631643 2.2979419 1.3593115e-38
-1.0682425 -0.74239749 2.2988787 1.3500918e-38
-1.067932 -0.73880893 2.3001409 1.3410878e-38
-1.0692337 -0.73455936 2.3007519 1.3686739e-38
-1.0697292 -0.73064029 2.3016887 1.3869332e-38
-1.0702249 -0.72672129 2.3026252 1.4051928e-38
-1.0696383 -0.72397798 2.3037746 1.1663838e-38
-1.071216 -0.7188831 2.3044984 1.4051928e-38
-1.0714239 -0.7111944 2.3067403 1.4051928e-38
-1.0719228 -0.70724952 2.3076832 1.4053007e-38
-1.0724217 -0.70330459 2.3086262 1.4053007e-38
-1.0725629 -0.69980162 2.3096225 1.1940418e-38
-1.0734193 -0.69541466 2.3105116 1.3961162e-38
-1.0728191 -0.69182068 2.3119285 1.1665269e-38
-1.074417 -0.68752486 2.3123972 1.4238468e-38
-1.0726119 -0.68382019 2.3144853 1.2031905e-38
-1.0746576 -0.67957717 2.3147008 1.4511833e-38
-1.0751597 -0.67560637 2.31565 1.4513276e-38
-1.0748612 -0.67151874 2.3170581 1.4513276e-38
-1.0761294 -0.66706175 2.3177509 1.2308486e-38
-1.0758724 -0.66352189 2.3189695 1.4606151e-38
-1.0763781 -0.65952343 2.3199251 1.4606151e-38
-1.0768837 -0.65552503 2.3208807 1.386716e-38
-1.0773894 -0.65152657 2.3218362 1.3407982e-38
-1.077895 -0.64752823 2.3227918 2.3484598e-38
-1.0791767 -0.64383984 2.3232419 2.3509879e-38
-1.0796788 -0.63986897 2.3241909 2.3509886e-38
-1.0509084 -0.86592656 2.2702632 1.2308849e-38
-1.0504229 -0.86294562 2.2714319 1.0379219e-38
-1.0524337 -0.84764874 2.2750475 1.3226482e-38
-1.0528495 -0.84257084 2.2763805 1.0837319e-38
-1.0525049 -0.84086919 2.2770834 1.3317603e-38
-1.0539106 -0.83596927 2.2778387 1.3410159e-38
-1.0544028 -0.83207607 2.278769 1.3225407e-38
-1.0529377 -0.8273946 2.2809763 1.1020636e-38
-1.0553874 -0.82428974 2.2806299 1.322506e-38
-1.0568643 -0.81261027 2.2834213 1.3317257e-38
-1.0567319 -0.80872548 2.2846797 1.1389053e-38
-1.0578489 -0.80482394 2.2852819 1.3501268e-38
-1.0583413 -0.80093074 2.2862124 1.3501624e-38
-1.0579563 -0.79775971 2.2873862 1.3593821e-38
-1.0584518 -0.79384065 2.2883227 1.3593821e-38
-1.0589473 -0.78992158 2.2892592 1.3777134e-38
-1.059443 -0.78600258 2.2901962 1.3501624e-38
-1.060267 -0.78258997 2.2908041 1.1204662e-38
-1.0604342 -0.77816451 2.2920694 1.3500918e-38
-1.0601076 -0.77505159 2.2931941 1.1389048e-38
-1.0614253 -0.77032632 2.2939425 1.3593824e-38
-1.0619209 -0.76640731 2.2948792 1.3409073e-38
-1.0615685 -0.76297748 2.2961149 1.3409073e-38
-1.0620672 -0.75903243 2.2970574 1.3409803e-38
-1.062566 -0.75508755 2.2980003 1.3409803e-38
-1.0630648 -0.75114256 2.298943 1.3500918e-38
-1.0635637 -0.74719757 2.2998857 1.3500918e-38
-1.0640626 -0.74325269 2.3008287 1.3500918e-38
-1.0645614 -0.7393077 2.3017714 1.3868626e-38
-1.0650603 -0.73536283 2.3027143 1.3868626e-38
-1.066381 -0.73113585 2.3033085 1.3777509e-38
-1.0668765 -0.72721684 2.3042452 1.4052301e-38
-1.0670558 -0.71958321 2.3064857 1.4144124e-38
-1.0669285 -0.71665651 2.3074477 1.1663838e-38
-1.0680534 -0.71169323 2.3083711 1.3868616e-38
-1.0671895 -0.70867616 2.309751 1.1756392e-38
-1.0682523 -0.70390427 2.3106484 1.4053357e-38
-1.0687544 -0.69993335 2.3115973 1.3868966e-38
-1.0692567 -0.69596255 2.3125465 1.4051928e-38
-1.0697587 -0.69199175 2.3134954 1.4237389e-38
-1.0702608 -0.68802088 2.3144443 1.4054076e-38
-1.0707628 -0.68405008 2.3153932 1.405336e-38
-1.0712651 -0.68007928 2.3163424 1.4511833e-38
-1.070305 -0.67606091 2.3180795 1.2307773e-38
-1.0714452 -0.67202431 2.318711 1.4696944e-38
-1.0719508 -0.66802585 2.3196666 1.5247594e-38
-1.0724564 -0.66402745 2.320622 1.4879171e-38
-1.072962 -0.66002899 2.3215778 1.5062465e-38
-1.0734676 -0.6560306 2.3225334 1.3683489e-38
-1.0739733 -0.6520322 2.323489 1.3775324e-38
-1.0757841 -0.64434195 2.3248832 2.3509886e-38
-1.0412737 -0.91247332 2.2611227 1.0379939e-38
-1.0476042 -0.86641556 2.2718618 1.249288e-38
-1.0482203 -0.85600287 2.2747211 1.0746557e-38
-1.0486152 -0.85203415 2.2757263 1.3042092e-38
-1.0479107 -0.84886545 2.2770684 1.0929151e-38
-1.0486609 -0.84528387 2.2777667 1.3042092e-38
-1.047609 -0.84166378 2.2794311 1.102099e-38
-1.0496521 -0.83744568 2.27964 1.3317603e-38
-1.0510767 -0.83256835 2.2803783 1.3225407e-38
-1.051569 -0.82867527 2.2813089 1.322506e-38
-1.0520612 -0.82478201 2.2822392 1.322506e-38
-1.0525535 -0.82088888 2.2831697 1.3224688e-38
-1.0530459 -0.81699574 2.2841001 1.3225407e-38
-1.0535381 -0.81310248 2.2850304 1.3317257e-38
-1.0540304 -0.80920941 2.2859609 1.3593115e-38
-1.0545228 -0.80531621 2.2868912 1.3593824e-38
-1.0541124 -0.80217433 2.2880697 1.3501624e-38
-1.0546079 -0.79825526 2.2890062 1.3501624e-38
-1.0551034 -0.79433626 2.2899427 1.3501624e-38
-1.054535 -0.79173273 2.2910402 1.138833e-38
-1.0560945 -0.78649813 2.291816 1.3501624e-38
-1.0565902 -0.78257912 2.2927527 1.3500918e-38
-1.0570856 -0.77866 2.2936893 1.3500918e-38
-1.0550785 -0.77592742 2.2955871 1.1389048e-38
-1.0580767 -0.77082187 2.2955625 1.3593824e-38
-1.0583192 -0.76745135 2.2964654 1.1389048e-38
-1.0581979 -0.76347625 2.2977455 1.3593824e-38
-1.0580549 -0.75983524 2.2989347 1.1389053e-38
-1.0591956 -0.75558645 2.2996311 1.3593834e-38
-1.0596945 -0.75164151 2.3005741 1.3500918e-38
-1.0601933 -0.74769652 2.3015168 1.3500918e-38
-1.0611686 -0.7436384 2.3022418 1.1296498e-38
-1.0611911 -0.73980665 2.3034024 1.377643e-38
-1.0616899 -0.73586172 2.3043451 1.396118e-38
-1.0621886 -0.73191679 2.3052878 1.4054095e-38
-1.061703 -0.72772437 2.3068273 1.1663846e-38
-1.0623491 -0.72426045 2.3075449 1.4052651e-38
-1.0628512 -0.72028953 2.3084939 1.4051928e-38
-1.0633534 -0.71631879 2.309443 1.3960811e-38
-1.0638555 -0.71234798 2.3103919 1.3960811e-38
-1.0643575 -0.70837712 2.3113408 1.3960811e-38
-1.0648597 -0.70440638 2.31229 1.4053357e-38
-1.0648916 -0.701047 2.3133006 1.1756387e-38
-1.065864 -0.69646466 2.3141878 1.4051928e-38
-1.0651582 -0.69303513 2.3156104 1.1940418e-38
-1.0668683 -0.68852311 2.3160861 1.4238468e-38
-1.0673703 -0.68455225 2.317035 1.4329587e-38
-1.0678724 -0.68058145 2.3179839 1.4511833e-38
-1.0652725 -0.6770857 2.3204288 1.212374e-38
-1.0677788 -0.67081046 2.3210225 1.2215576e-38
-1.0685345 -0.66853148 2.3213193 1.4879171e-38
-1.0690402 -0.66453314 2.3222752 1.4879171e-38
-1.0695457 -0.66053462 2.3232307 1.5062465e-38
-1.0700514 -0.65653628 2.3241863 1.3591653e-38
-1.070557 -0.65253776 2.3251419 1.386716e-38
-1.0426111 -0.8874253 2.2680771 1.0929872e-38
-1.0425885 -0.88205624 2.2697313 1.0929151e-38
-1.042335 -0.87588549 2.2717531 1.27673e-38
-1.0425614 -0.87263525 2.2726274 1.0930589e-38
-1.0433196 -0.86809915 2.2736139 1.3043167e-38
-1.0438119 -0.86420596 2.2745442 1.2309915e-38
-1.0443041 -0.86031282 2.2754745 1.2859855e-38
-1.0438259 -0.85753661 2.2765772 1.3226482e-38
-1.0443213 -0.85361749 2.2775137 1.3042092e-38
-1.0448169 -0.84969848 2.2784503 1.3042801e-38
-1.0453125 -0.84577948 2.279387 1.340872e-38
-1.045808 -0.84186029 2.2803235 1.3410509e-38
-1.0463037 -0.83794135 2.2812603 1.3042092e-38
-1.0467992 -0.83402222 2.2821968 1.3042092e-38
-1.0472947 -0.83010322 2.2831333 1.3042814e-38
-1.0477904 -0.82618421 2.28407 1.2950618e-38
-1.0492272 -0.82138121 2.2847791 1.2857701e-38
-1.0497195 -0.81748801 2.2857094 1.3224688e-38
-1.0502118 -0.81359488 2.2866399 1.3317603e-38
-1.0496888 -0.80990285 2.2880459 1.1113545e-38
-1.0490816 -0.80494159 2.2898848 1.1297569e-38
-1.0507638 -0.80266988 2.2896898 1.3410509e-38
-1.0512594 -0.79875088 2.2906263 1.359419e-38
-1.051755 -0.79483181 2.291563 1.3318312e-38
-1.0522505 -0.79091275 2.2924995 1.3409429e-38
-1.0527462 -0.7869938 2.2934363 1.3409429e-38
-1.0527434 -0.78413302 2.294313 1.1388336e-38
-1.0537372 -0.77915555 2.2953093 1.3317603e-38
-1.0542327 -0.77523655 2.2962461 1.3500918e-38
-1.0547283 -0.77131748 2.2971826 1.3593115e-38
-1.0552241 -0.76739848 2.2981193 1.3593115e-38
-1.0548275 -0.76397514 2.2993762 1.3593824e-38
-1.0553262 -0.76003015 2.300319 1.3869332e-38
-1.0558251 -0.75608528 2.3012619 1.3869332e-38
-1.0562553 -0.75220686 2.3022208 1.1388336e-38
-1.0568227 -0.74819529 2.3031473 1.3593821e-38
-1.0565299 -0.74427199 2.3045025 1.1296493e-38
-1.0578206 -0.74030548 2.3050332 1.3777136e-38
-1.0583193 -0.73636055 2.3059759 1.3869332e-38
-1.0596708 -0.73356277 2.3061166 1.1664556e-38
-1.0584543 -0.7287333 2.3082373 1.4144124e-38
-1.0589565 -0.72476256 2.3091865 1.4051928e-38
-1.0593786 -0.72020411 2.3103576 1.1663838e-38
-1.059051 -0.71701831 2.3115053 1.3868616e-38
-1.060463 -0.71285009 2.3120337 1.4236332e-38
-1.0599616 -0.70977515 2.3132391 1.1665276e-38
-1.0605677 -0.70502293 2.3143721 1.4237389e-38
-1.0619692 -0.70093763 2.3148804 1.4237389e-38
-1.0624714 -0.69696683 2.3158295 1.423667e-38
-1.0629735 -0.69299603 2.3167784 1.423667e-38
-1.0634756 -0.68902516 2.3177273 1.4052281e-38
-1.0633494 -0.68532985 2.3189244 1.2032615e-38
-1.0644798 -0.68108356 2.3196254 1.451218e-38
-1.0649819 -0.6771127 2.3205743 1.4604376e-38
-1.0646127 -0.67303562 2.322017 1.478555e-38
-1.0651183 -0.66903716 2.3229725 1.4786975e-38
-1.0656239 -0.66503876 2.3239281 1.5061767e-38
-1.0661296 -0.66104031 2.3248837 1.5152881e-38
-1.0666351 -0.65704179 2.325839 1.3407982e-38
-1.0671408 -0.65304339 2.3267949 1.3958995e-38
-1.0341496 -0.92153549 2.2621198 1.2858417e-38
-1.0346386 -0.91766816 2.2630439 1.27673e-38
-1.0351276 -0.9138009 2.2639682 1.27673e-38
-1.0361058 -0.90606636 2.2658167 1.2858417e-38
-1.0376953 -0.88827419 2.2704179 1.0929872e-38
-1.0390089 -0.87637776 2.2733624 1.2859855e-38
-1.0395011 -0.87248456 2.2742927 1.2859855e-38
-1.0399933 -0.86859137 2.275223 1.2858417e-38
-1.0407764 -0.8651334 2.2758667 1.0471767e-38
-1.040978 -0.86080509 2.2770841 1.27673e-38
-1.0404446 -0.85802448 2.2782166 1.0929151e-38
-1.0409731 -0.8541131 2.2791338 1.3042092e-38
-1.0414686 -0.85019404 2.2800703 1.3042801e-38
-1.0409812 -0.84731758 2.281208 1.3132493e-38
-1.0414801 -0.84337264 2.282151 1.3225758e-38
-1.0419791 -0.83942771 2.2830939 1.3042092e-38
-1.0424777 -0.83548272 2.2840364 1.2949897e-38
-1.0439465 -0.83059877 2.2847533 1.3042814e-38
-1.0440266 -0.82655925 2.2859466 1.0929872e-38
-1.0449377 -0.82276076 2.2866268 1.2949897e-38
-1.0454332 -0.81884164 2.2875633 1.3224688e-38
-1.0459287 -0.81492257 2.2884998 1.3317603e-38
-1.0441234 -0.81127483 2.290571 1.1113545e-38
-1.0459696 -0.80786818 2.2906361 1.3410509e-38
-1.0464685 -0.80392325 2.291579 1.3410509e-38
-1.0469673 -0.79997832 2.2925217 1.3317603e-38
-1.047466 -0.79603332 2.2934644 1.3318312e-38
-1.047965 -0.79208845 2.2944074 1.3501624e-38
-1.0493977 -0.78748924 2.2950561 1.3501624e-38
-1.0498934 -0.78357023 2.2959929 1.3500918e-38
-1.0494616 -0.78025359 2.2972357 1.3317603e-38
-1.0499604 -0.77630866 2.2981784 1.3500918e-38
-1.0504593 -0.77236378 2.2991214 1.3593115e-38
-1.050657 -0.76895666 2.3000591 1.1388336e-38
-1.0505427 -0.76497281 2.301338 1.3593824e-38
-1.050373 -0.76131487 2.302547 1.1388689e-38
-1.0515469 -0.7570312 2.303236 1.3777136e-38
-1.0520489 -0.75306034 2.3041849 1.3593115e-38
-1.0534523 -0.74869412 2.3047781 1.3501624e-38
-1.0539511 -0.74474925 2.305721 1.3593824e-38
-1.05445 -0.74080426 2.3066638 1.3869332e-38
-1.0540576 -0.73717713 2.3079813 1.3869332e-38
-1.0545597 -0.73320639 2.3089302 1.3961528e-38
-1.0540193 -0.72908545 2.3104765 1.1663838e-38
-1.0555639 -0.72526467 2.310828 1.4051928e-38
-1.0551293 -0.72152227 2.3122027 1.3960811e-38
-1.0547016 -0.71772474 2.3135908 1.3960811e-38
-1.0552107 -0.71369874 2.3145528 1.3960105e-38
-1.0557199 -0.70967275 2.315515 1.4054445e-38
-1.056229 -0.70564669 2.3164773 1.4237389e-38
-1.056566 -0.70235634 2.3173053 1.1940418e-38
-1.0570966 -0.69671583 2.3187501 1.1940059e-38
-1.0586685 -0.69353324 2.3188918 1.423667e-38
-1.0591743 -0.68953484 2.3198473 1.4236673e-38
-1.0596799 -0.68553644 2.3208029 1.4329587e-38
-1.0601854 -0.68153799 2.3217585 1.451218e-38
-1.0597925 -0.67746431 2.3232124 1.451218e-38
-1.0603017 -0.67343831 2.3241746 1.478555e-38
-1.0602951 -0.66950631 2.3253808 1.249036e-38
-1.0613199 -0.6653862 2.3260992 1.5061767e-38
-1.0627135 -0.66154581 2.3265364 1.4969208e-38
-1.0632191 -0.65754741 2.327492 1.3407982e-38
-1.0637248 -0.65354902 2.3284478 1.4142666e-38
-1.0303564 -0.92589176 2.2627943 1.2310285e-38
-1.0308454 -0.92202449 2.2637184 1.2308143e-38
-1.0352705 -0.88160241 2.2737422 1.0837317e-38
-1.0356826 -0.8768701 2.2749717 1.3226482e-38
-1.035562 -0.87379551 2.2759759 1.0838042e-38
-1.036667 -0.8690837 2.2768323 1.3041745e-38
-1.0371593 -0.86519051 2.2777629 1.285915e-38
-1.0376518 -0.86129743 2.2786937 1.2949549e-38
-1.038144 -0.85740423 2.279624 1.3042814e-38
-1.0376246 -0.8546086 2.2807539 1.2950618e-38
-1.0381975 -0.85100359 2.2815537 1.0929151e-38
-1.0376108 -0.84781641 2.2828388 1.3041013e-38
-1.0378628 -0.84378082 2.2839401 1.0746558e-38
-1.0386086 -0.83992648 2.2847245 1.3041013e-38
-1.038157 -0.83588928 2.2861984 1.0837317e-38
-1.040598 -0.83109432 2.2863734 1.3042814e-38
-1.0410937 -0.82717538 2.2873101 1.2950618e-38
-1.0415891 -0.82325619 2.2882466 1.2950618e-38
-1.0420848 -0.81933725 2.2891834 1.3135011e-38
-1.0425805 -0.81541824 2.2901201 1.3134661e-38
-1.0421004 -0.81231201 2.2913241 1.3227207e-38
-1.0425992 -0.80836701 2.2922668 1.3227207e-38
-1.0430981 -0.80442208 2.2932098 1.359419e-38
-1.043597 -0.80047721 2.2941525 1.3225407e-38
-1.0440958 -0.79653221 2.2950952 1.3593101e-38
-1.0445946 -0.79258728 2.2960382 1.3501268e-38
-1.0460495 -0.78798491 2.2966764 1.3776416e-38
-1.0461137 -0.7849412 2.2975733 1.1296493e-38
-1.0460912 -0.78075242 2.2988665 1.3777134e-38
-1.04659 -0.77680749 2.2998092 1.3317603e-38
-1.0470889 -0.77286261 2.3007522 1.3776786e-38
-1.0466479 -0.76944578 2.3020306 1.3593115e-38
-1.0471501 -0.76547492 2.3029795 1.3409803e-38
-1.0476521 -0.76150411 2.3039284 1.3594543e-38
-1.0481544 -0.75753331 2.3048775 1.3961528e-38
-1.0485584 -0.75365859 2.3058488 1.1205379e-38
-1.0491586 -0.74959171 2.3067756 1.3501268e-38
-1.0496608 -0.74562091 2.3077245 1.3410153e-38
-1.0501629 -0.7416501 2.3086736 1.3594543e-38
-1.0506649 -0.73767918 2.3096225 1.3868613e-38
-1.051167 -0.73370844 2.3105714 1.4144471e-38
-1.0516691 -0.72973758 2.3115203 1.4051555e-38
-1.0512074 -0.72602636 2.3129001 1.4144471e-38
-1.0516127 -0.72155106 2.3140545 1.1664551e-38
-1.0515833 -0.71599478 2.3157697 1.193934e-38
-1.0527244 -0.71403104 2.3157668 1.3960811e-38
-1.05323 -0.7100327 2.3167224 1.4145919e-38
-1.0527891 -0.70615578 2.3181415 1.4053357e-38
-1.0532982 -0.70212972 2.3191037 1.3868966e-38
-1.0538073 -0.69810367 2.320066 1.4327786e-38
-1.0543164 -0.69407767 2.3210282 1.4236673e-38
-1.055758 -0.69004047 2.3215003 1.4330642e-38
-1.0555857 -0.68652034 2.3226683 1.1941126e-38
-1.0558436 -0.68199944 2.3239145 1.4603657e-38
-1.0563527 -0.67797345 2.3248768 1.451218e-38
-1.0568618 -0.67394733 2.3258388 1.4419279e-38
-1.057371 -0.66992134 2.3268011 1.4419988e-38
-1.0584593 -0.66171813 2.3287349 1.2031529e-38
-1.0584234 -0.65608954 2.3304753 1.6632663e-38
-1.0603085 -0.65405464 2.3301005 1.4510008e-38
-1.0270524 -0.92638081 2.2643929 1.2402481e-38
-1.0309101 -0.89656585 2.271472 1.065329e-38
-1.0307322 -0.88942063 2.273752 1.0837316e-38
-1.0328485 -0.87346917 2.2775114 1.285915e-38
-1.0333408 -0.86957604 2.2784419 1.2949549e-38
-1.0337729 -0.86629522 2.279217 1.0654371e-38
-1.0343255 -0.86178976 2.280303 1.2949549e-38
-1.0340663 -0.85848856 2.28145 1.0929874e-38
-1.0342764 -0.85510427 2.2823741 1.3135011e-38
-1.0347718 -0.8511852 2.2833104 1.3042092e-38
-1.0342402 -0.84831524 2.2844696 1.3041013e-38
-1.034739 -0.84437025 2.2854123 1.27673e-38
-1.0352379 -0.84042525 2.286355 1.3041013e-38
-1.0357368 -0.83648038 2.287298 1.2949897e-38
-1.0372498 -0.83159 2.2879937 1.3135011e-38
-1.0369812 -0.82773507 2.289315 1.0929872e-38
-1.0382409 -0.82375187 2.2898669 1.3042814e-38
-1.0387365 -0.81983286 2.2908034 1.3135011e-38
-1.0382311 -0.81675571 2.2920122 1.3042465e-38
-1.0387299 -0.81281084 2.2929547 1.3135011e-38
-1.0392288 -0.8088659 2.2938976 1.3227207e-38
-1.0396312 -0.80448693 2.2950242 1.1205381e-38
-1.0402265 -0.80097604 2.2957833 1.3317603e-38
-1.0407252 -0.79703104 2.296726 1.3500905e-38
-1.0412241 -0.79308611 2.2976689 1.3593824e-38
-1.041723 -0.78914118 2.2986116 1.3776416e-38
-1.0422218 -0.78519619 2.2995543 1.3593824e-38
-1.0427207 -0.78125125 2.3004973 1.3500905e-38
-1.0432526 -0.77807361 2.301188 1.1204661e-38
-1.0437183 -0.77336144 2.3023829 1.3408003e-38
-1.0429407 -0.77047032 2.303679 1.1296499e-38
-1.0437576 -0.76597708 2.304621 1.3593834e-38
-1.0442597 -0.76200622 2.3055699 1.3594543e-38
-1.0447619 -0.75803548 2.306519 1.3777136e-38
-1.0452639 -0.75406462 2.3074679 1.3594543e-38
-1.045766 -0.75009382 2.3084168 1.3593824e-38
-1.046289 -0.74625945 2.3093133 1.1389408e-38
-1.0467703 -0.74215215 2.3103149 1.3686739e-38
-1.0470283 -0.73803693 2.3114371 1.1572e-38
-1.0477746 -0.73421055 2.3122129 1.3960079e-38
-1.0482767 -0.73023975 2.3131618 1.3867164e-38
-1.0487787 -0.72626889 2.3141108 1.3960079e-38
-1.0482969 -0.72253358 2.3155086 1.3961162e-38
-1.0488024 -0.71853507 2.3164639 1.4143755e-38
-1.0493081 -0.71453667 2.3174195 1.3960811e-38
-1.0498136 -0.71053827 2.3183751 1.3961528e-38
-1.0494711 -0.70589787 2.3199761 1.1848224e-38
-1.0498583 -0.7026388 2.3207679 1.3961162e-38
-1.0503675 -0.69861275 2.3217301 1.4327786e-38
-1.0508765 -0.69458675 2.3226922 1.4236673e-38
-1.0523417 -0.6905461 2.3231533 1.4422836e-38
-1.0528473 -0.6865477 2.3241086 1.4422836e-38
-1.0524276 -0.68130589 2.3259342 1.2123013e-38
-1.052913 -0.67848253 2.3265409 1.451218e-38
-1.0534221 -0.67445648 2.3275032 1.4419279e-38
-1.053025 -0.67072076 2.3288562 1.2307405e-38
-1.0544404 -0.66640443 2.3294277 1.4513237e-38
-1.0549495 -0.66237843 2.33039 1.4787313e-38
-1.0554584 -0.65835232 2.331352 1.3224311e-38
-1.0559676 -0.65432632 2.3323143 1.4510008e-38
-1.0206611 -0.94403845 2.2623734 1.2674386e-38
-1.0222812 -0.93847173 2.2632189 1.2309196e-38
-1.0227702 -0.93460441 2.264143 1.2493227e-38
-1.023259 -0.93073702 2.2650671 1.2493227e-38
-1.0237483 -0.92686987 2.2659917 1.2494664e-38
-1.0289501 -0.88195014 2.2769799 1.1113543e-38
-1.0292442 -0.87417614 2.2792022 1.1022778e-38
-1.0300146 -0.87006831 2.2800512 1.3043517e-38
-1.030507 -0.86617517 2.2809818 1.2860205e-38
-1.0299368 -0.86343783 2.2821207 1.27673e-38
-1.0304325 -0.85951889 2.2830575 1.3042092e-38
-1.030928 -0.85559982 2.283994 1.3226482e-38
-1.0311497 -0.85217386 2.2849243 1.102171e-38
-1.0308698 -0.84881413 2.2861006 1.2949897e-38
-1.0314466 -0.84431481 2.2871714 1.0837673e-38
-1.0329102 -0.83992356 2.2877402 1.2949897e-38
-1.0334059 -0.83600456 2.288677 1.2675826e-38
-1.0339013 -0.83208543 2.2896135 1.3227207e-38
-1.034397 -0.82816648 2.2905502 1.3135011e-38
-1.0348926 -0.82424742 2.2914867 1.3135011e-38
-1.0351815 -0.8201859 2.2925761 1.0929874e-38
-1.0348606 -0.81725454 2.293643 1.3226482e-38
-1.0348371 -0.81283945 2.2950058 1.1114256e-38
-1.0358583 -0.80936474 2.2955284 1.3043869e-38
-1.0363572 -0.8054198 2.2964714 1.3318312e-38
-1.0368558 -0.80147481 2.2974138 1.3592751e-38
-1.0373547 -0.79752988 2.2983568 1.3592395e-38
-1.0381312 -0.79442292 2.2988963 1.1480171e-38
-1.0383525 -0.78964007 2.3002427 1.3868613e-38
-1.0384248 -0.78651047 2.3011615 1.1389048e-38
-1.0383565 -0.78236252 2.3024666 1.3500918e-38
-1.0388585 -0.77839166 2.3034155 1.3317976e-38
-1.0393608 -0.77442086 2.3043644 1.3500918e-38
-1.0398628 -0.77045 2.3053133 1.3500918e-38
-1.040365 -0.76647919 2.3062625 1.3593824e-38
-1.0411198 -0.76281554 2.3069837 1.1389049e-38
-1.0413692 -0.75853753 2.3081603 1.368602e-38
-1.0414119 -0.75484926 2.3092661 1.138976e-38
-1.0423734 -0.75059593 2.3100584 1.3594543e-38
-1.0428755 -0.74662507 2.3110073 1.3961528e-38
-1.0433776 -0.74265432 2.3119564 1.3686739e-38
-1.0438797 -0.7386834 2.3129051 1.3410153e-38
-1.0443819 -0.73471266 2.3138542 1.3869332e-38
-1.0448841 -0.73074186 2.3148034 1.3500549e-38
-1.0453862 -0.72677106 2.3157525 1.3870411e-38
-1.0444145 -0.72275627 2.3174944 1.1664551e-38
-1.0453862 -0.71904069 2.3181169 1.3961162e-38
-1.045892 -0.71504235 2.3190727 1.3870411e-38
-1.0463974 -0.71104383 2.3200281 1.368637e-38
-1.0459096 -0.707174 2.3214703 1.3961162e-38
-1.0464187 -0.70314789 2.3224323 1.4144471e-38
-1.0469278 -0.69912189 2.3233945 1.4237038e-38
-1.0474368 -0.69509584 2.3243566 1.405336e-38
-1.048455 -0.68704367 2.3262808 1.4421783e-38
-1.0489643 -0.68301773 2.3272433 1.4604376e-38
-1.0494733 -0.67899162 2.3282053 1.451218e-38
-1.0499824 -0.67496556 2.3291676 1.4420716e-38
-1.0504915 -0.67093951 2.3301296 1.4328162e-38
-1.0510006 -0.66691351 2.3310919 1.4328162e-38
-1.0511849 -0.66293436 2.3322117 1.2214855e-38
-1.0511532 -0.6573205 2.3339458 1.6263882e-38
-1.0525279 -0.6548354 2.3339784 1.5061021e-38
-1.0539815 -0.65106738 2.3343618 2.3509825e-38
-1.0173348 -0.94453073 2.2639828 1.2858417e-38
-1.017827 -0.94063753 2.2649131 1.2309196e-38
-1.0237756 -0.89056355 2.2770829 1.0928791e-38
-1.0261961 -0.87445378 2.2807305 1.2860205e-38
-1.0266885 -0.87056071 2.2816608 1.2859126e-38
-1.0260903 -0.86820042 2.2826991 1.0838745e-38
-1.0265884 -0.86393344 2.2837408 1.2859855e-38
-1.0263942 -0.86036122 2.2849362 1.0837316e-38
-1.0275795 -0.85609531 2.285614 1.3042092e-38
-1.0280752 -0.85217637 2.2865508 1.3042814e-38
-1.0285707 -0.8482573 2.2874873 1.2949897e-38
-1.0290663 -0.84433824 2.288424 1.2858417e-38
-1.029562 -0.84041917 2.2893605 1.2949897e-38
-1.0296437 -0.83676612 2.2904346 1.0838755e-38
-1.0305531 -0.8325811 2.2912338 1.3227207e-38
-1.0299422 -0.82890737 2.2926805 1.102171e-38
-1.0315442 -0.82474297 2.293107 1.3135011e-38
-1.0320398 -0.82082397 2.2940435 1.3227207e-38
-1.0314901 -0.81775337 2.2952738 1.3042092e-38
-1.0319889 -0.81380856 2.2962165 1.3135717e-38
-1.0324879 -0.80986363 2.2971594 1.3136065e-38
-1.0325363 -0.80567271 2.2984157 1.1205374e-38
-1.0334854 -0.8019737 2.2990448 1.3316164e-38
-1.0339842 -0.79802871 2.2999876 1.3408003e-38
-1.0344832 -0.79408383 2.3009305 1.3683511e-38
-1.034982 -0.7901389 2.3018732 1.3776416e-38
-1.0354809 -0.78619391 2.3028159 1.3593824e-38
-1.0349638 -0.78286463 2.3041079 1.3500918e-38
-1.0355016 -0.77962172 2.3048155 1.1205388e-38
-1.0359682 -0.77492303 2.306006 1.3500918e-38
-1.0357985 -0.77165568 2.3070951 1.1296499e-38
-1.0369724 -0.7669813 2.307904 1.3593824e-38
-1.0374744 -0.7630105 2.3088529 1.3593824e-38
-1.0379765 -0.75903964 2.3098018 1.3593824e-38
-1.0384786 -0.75506884 2.3107507 1.359489e-38
-1.0389808 -0.75109804 2.3116999 1.3594543e-38
-1.0395902 -0.74719566 2.3125713 1.1664556e-38
-1.0399851 -0.74315643 2.3135979 1.3686739e-38
-1.039884 -0.73922944 2.3148527 1.1481243e-38
-1.0409894 -0.73521483 2.315496 1.3777136e-38
-1.0414915 -0.73124397 2.3164449 1.3777136e-38
-1.0419935 -0.72727317 2.3173938 1.3870411e-38
-1.0414644 -0.72354478 2.3188143 1.3961162e-38
-1.0419703 -0.71954638 2.3197699 1.3961162e-38
-1.0425829 -0.71504956 2.320821 1.175711e-38
-1.0419607 -0.71170914 2.3221722 1.3778566e-38
-1.0422424 -0.70710963 2.3234301 1.1756387e-38
-1.042979 -0.70365709 2.3240967 1.4052276e-38
-1.0434879 -0.69963092 2.3250585 1.3960811e-38
-1.0439972 -0.69560498 2.326021 1.4329587e-38
-1.0445062 -0.69157887 2.326983 1.4330642e-38
-1.0450153 -0.68755287 2.3279452 1.4329587e-38
-1.0455244 -0.68352675 2.3289073 1.451218e-38
-1.0459222 -0.67995131 2.3297908 1.2215569e-38
-1.0465786 -0.66727853 2.3333199 1.4696944e-38
-1.0480698 -0.66339654 2.3337183 1.4694061e-38
-1.048579 -0.65937054 2.3346806 1.304064e-38
-1.0490881 -0.65534449 2.3356428 1.5152857e-38
-1.0505656 -0.65157306 2.3360147 2.3509831e-38
-1.0140086 -0.945023 2.2655921 1.2308117e-38
-1.014501 -0.94112986 2.2665224 1.2492161e-38
-1.0159777 -0.92945033 2.2693136 1.2493227e-38
-1.01647 -0.92555708 2.2702439 1.2584357e-38
-1.0180062 -0.91471761 2.272747 1.037957e-38
-1.0183101 -0.90694439 2.2749639 1.0746196e-38
-1.0219893 -0.88309473 2.280313 1.0838042e-38
-1.0223776 -0.87883925 2.2814093 1.2859855e-38
-1.0215834 -0.87610584 2.2826655 1.0563965e-38
-1.022249 -0.87226713 2.2834876 1.2402115e-38
-1.0227445 -0.86834812 2.2844243 1.2494311e-38
-1.0243468 -0.86326659 2.2851307 1.3135377e-38
-1.0242312 -0.85659093 2.2872341 1.2949897e-38
-1.0241086 -0.8533408 2.2882931 1.0838029e-38
-1.0252223 -0.84875292 2.2891073 1.3226114e-38
-1.0257179 -0.84483373 2.2900438 1.2949897e-38
-1.0262134 -0.84091467 2.2909803 1.3042092e-38
-1.0267091 -0.83699566 2.2919171 1.3042814e-38
-1.0272046 -0.83307666 2.2928536 1.3227207e-38
-1.0277002 -0.82915759 2.2937903 1.3135011e-38
-1.0281957 -0.82523853 2.2947268 1.3042814e-38
-1.0281383 -0.82135969 2.295944 1.1205375e-38
-1.029187 -0.81740052 2.2966003 1.3135717e-38
-1.0286185 -0.81430739 2.297847 1.3135717e-38
-1.0291173 -0.81036246 2.29879 1.359454e-38
-1.0296161 -0.80641741 2.2997324 1.3318312e-38
-1.030115 -0.80247253 2.3006754 1.3132496e-38
-1.0306139 -0.7985276 2.3016183 1.340871e-38
-1.0310342 -0.79559606 2.3022926 1.1296851e-38
-1.0316116 -0.79063773 2.303504 1.3593821e-38
-1.0313345 -0.78768378 2.304554 1.1205381e-38
-1.0315713 -0.78336674 2.3057494 1.359419e-38
-1.0320733 -0.77939588 2.3066983 1.3317603e-38
-1.0325754 -0.77542508 2.3076472 1.3500199e-38
-1.0330776 -0.77145422 2.3085964 1.3592395e-38
-1.0335798 -0.76748347 2.3095455 1.3593115e-38
-1.0339735 -0.76400262 2.3104019 1.1205022e-38
-1.034584 -0.75954187 2.3114436 1.3593824e-38
-1.0342721 -0.75603658 2.3126807 1.157236e-38
-1.0355883 -0.75160021 2.3133414 1.4051928e-38
-1.0350146 -0.74804091 2.3147335 1.4144124e-38
-1.0365925 -0.74365854 2.3152394 1.3869332e-38
-1.0370946 -0.73968774 2.3161883 1.3776066e-38
-1.0375966 -0.73571688 2.3171372 1.368422e-38
-1.0380611 -0.73157686 2.3181577 1.1571282e-38
-1.0386009 -0.72777528 2.3190353 1.4328515e-38
-1.0376976 -0.72376436 2.3207402 1.1664198e-38
-1.038554 -0.72005188 2.3214226 1.4144124e-38
-1.0390596 -0.71605349 2.3223784 1.4328515e-38
-1.0385208 -0.71221817 2.3238363 1.3777136e-38
-1.03903 -0.70819217 2.3247986 1.4144124e-38
-1.0395391 -0.70416611 2.3257608 1.4051928e-38
-1.0403984 -0.69937181 2.3267727 1.2030824e-38
-1.0405573 -0.696114 2.3276851 1.423667e-38
-1.0410664 -0.69208801 2.3286474 1.4237391e-38
-1.0415754 -0.68806189 2.3296094 1.4604376e-38
-1.0420846 -0.68403584 2.3305717 1.4327789e-38
-1.0425936 -0.68000978 2.3315337 1.4604029e-38
-1.0431029 -0.67598379 2.3324962 1.5062135e-38
-1.0436119 -0.67195773 2.3334584 1.5155051e-38
-1.044121 -0.66793168 2.3344204 1.5062135e-38
-1.0446301 -0.66390568 2.3353827 1.487736e-38
-1.04389 -0.658548 2.3374131 1.644611e-38
-1.0456485 -0.65585363 2.3373072 1.5979376e-38
-1.0471493 -0.65207863 2.3376675 2.3509856e-38
-1.047655 -0.64808017 2.3386233 2.3509886e-38
-1.0106823 -0.94551533 2.2672014 1.2308117e-38
-1.0131437 -0.92604947 2.2718534 1.2399965e-38
-1.0151129 -0.91047686 2.2755752 1.2493227e-38
-1.0156051 -0.90658367 2.2765055 1.27673e-38
-1.0160974 -0.90269053 2.277436 1.2949897e-38
-1.0165205 -0.89947599 2.2781954 1.0929151e-38
-1.0175743 -0.891011 2.2802272 1.3042092e-38
-1.0180666 -0.88711786 2.2811577 1.3041745e-38
-1.0164037 -0.88475275 2.2827611 1.0745845e-38
-1.0195436 -0.87543839 2.2839491 1.2494311e-38
-1.0200359 -0.87154526 2.2848794 1.2494311e-38
-1.0197854 -0.86860853 2.2859104 1.0563966e-38
-1.0208827 -0.85708648 2.2888541 1.2949897e-38
-1.0213784 -0.85316753 2.2897909 1.304352e-38
-1.0218741 -0.84924847 2.2907274 1.3041364e-38
-1.0222995 -0.84579349 2.291559 1.0929151e-38
-1.0228652 -0.84141034 2.2926006 1.3042092e-38
-1.0226047 -0.83793479 2.2938015 1.0929872e-38
-1.0238563 -0.83357221 2.2944739 1.3227207e-38
-1.0243518 -0.8296532 2.2954104 1.3227207e-38
-1.0248473 -0.82573408 2.2963469 1.3135011e-38
-1.0253429 -0.82181513 2.2972836 1.3318312e-38
-1.0258385 -0.81789601 2.2982202 1.3135717e-38
-1.0256472 -0.81433558 2.2994108 1.102242e-38
-1.0257468 -0.81086129 2.3004208 1.3410509e-38
-1.0254481 -0.80685496 2.3018041 1.1205374e-38
-1.0267446 -0.80297142 2.3023064 1.3500918e-38
-1.0272434 -0.79902643 2.3032491 1.3500905e-38
-1.0266722 -0.79578131 2.304544 1.3501624e-38
-1.0271744 -0.79181045 2.3054929 1.3501624e-38
-1.0276766 -0.78783965 2.306442 1.3318323e-38
-1.0281787 -0.78386885 2.3073909 1.3317603e-38
-1.0283595 -0.78080344 2.3082328 1.1297218e-38
-1.0291829 -0.77592725 2.309289 1.3408003e-38
-1.0286633 -0.7728377 2.310509 1.1296139e-38
-1.0301871 -0.76798552 2.3111868 1.3593115e-38
-1.0306892 -0.76401478 2.3121359 1.3593834e-38
-1.0311913 -0.76004392 2.3130848 1.3593824e-38
-1.0316935 -0.75607312 2.3140337 1.3777136e-38
-1.0321956 -0.75210232 2.3149829 1.4051928e-38
-1.0324459 -0.74838442 2.3159873 1.1755674e-38
-1.0331998 -0.74416065 2.3168807 1.3869332e-38
-1.032746 -0.74041837 2.3182654 1.1571287e-38
-1.034204 -0.73621905 2.3187788 1.3776416e-38
-1.0347061 -0.73224819 2.3197277 1.3959731e-38
-1.0352083 -0.72827739 2.3206768 1.4051928e-38
-1.0346321 -0.72455597 2.32212 1.3960811e-38
-1.0351377 -0.72055751 2.3230755 1.4051928e-38
-1.0358626 -0.71608073 2.3240614 1.1755674e-38
-1.0350811 -0.71272737 2.3255007 1.3869332e-38
-1.0350201 -0.708318 2.3268819 1.1755674e-38
-1.0360993 -0.7046752 2.327425 1.4051928e-38
-1.0366085 -0.70064914 2.3283873 1.4234523e-38
-1.0371176 -0.69662321 2.3293495 1.423667e-38
-1.0376267 -0.69259715 2.3303118 1.4329587e-38
-1.0381358 -0.68857104 2.3312738 1.451218e-38
-1.0386449 -0.68454504 2.3322361 1.451218e-38
-1.0391538 -0.68051893 2.3331981 1.4604029e-38
-1.0396631 -0.67649293 2.3341606 1.4693713e-38
-1.0401721 -0.67246681 2.3351226 1.4786269e-38
-1.0406812 -0.66844082 2.3360848 1.478555e-38
-1.0411903 -0.66441476 2.3370469 1.4601849e-38
-1.0416994 -0.66038871 2.3380091 1.3224311e-38
-1.0422084 -0.65636265 2.3389711 1.6254883e-38
-1.0437331 -0.65258431 2.3393207 2.3509859e-38
-1.010802 -0.91875541 2.2753236 1.2858417e-38
-1.0102931 -0.91681182 2.2761874 1.0745838e-38
-1.0117867 -0.9109692 2.2771845 1.2858417e-38
-1.0122789 -0.90707594 2.2781148 1.2950971e-38
-1.0127711 -0.9031828 2.2790451 1.3041719e-38
-1.0139811 -0.89286804 2.2815604 1.074548e-38
-1.0162174 -0.87593067 2.2855582 1.2859855e-38
-1.0179845 -0.86111218 2.2891562 1.0930223e-38
-1.0175345 -0.85758209 2.2904742 1.2950966e-38
-1.0170741 -0.85450423 2.2916591 1.0929873e-38
-1.0185257 -0.84974408 2.2923477 1.2857701e-38
-1.0190213 -0.84582496 2.2932842 1.2857701e-38
-1.0195168 -0.84190589 2.2942204 1.3224341e-38
-1.0200124 -0.83798677 2.2951572 1.3500199e-38
-1.0205079 -0.83406776 2.2960937 1.340872e-38
-1.0200849 -0.8309809 2.2972617 1.1113904e-38
-1.0203811 -0.82713985 2.2982805 1.3135011e-38
-1.020396 -0.82308942 2.2995114 1.1205375e-38
-1.0213786 -0.81924987 2.3001659 1.2950966e-38
-1.0218775 -0.81530511 2.3011088 1.3135717e-38
-1.0223762 -0.81136006 2.3020513 1.3410509e-38
-1.0228751 -0.80741513 2.3029943 1.3593101e-38
-1.0233741 -0.80347025 2.3039372 1.3500905e-38
-1.0229373 -0.79971778 2.305316 1.1296842e-38
-1.0221149 -0.79703337 2.3065724 1.3593807e-38
-1.022514 -0.79222846 2.3078308 1.1296852e-38
-1.0231261 -0.78903645 2.3084834 1.3225071e-38
-1.0236318 -0.78503805 2.3094392 1.3133212e-38
-1.0241374 -0.78103966 2.3103948 1.3500905e-38
-1.0246429 -0.7770412 2.3113501 1.340871e-38
-1.0251485 -0.77304274 2.3123057 1.3683502e-38
-1.0256542 -0.76904434 2.3132615 1.3868613e-38
-1.0261174 -0.76551944 2.3140945 1.157236e-38
-1.0266653 -0.76104742 2.3151724 1.3501624e-38
-1.0264269 -0.75751883 2.3163779 1.1664195e-38
-1.0276766 -0.75305057 2.3170838 1.4051928e-38
-1.0293051 -0.74863356 2.3175731 1.3593104e-38
-1.0298073 -0.74466276 2.3185222 1.3592399e-38
-1.0303094 -0.7406919 2.3194711 1.3959032e-38
-1.0308115 -0.73672116 2.3204203 1.3959023e-38
-1.0309191 -0.7327674 2.3215725 1.1755674e-38
-1.0318156 -0.72877949 2.3223181 1.3593824e-38
-1.0305285 -0.72496039 2.3241675 1.1848228e-38
-1.0317216 -0.7210632 2.3247285 1.3868613e-38
-1.0311322 -0.71726245 2.3262029 1.4051208e-38
-1.0316414 -0.71323645 2.3271651 1.3868966e-38
-1.0321504 -0.70921034 2.3281271 1.3961162e-38
-1.0326595 -0.70518428 2.3290894 1.3868966e-38
-1.0331717 -0.70058155 2.3302264 1.2031535e-38
-1.0336778 -0.69713229 2.3310139 1.4419982e-38
-1.0334766 -0.69252515 2.3325298 1.2215569e-38
-1.034696 -0.68908018 2.3329382 1.5061414e-38
-1.0352049 -0.68505406 2.3339002 1.469371e-38
-1.0357141 -0.68102807 2.3348627 1.4601865e-38
-1.0362232 -0.67700195 2.3358247 1.4694061e-38
-1.0368264 -0.67339295 2.3366094 1.2581488e-38
-1.0372415 -0.6689499 2.337749 1.4877387e-38
-1.0371268 -0.66531438 2.3389215 1.2030457e-38
-1.0382596 -0.66089785 2.3396733 1.3775324e-38
-1.0387688 -0.6568718 2.3406355 1.7081402e-38
-1.0392778 -0.65284568 2.3415976 2.350988e-38
-1.0397871 -0.64881974 2.3425601 2.3509886e-38
-1.0074759 -0.91924769 2.276933 1.2858417e-38
-1.0079682 -0.91535461 2.2778633 1.2858417e-38
-1.0084605 -0.91146147 2.2787938 1.2674386e-38
-1.0084864 -0.90931559 2.2794366 1.0653642e-38
-1.0082393 -0.90510619 2.2808549 1.2765493e-38
-1.0088028 -0.9015097 2.2816567 1.0837316e-38
-1.0104297 -0.89588881 2.2825158 1.3041013e-38
-1.0123988 -0.88031614 2.2862372 1.2859855e-38
-1.0124884 -0.87756604 2.2870309 1.0838392e-38
-1.0122039 -0.87375385 2.288348 1.2860205e-38
-1.0128014 -0.86975998 2.2892532 1.074727e-38
-1.0136906 -0.86199671 2.2911577 1.304352e-38
-1.0141861 -0.85807765 2.2920942 1.304352e-38
-1.0146817 -0.85415864 2.293031 1.3042814e-38
-1.0151774 -0.85023963 2.2939675 1.2949897e-38
-1.0152606 -0.84695846 2.2949271 1.0929511e-38
-1.0161685 -0.84240144 2.2958407 1.3224341e-38
-1.0155723 -0.83909988 2.2971659 1.1203945e-38
-1.0171596 -0.83456337 2.297714 1.3132493e-38
-1.0165116 -0.83158356 2.2989683 1.3042814e-38
-1.0170106 -0.82763869 2.2999113 1.3135011e-38
-1.0175092 -0.82369363 2.3008537 1.3318312e-38
-1.0180081 -0.81974876 2.3017967 1.304352e-38
-1.0180562 -0.81594604 2.3029346 1.0930223e-38
-1.0190058 -0.81185895 2.3036821 1.3318312e-38
-1.0183662 -0.80803388 2.3051908 1.129649e-38
-1.0200036 -0.80396909 2.3055677 1.3500905e-38
-1.0193851 -0.80075634 2.3068779 1.3501253e-38
-1.0186988 -0.79753888 2.3082252 1.3501253e-38
-1.0203892 -0.79281461 2.3087757 1.3593824e-38
-1.0208913 -0.78884387 2.3097248 1.3502017e-38
-1.0202156 -0.78554362 2.3110919 1.3225407e-38
-1.0209901 -0.78204244 2.311753 1.129649e-38
-1.0212269 -0.77754682 2.3130031 1.3500905e-38
-1.0207962 -0.77438802 2.3141971 1.1479445e-38
-1.0222379 -0.76954979 2.314914 1.3776416e-38
-1.0227437 -0.76555151 2.3158698 1.368422e-38
-1.0232493 -0.76155305 2.3168254 1.3501624e-38
-1.0237548 -0.75755465 2.317781 1.3776416e-38
-1.0242605 -0.75355619 2.3187366 1.3959731e-38
-1.024085 -0.75009674 2.3198876 1.157236e-38
-1.0252718 -0.74555933 2.3206477 1.377643e-38
-1.0257773 -0.74156088 2.3216033 1.3959032e-38
-1.026283 -0.73756248 2.3225589 1.3959023e-38
-1.0267886 -0.73356402 2.3235145 1.3959731e-38
-1.0272942 -0.72956562 2.32447 1.3870411e-38
-1.0277997 -0.72556716 2.3254254 1.3776416e-38
-1.0271832 -0.72179753 2.3269048 1.3776416e-38
-1.0279857 -0.71740466 2.3278241 1.1663118e-38
-1.0282016 -0.71374553 2.3288293 1.3961162e-38
-1.0287106 -0.70971942 2.3297915 1.4237389e-38
-1.0292197 -0.70569342 2.3307536 1.3961162e-38
-1.0297289 -0.70166737 2.3317158 1.4143755e-38
-1.0302379 -0.69764131 2.3326778 1.4327786e-38
-1.0307472 -0.69361538 2.3336403 1.451218e-38
-1.0312561 -0.6895892 2.3346021 1.4785544e-38
-1.0317652 -0.68556321 2.3355646 1.469371e-38
-1.0322742 -0.68153709 2.3365266 1.4694061e-38
-1.0327834 -0.6775111 2.3374889 1.4786256e-38
-1.0332925 -0.67348504 2.3384511 1.5061061e-38
-1.0338016 -0.66945893 2.3394132 1.4969224e-38
-1.0343108 -0.66543305 2.3403757 1.4785525e-38
-1.0348198 -0.66140693 2.3413377 1.386716e-38
-1.035329 -0.65738088 2.3422999 1.7265073e-38
-1.035838 -0.65335476 2.343262 2.3509883e-38
-1.0036572 -0.92363322 2.277612 1.3133209e-38
-1.0041494 -0.91974002 2.2785423 1.2858417e-38
-1.0025219 -0.91892177 2.2796538 1.09288e-38
