# .PCD v0.7 - Point Cloud Data file format
VERSION 0.7
FIELDS x y z rgb
SIZE 4 4 4 4
TYPE F F F F
COUNT 1 1 1 1
WIDTH 655
HEIGHT 1
VIEWPOINT 0 0 0 1 0 0 0
POINTS 655
DATA ascii
1.8257166 0.55298865 0.87557787 4.1434308e-39
1.8485469 0.4959138 0.84588104 1.4655857e-38
1.8461118 0.50252044 0.84853756 1.4562565e-38
1.8633331 0.45585549 0.82968968 3.0399377e-39
1.8878009 0.43944877 0.75383377 4.0533651e-39
1.8889382 0.44176474 0.74727982 4.0537266e-39
1.8578594 0.5460977 0.76150602 5.4272822e-39
1.8774921 0.49517739 0.73777771 4.5917748e-40
1.8332676 0.64389795 0.75776869 2.204782e-39
1.8598859 0.56835479 0.73199481 9.6751335e-39
1.8356187 0.68748391 0.70605719 1.2883546e-38
1.835416 0.70083374 0.69368899 1.1593514e-38
1.8369799 0.7022754 0.68639022 1.2145984e-38
1.8347895 0.70979851 0.68722612 1.1778655e-38
1.8387885 0.7029407 0.67893606 1.3438916e-38
1.8367219 0.70843226 0.68130451 1.3896259e-38
1.8347645 0.71449697 0.68269873 1.3435993e-38
1.8386941 0.70790452 0.67440856 1.4638854e-38
1.8392744 0.70748484 0.67263949 1.2612015e-38
1.8366703 0.71459258 0.67543912 1.2147067e-38
1.8411865 0.70608252 0.66682947 1.3349593e-38
1.8397077 0.71140575 0.66715384 1.3532171e-38
1.8373163 0.71838593 0.66927934 1.2975739e-38
1.8356026 0.72430843 0.6698969 1.0858125e-38
1.8409196 0.71307075 0.66095966 1.113833e-38
1.8388637 0.71960509 0.66226208 1.2426199e-38
1.8400756 0.72127008 0.65606773 1.3900954e-38
1.8386178 0.72685444 0.65605593 1.1872648e-38
1.8414354 0.72390485 0.64836401 1.1326323e-38
1.8397697 0.72823787 0.6503647 1.1597893e-38
1.8392581 0.73074204 0.64982551 1.2057408e-38
1.8414427 0.72906005 0.64326578 1.2981175e-38
1.8095639 0.82950538 0.66432381 1.6405419e-38
1.8423318 0.73194504 0.6370852 1.5469011e-38
1.8459753 0.72974783 0.62554765 1.2705275e-38
1.8448293 0.73564488 0.62405616 1.4915076e-38
1.8482007 0.72684497 0.62003618 9.2029646e-39
1.8498936 0.72781491 0.61271685 1.187375e-38
1.8490627 0.73061824 0.61308336 1.2519458e-38
1.8523291 0.72640699 0.60494435 1.4088254e-38
1.8510314 0.73281127 0.60352463 1.3071549e-38
1.848219 0.73903042 0.60798126 1.3898821e-38
1.8550326 0.72400415 0.59714413 1.5843229e-38
1.8535812 0.72987717 0.59682399 1.408566e-38
1.8510282 0.73610908 0.6002928 1.4085684e-38
1.8190452 0.83916128 0.61917877 1.7787976e-38
1.8162593 0.84696078 0.62198162 1.7143703e-38
1.8557978 0.7272085 0.591115 1.1965218e-38
1.8542061 0.732292 0.59209919 1.4637413e-38
1.8523388 0.73879731 0.59272093 1.2794602e-38
1.8576263 0.727696 0.5837605 1.2243593e-38
1.8550258 0.73411918 0.58722001 1.3441063e-38
1.8207597 0.84507734 0.60691351 1.7512474e-38
1.8578784 0.73253185 0.57805634 1.4544856e-38
1.8536606 0.74396765 0.58266604 1.058334e-38
1.8590436 0.73243672 0.57376885 1.2059938e-38
1.8234671 0.84512371 0.59668803 1.6774914e-38
1.8616955 0.73013365 0.5660637 1.3349212e-38
1.82122 0.86050093 0.59001136 1.5853327e-38
1.8605644 0.73884523 0.56174779 1.2887874e-38
1.824381 0.85312867 0.58537894 1.5299054e-38
1.8252978 0.85573965 0.57936329 1.6219573e-38
1.8242064 0.86688763 0.57250148 1.6683795e-38
1.8300124 0.85313004 0.56420439 1.8341516e-38
1.8275435 0.86038649 0.56634986 1.6316106e-38
1.8294821 0.85975736 0.55968034 1.7141898e-38
1.827273 0.86596084 0.56188369 1.7510677e-38
1.8250639 0.87216419 0.56408721 1.6867469e-38
1.8312739 0.85750109 0.55516231 1.6499394e-38
1.8282254 0.86844093 0.55586368 1.5116104e-38
1.842253 0.51011324 0.85557753 2.3509886e-38
1.8370745 0.5232504 0.86212552 2.3509886e-38
1.8353763 0.52965194 0.86221421 2.3509886e-38
1.8247528 0.56824303 0.86419702 9.671123e-39
1.8224349 0.5748291 0.8664341 9.3027132e-39
1.884798 0.44513303 0.75953251 4.4214246e-39
1.8828332 0.45197067 0.760194 3.8679005e-39
1.8858824 0.44780049 0.75283265 4.4214246e-39
1.8883091 0.44286349 0.74856448 5.3433809e-39
1.8849895 0.45727578 0.74686915 3.8682508e-39
1.8897359 0.44592378 0.74018991 5.1586393e-39
1.84033 0.72201157 0.65438247 1.3161232e-38
1.8549592 0.73641568 0.58521169 1.6111849e-38
1.82762 0.85986406 0.56657577 1.8802125e-38
1.8177049 0.58388019 0.87531477 0
1.8353623 0.706635 0.68818372 8.737648e-39
1.8376068 0.71993488 0.66666353 1.0492214e-38
1.840577 0.7172513 0.65813631 1.2518015e-38
1.8445854 0.7260673 0.63439387 4.9594755e-39
1.8475878 0.72335446 0.62577349 7.4490784e-39
1.8458549 0.72797149 0.62774736 1.16897e-38
1.8420359 0.74258286 0.62773424 1.1139731e-38
1.857197 0.71808344 0.59482986 1.3722772e-38
1.8545409 0.72526205 0.59775507 1.390312e-38
1.8584054 0.72014588 0.58825773 1.0960404e-38
1.8291306 0.54557502 0.87003416 0
1.8248528 0.55917114 0.87274414 3.036007e-39
1.822714 0.56596935 0.8740992 6.4285408e-40
1.8205752 0.57276732 0.87545413 9.1835496e-40
1.8184363 0.57956529 0.87680912 0
1.8162974 0.58636343 0.87816411 5.5101298e-40
1.8143728 0.5934909 0.87838989 3.775709e-39
1.8077203 0.61400121 0.88322747 1.5626384e-39
1.8269242 0.55921966 0.86490881 5.9873027e-39
1.8247693 0.5671978 0.86516303 6.5411645e-39
1.821836 0.57449955 0.86900979 8.1985419e-39
1.8196971 0.58129758 0.87036484 7.7350624e-39
1.8183531 0.58734834 0.86946684 2.5767749e-39
1.8154287 0.59565443 0.87229133 5.1582469e-39
1.812609 0.60256797 0.87609297 5.0621066e-39
1.8085395 0.61635482 0.87783182 4.4171002e-39
1.8434546 0.51380593 0.84742743 2.8519282e-39
1.8258275 0.56935203 0.85906589 8.0127073e-39
1.823457 0.57579273 0.8616432 7.3695001e-39
1.8189758 0.58983803 0.86467689 2.9434134e-39
1.8152895 0.59773839 0.87076569 5.9829853e-39
1.8269953 0.57095647 0.8530972 8.9343077e-39
1.82452 0.57753789 0.85592997 8.6584354e-39
1.8228458 0.58520657 0.85468179 8.1978286e-39
1.8201138 0.59108603 0.8591705 4.7833547e-39
1.8183353 0.59856409 0.85850191 5.0642506e-39
1.8158406 0.6052078 0.86134607 5.8904155e-39
1.8218706 0.59293729 0.85074419 6.0755397e-39
1.8198289 0.60136306 0.85013336 3.8639236e-39
1.817314 0.60799646 0.85306323 5.7067361e-39
1.8234074 0.59407723 0.84384465 8.1020289e-39
1.8211982 0.60118377 0.84516078 4.1340379e-39
1.8194517 0.60863948 0.84439379 5.521633e-39
1.8137083 0.62343735 0.8514325 3.679884e-39
1.83178 0.57682461 0.82933587 8.7448633e-39
1.8290986 0.58351368 0.83283776 8.8377876e-39
1.8269049 0.5898692 0.8348344 9.1125696e-39
1.8250043 0.59599441 0.8359549 8.834915e-39
1.8225173 0.60258168 0.83882666 4.5064049e-39
1.820909 0.61065102 0.83693606 4.8776887e-39
1.8146311 0.62598717 0.84545499 4.5993236e-39
1.8716227 0.45666873 0.79772234 2.7801762e-40
1.8328255 0.57918167 0.82308626 1.0030569e-38
1.830777 0.58541566 0.82465625 9.8476222e-39
1.8285954 0.59173357 0.82664418 9.6632267e-39
1.8262736 0.5981546 0.82905829 9.8468977e-39
1.8239498 0.60539454 0.83067405 7.173244e-39
1.8229278 0.61066192 0.82933527 3.4007888e-39
1.820536 0.61688876 0.83220333 5.3390396e-39
1.8181746 0.62345922 0.83461905 5.7056585e-39
1.8242159 0.61023891 0.82490855 4.7797506e-39
1.8219985 0.61854243 0.82507789 6.072667e-39
1.8207992 0.6242891 0.8239339 5.2454119e-39
1.8167177 0.63254851 0.83115584 5.4283528e-39
1.8252642 0.61259609 0.8186484 5.612049e-39
1.8232381 0.6202454 0.81874222 4.6036326e-39
1.8207424 0.6262145 0.82225436 6.4432362e-39
1.8182682 0.63438797 0.82351714 6.1687919e-39
1.8158991 0.64178205 0.82515138 6.7201804e-39
1.8243678 0.62303692 0.81174928 1.4718819e-39
1.8223609 0.62910366 0.81332755 3.7760495e-39
1.8192623 0.63697159 0.81723839 4.3277828e-39
1.8173534 0.64377296 0.81772572 4.3256206e-39
1.8849159 0.43686026 0.7672261 4.5136202e-39
1.8257173 0.62365144 0.8060708 1.1938615e-39
1.8234258 0.62962788 0.80880791 3.3139896e-39
1.8214525 0.63799208 0.80799973 2.5764274e-39
1.8184354 0.64614511 0.81132382 3.6791666e-39
1.8860554 0.43955359 0.7602936 3.7778572e-39
1.8428059 0.57764411 0.78707457 7.5495571e-39
1.8401505 0.5847522 0.79006684 7.7321505e-39
1.8380597 0.59139758 0.79139143 7.7321505e-39
1.8359689 0.59804285 0.79271591 8.2853341e-39
1.8338782 0.60468829 0.7940405 8.3768137e-39
1.8253924 0.63124037 0.79982805 3.2214703e-39
1.8228871 0.63936377 0.80125695 6.5390514e-39
1.8856776 0.44565913 0.75570846 3.4083502e-39
1.841383 0.58644551 0.78376734 8.6551956e-39
1.8392923 0.59309083 0.78509188 8.9303378e-39
1.8372014 0.59973615 0.78641641 9.1143787e-39
1.8248459 0.63522589 0.79796255 4.3274086e-39
1.8227202 0.64198226 0.79930919 5.3375823e-39
1.8530697 0.55491179 0.770845 8.6555488e-39
1.8514906 0.5610891 0.77070576 8.0094577e-39
1.8446759 0.58135837 0.77639037 7.4598852e-39
1.8421667 0.5892666 0.77804619 7.7353805e-39
1.8388535 0.59640878 0.7834776 9.7597257e-39
1.8384339 0.6014294 0.78011692 9.1176059e-39
1.8363431 0.60807484 0.78144145 8.9328545e-39
1.8275325 0.63100839 0.79200953 3.1249404e-39
1.8272237 0.63608807 0.78817451 2.1140199e-39
1.8232548 0.64460456 0.79471952 1.9285496e-39
1.8580126 0.54357708 0.76340997 9.5785771e-39
1.8571349 0.54897368 0.76140118 7.5542347e-39
1.8538067 0.55694419 0.76607424 8.843533e-39
1.8501205 0.56989586 0.76719475 9.11725e-39
1.8481443 0.57707196 0.76756626 7.1858221e-39
1.8452582 0.58387887 0.7717222 7.4595209e-39
1.8425578 0.59209788 0.77379042 7.1833096e-39
1.840674 0.59756213 0.77549851 7.2683207e-39
1.839087 0.60372901 0.77539945 5.9800958e-39
1.8375756 0.60976809 0.77514207 4.0483106e-39
1.8309321 0.62594247 0.78421032 2.7550649e-40
1.8287933 0.63274056 0.78556532 3.6734198e-40
1.8273343 0.63938713 0.78451329 1.8367099e-40
1.8895891 0.45156565 0.73519248 3.6845784e-39
1.8866819 0.45982528 0.73799866 3.1306913e-39
1.8788899 0.48526999 0.74226701 1.1038266e-39
1.874352 0.49848974 0.74632496 2.2065813e-39
1.8701705 0.51178056 0.74897408 7.556785e-39
1.8659889 0.52507138 0.75162321 6.6269352e-39
1.8634578 0.53191298 0.75440985 6.7191308e-39
1.8621695 0.53888762 0.75239265 3.7749832e-39
1.85624 0.55255687 0.76124126 3.3114617e-39
1.8550465 0.55864727 0.75973856 1.0130603e-39
1.8529437 0.56533074 0.76107073 7.3468397e-40
1.851353 0.57158911 0.76089513 0
1.8487378 0.57869798 0.763735 0
1.8461475 0.58583748 0.76645172 0
1.8443462 0.5922249 0.76694173 0
1.8407485 0.60048234 0.77234602 0
1.839234 0.60660821 0.77201474 0
1.8371083 0.61336464 0.77336138 0
1.8345975 0.62143016 0.77486855 3.6734198e-40
1.8328161 0.62728596 0.77580553 0
1.8298866 0.63453561 0.77968961 0
1.8281282 0.64191544 0.77904171 0
1.8911254 0.45359722 0.72741771 3.6845826e-39
1.8888919 0.4596622 0.72984952 3.0388544e-39
1.8776754 0.49353766 0.73870087 4.5917748e-40
1.8752116 0.50019813 0.74141335 6.4285968e-40
1.8617446 0.54076558 0.75214309 0
1.859619 0.54752201 0.75348973 3.1224069e-39
1.8574933 0.55427843 0.75483644 2.5713939e-39
1.856286 0.5603503 0.75340289 0
1.8541832 0.56703377 0.75473499 1.0101905e-39
1.8525856 0.57328242 0.75459558 1.0101905e-39
1.8503325 0.57980299 0.75665283 5.5101298e-40
1.8468645 0.58806062 0.76156986 9.1835496e-40
1.8447386 0.59481704 0.76291662 1.8367099e-40
1.829193 0.64290559 0.77406412 0
1.8629978 0.54248714 0.74573833 1.1038266e-39
1.8613222 0.54895163 0.74567997 5.4219096e-39
1.8592083 0.55566984 0.74701905 1.8381575e-39
1.8570946 0.56238812 0.74835813 7.350441e-40
1.8554227 0.56873679 0.74839926 2.7550649e-40
1.85332 0.57542044 0.74973148 1.8367099e-40
1.8604544 0.55738169 0.74065048 9.1835496e-41
1.8583406 0.56409997 0.74198955 0
1.8369545 0.6648863 0.72326273 1.168644e-38
1.8365288 0.67159539 0.71826404 1.1138708e-38
1.8351555 0.67594999 0.71914387 1.2609848e-38
1.8332903 0.68290204 0.71931863 1.1041809e-38
1.8433809 0.65440255 0.7094124 9.8486395e-39
1.8412299 0.66123885 0.71077508 1.4821115e-38
1.8390791 0.66807514 0.71213764 1.1873041e-38
1.8376544 0.67368484 0.71197683 1.1134016e-38
1.8361001 0.68030781 0.71130615 1.3253074e-38
1.8346419 0.68486065 0.71230954 1.2054516e-38
1.8448007 0.65757322 0.70095593 1.1044693e-38
1.8424979 0.66298074 0.70429462 1.4083923e-38
1.8339854 0.69282889 0.70694101 1.0947452e-38
1.8335654 0.70033234 0.70113981 1.1595685e-38
1.8366913 0.69620806 0.69344407 1.343923e-38
1.8377333 0.69868755 0.687087 1.3163736e-38
1.8601282 0.72726685 0.57477611 1.2429061e-38
1.8625399 0.73327708 0.55979675 1.3163024e-38
1.8642999 0.73162091 0.5548088 1.2518738e-38
1.8698899 0.72652221 0.53880662 1.040005e-38
1.8758333 0.72329944 0.51963085 8.4628562e-39
1.8221444 0.58357614 0.85892218 7.9223095e-39
1.8829415 0.44874242 0.7629627 3.3154399e-39
1.8229783 0.61816376 0.82176685 5.154654e-39
1.8239135 0.62091029 0.81554908 5.4276634e-39
1.8819979 0.46139443 0.75406587 3.4097908e-39
1.8383616 0.59323156 0.78845179 6.8112704e-39
1.8373376 0.59722435 0.78837526 9.7611733e-39
1.8361433 0.66223639 0.72891885 1.2979355e-38
1.8340601 0.66823047 0.73085469 1.2059556e-38
1.8591784 0.72431868 0.58124679 1.0126757e-38
1.8621897 0.72160655 0.57259345 1.2337982e-38
1.8289567 0.56055856 0.85595012 4.2387961e-39
1.8212489 0.57758641 0.86818087 1.4736727e-39
1.8169239 0.58858782 0.8736217 9.1835496e-41
1.8290275 0.56373483 0.85255957 6.0805549e-39
1.8219334 0.58051473 0.86272758 4.1455411e-39
1.8182925 0.59444433 0.86271501 3.5001745e-39
1.8161299 0.59994501 0.86543542 4.1433761e-39
1.8146477 0.60495549 0.86607927 2.8537233e-39
1.8146515 0.60837394 0.86270243 2.7608088e-39
1.8081639 0.6248759 0.87086362 2.6686118e-39
1.8146625 0.61182249 0.85926986 2.3923864e-39
1.8124888 0.61735129 0.8620041 2.1150919e-39
1.8110107 0.62230343 0.86268991 1.6573507e-39
1.8146057 0.61536044 0.85600275 2.3909515e-39
1.8124338 0.62445897 0.85521907 1.2892843e-39
1.8150761 0.64720029 0.82291633 3.8685843e-39
1.8885355 0.46713692 0.72383779 1.6573507e-39
1.8360687 0.59961027 0.79079854 6.0758718e-39
1.8165058 0.64936966 0.81540728 2.395622e-39
1.8416358 0.58717573 0.78209835 6.8120047e-39
1.834583 0.60808235 0.78805155 6.7230377e-39
1.8295754 0.61975938 0.79539305 2.1190393e-39
1.8324531 0.61715925 0.78713095 5.9883551e-39
1.8342009 0.61562145 0.7820726 5.4373393e-39
1.8331449 0.62011921 0.78161871 3.9554087e-39
1.8348997 0.61861145 0.77650446 3.5895157e-39
1.8304834 0.62984425 0.78205979 8.2759987e-40
1.8245788 0.65347046 0.7810207 2.7550649e-40
1.8262452 0.65231532 0.77589178 2.2109029e-39
1.8398796 0.65925133 0.71780723 8.4607038e-39
1.8342655 0.67485327 0.72356856 6.6247114e-39
1.831383 0.68152404 0.72784489 6.9931295e-39
1.8343693 0.67882562 0.71927118 8.2799069e-39
1.8373555 0.67612737 0.71069735 1.15993e-38
1.8397641 0.67431736 0.70342231 7.3572429e-39
1.8478478 0.66541773 0.68178332 1.1968108e-38
1.8396485 0.68938327 0.68903756 1.1689703e-38
1.8397958 0.69345778 0.68447638 8.374608e-39
1.8569301 0.65298748 0.65986222 7.1724957e-39
1.8540536 0.65981042 0.66396594 1.187589e-38
1.8571566 0.65700668 0.65505713 8.0029613e-39
1.8315425 0.70631278 0.70286286 1.1688259e-38
1.8331934 0.70719081 0.69579262 1.0398236e-38
1.837262 0.72512501 0.66285503 1.2699891e-38
1.8364197 0.73312211 0.65815592 1.2702776e-38
1.8380107 0.73995477 0.64545351 1.4454475e-38
1.8431852 0.73477906 0.63108933 1.5007286e-38
1.8413411 0.73970586 0.63317621 1.2888953e-38
1.8398367 0.74487793 0.63374519 1.1965574e-38
1.8421041 0.74361408 0.62646389 1.3070096e-38
1.847101 0.73409873 0.61703604 1.4822532e-38
1.8456099 0.73870915 0.61810702 1.3715841e-38
1.8465033 0.7394594 0.61401045 1.1970259e-38
1.8444474 0.74599361 0.61531281 1.040076e-38
1.8456594 0.74765855 0.60911858 1.0492592e-38
1.8488077 0.74271214 0.60214657 1.2701686e-38
1.849957 0.7449764 0.5955984 1.2703127e-38
1.8524351 0.74228412 0.58892936 1.1137959e-38
1.8508298 0.74757129 0.58976406 1.1045034e-38
1.8381373 0.72140294 0.66322482 1.4354719e-38
1.8386958 0.71642721 0.66601926 1.1965199e-38
1.8315028 0.68857723 0.7204569 1.0951784e-38
1.8325554 0.69104844 0.71406853 1.1134716e-38
1.8320131 0.69877726 0.70850503 1.021025e-38
1.8364168 0.6887188 0.70184195 1.4545247e-38
1.835647 0.69373363 0.69980341 1.3346685e-38
1.8291144 0.68729389 0.73069847 8.3749738e-39
1.812492 0.63831758 0.84136915 3.8624802e-39
1.8124475 0.64604825 0.8339321 4.0457981e-39
1.8212503 0.6511209 0.79584587 1.9303433e-39
1.8217132 0.65400833 0.79126561 8.4077908e-45
1.8115065 0.64684057 0.83669072 1.6544739e-39
1.8233275 0.65883601 0.78044742 4.4196351e-39
1.8217577 0.66372979 0.78153688 8.2651947e-40
1.8084835 0.81730217 0.68038893 1.7327718e-38
1.8117125 0.81347281 0.67201507 1.7696139e-38
1.8092804 0.82027155 0.67447191 1.7327718e-38
1.8131851 0.81273323 0.66720623 1.6221745e-38
1.8109648 0.82105386 0.6673702 1.7144047e-38
1.8116844 0.82426065 0.66151017 1.7419915e-38
1.8145624 0.81773216 0.65711045 1.7604305e-38
1.8142027 0.82196718 0.65429819 1.6959302e-38
1.817179 0.81586266 0.64911181 1.5572757e-38
1.814085 0.8259452 0.65082723 1.6959311e-38
1.8203113 0.82343918 0.62988287 1.7785813e-38
1.8246737 0.82741588 0.60956967 1.5571283e-38
1.8263284 0.83704489 0.59387708 1.7328444e-38
1.8593557 0.73611122 0.56898099 1.3993121e-38
1.8267542 0.84054226 0.58883572 1.8618812e-38
1.8286177 0.84057772 0.58179533 1.7236267e-38
1.8279237 0.84826767 0.57684028 1.6219936e-38
1.8293738 0.84946299 0.57021224 1.7696149e-38
1.8319657 0.85172057 0.55824709 1.7141903e-38
1.8327551 0.85256702 0.55444664 1.6039131e-38
1.8714324 0.73633325 0.52335697 1.3356481e-38
1.8051927 0.81212336 0.69785583 1.5393764e-38
1.8149731 0.81144977 0.66174656 1.5204328e-38
1.818387 0.81783658 0.64262879 1.6495793e-38
1.8191863 0.82083583 0.63667315 1.7602142e-38
1.8216482 0.82477647 0.62354094 1.6034812e-38
1.8326178 0.84568948 0.56172729 1.8986885e-38
1.8630204 0.72635764 0.56479639 1.297973e-38
1.8577147 0.74213237 0.56922925 1.1415975e-38
1.8640442 0.7279402 0.55939084 1.325163e-38
1.8673738 0.72928685 0.54554731 1.3901325e-38
1.8682806 0.73233414 0.53914076 1.4084969e-38
1.8700914 0.73157507 0.53307909 1.3899522e-38
1.8678092 0.73799491 0.53534526 1.178512e-38
1.86851 0.74164891 0.52911615 5.8903861e-39
1.873544 0.73155189 0.52012098 1.2797124e-38
1.8541824 0.71513194 0.60906702 7.8308608e-39
1.8549365 0.71835858 0.60305822 7.8282838e-39
1.8690375 0.73963588 0.52911299 8.3749668e-39
1.8556283 0.739218 0.57993978 1.3346699e-38
1.8567894 0.7415269 0.57330269 1.2792102e-38
1.8302497 0.73750895 0.67703879 1.1870127e-38
1.8284538 0.71298772 0.70791024 1.2148166e-38
1.8303648 0.71340293 0.70031637 1.1226549e-38
1.8319653 0.7137239 0.6939835 9.8432725e-39
1.8293022 0.72199029 0.69586492 1.1961603e-38
1.8325738 0.71613157 0.6893276 1.1871576e-38
1.831138 0.72155118 0.68939453 1.196522e-38
1.8295628 0.72741461 0.68954986 1.2973982e-38
1.833111 0.72037101 0.68313742 1.2333259e-38
1.8310211 0.72737521 0.68410581 1.1780451e-38
1.834317 0.7224375 0.67657077 1.1686814e-38
1.8318573 0.72913665 0.6792289 1.279029e-38
1.8332725 0.73075634 0.67231578 1.2789574e-38
1.8314842 0.73754311 0.67236352 1.1041816e-38
1.8344084 0.73297578 0.66586167 1.4175744e-38
1.8326753 0.73805487 0.66738164 1.3070477e-38
1.833252 0.74191386 0.6614182 1.3438874e-38
1.8344259 0.74420214 0.65475339 1.3253419e-38
1.8360885 0.74652159 0.64622122 1.3531798e-38
1.8361113 0.75064224 0.64208221 1.3804812e-38
1.8405017 0.74786162 0.6283102 1.1782981e-38
1.8395312 0.74647385 0.63332415 1.454595e-38
1.833005 0.72716439 0.67685443 1.094997e-38
1.8301244 0.73409557 0.6808669 9.7550103e-39
1.8330945 0.73141205 0.67233956 1.076523e-38
1.8322663 0.7432605 0.66379929 1.2703871e-38
1.8306541 0.69789529 0.71448225 8.737648e-39
1.8289701 0.70536339 0.71346855 1.0487203e-38
1.8299677 0.70607102 0.70902133 1.1687555e-38
1.8433672 0.74503577 0.62031627 1.2702385e-38
1.8550708 0.76167458 0.55994684 9.1986164e-39
1.808514 0.67142284 0.82376319 3.3111085e-39
1.8084074 0.67832071 0.8173787 2.7604613e-39
1.8101257 0.64456034 0.84412593 1.1963726e-39
1.8136019 0.65943515 0.81642479 2.2998335e-39
1.8099031 0.67358661 0.81641203 3.0348776e-39
1.81727 0.67514437 0.78718203 0
1.8119975 0.80111206 0.68310213 1.3071175e-38
1.8135376 0.80429143 0.67418396 1.3258094e-38
1.8261203 0.82837749 0.60318506 1.5386553e-38
1.8306109 0.84058267 0.574296 1.6681987e-38
1.8147912 0.80649191 0.66730642 1.3444673e-38
1.8243587 0.82264531 0.61544621 1.3357149e-38
1.8284049 0.83052295 0.59248519 1.5477304e-38
1.8292153 0.83359718 0.58641487 1.5572394e-38
1.830222 0.83613741 0.58013034 1.6955692e-38
1.8145937 0.79555273 0.67880988 1.6942309e-38
1.8157252 0.79777849 0.67236584 1.6757195e-38
1.8348597 0.83936071 0.55952334 1.5754262e-38
1.814103 0.80407238 0.67227405 1.1326659e-38
1.8316153 0.84313333 0.56801111 1.8432632e-38
1.8388337 0.84590787 0.53814214 2.0646797e-38
1.8378594 0.76727659 0.6191479 1.1133266e-38
1.8462285 0.76692021 0.58803242 1.2610197e-38
1.851711 0.7666809 0.56765449 1.0494407e-38
1.8565412 0.77265966 0.54361385 1.068202e-38
1.8528315 0.78609139 0.54434967 1.1963726e-38
1.8347583 0.84655601 0.55282754 1.7605391e-38
1.8402441 0.84729111 0.53147906 9.4802718e-39
1.8092995 0.78759271 0.70654351 1.4732494e-38
1.8100994 0.79044878 0.7007274 1.4638146e-38
1.8117397 0.79127806 0.69374454 1.4638498e-38
1.8127517 0.79370499 0.68755227 1.4362264e-38
1.8176664 0.79855448 0.66430402 1.5559724e-38
1.8186792 0.80101556 0.65807509 1.5468609e-38
1.8226957 0.81127685 0.63288045 1.3625052e-38
1.8267636 0.81583411 0.61310381 1.4915086e-38
1.8302737 0.82428813 0.59159118 1.3714735e-38
1.813501 0.80129099 0.67727345 1.1598584e-38
1.8167547 0.80698377 0.65944064 1.1507463e-38
1.8183919 0.80713058 0.6531409 1.2703838e-38
1.8196038 0.80906993 0.6466766 1.316337e-38
1.820809 0.81104755 0.64020038 1.288712e-38
1.8233163 0.8147555 0.62712604 1.3626848e-38
1.8243252 0.8172487 0.62088031 1.3351741e-38
1.826919 0.81298304 0.6153245 1.5282089e-38
1.8330655 0.83364111 0.57189512 1.2982955e-38
1.8361042 0.8483451 0.54600692 1.6593068e-38
1.8222686 0.81729954 0.62856311 1.2247922e-38
1.8293526 0.82228887 0.59702051 1.3622914e-38
1.8327087 0.82907873 0.57772404 1.3627929e-38
1.8382921 0.84185708 0.54416293 1.5662062e-38
1.8401345 0.84190702 0.53718668 1.0583063e-38
1.8013737 0.75512075 0.76828313 1.371618e-38
1.8035399 0.75927901 0.75604862 1.3993494e-38
1.8019233 0.76448512 0.75700516 1.5098021e-38
1.8041142 0.76341271 0.74982321 1.4360476e-38
1.8051395 0.76580149 0.74361813 1.4082446e-38
1.8225749 0.79371506 0.65060931 1.2791321e-38
1.82182 0.80276877 0.64454198 1.6020706e-38
1.8227522 0.80543393 0.63841558 1.6204735e-38
1.823831 0.80743808 0.63238823 1.6297639e-38
1.8078268 0.76291299 0.7363562 1.3437427e-38
1.8064228 0.76767159 0.73695368 1.3989502e-38
1.8078531 0.77006084 0.72922629 1.4266083e-38
1.813928 0.78503013 0.69166237 1.5649041e-38
1.7989749 0.75757611 0.77488643 1.4545561e-38
1.8112866 0.77481776 0.71163851 1.3895877e-38
1.8104693 0.77893454 0.71066195 1.5280969e-38
1.811262 0.78183585 0.70482743 1.5466435e-38
1.8122871 0.78419918 0.69864881 1.5650841e-38
1.8157593 0.78660679 0.68322623 1.5462817e-38
1.8176284 0.7919482 0.67094499 1.5096928e-38
1.8214217 0.79833096 0.65040481 1.5190208e-38
1.8202171 0.80240852 0.65092266 1.4640294e-38
1.8255345 0.80845916 0.62497956 1.5836315e-38
1.8271563 0.80646771 0.62084043 1.3344516e-38
1.8263645 0.81144327 0.61892301 1.5650852e-38
1.8275578 0.81795502 0.60803187 1.3627227e-38
1.8285145 0.82035583 0.60207367 1.3074427e-38
1.831664 0.82501298 0.5856514 1.4178583e-38
1.8319498 0.81944835 0.59004968 1.8047195e-38
1.8420573 0.76803845 0.60261506 1.1039296e-38
1.8119789 0.76673603 0.71698439 1.214993e-38
1.8186971 0.75320363 0.70503581 1.0029086e-38
1.8155775 0.76448172 0.70567161 1.2793125e-38
1.8166049 0.76693457 0.69939673 1.2609097e-38
1.8212101 0.75739068 0.69146955 8.5589979e-39
1.8199025 0.76260859 0.69125283 1.1688236e-38
1.8178726 0.76856923 0.69302279 1.1779344e-38
1.821128 0.76464283 0.68464488 1.2335804e-38
1.8191011 0.77058375 0.68642211 1.1225822e-38
1.8227419 0.77115726 0.67216927 1.1227624e-38
1.8207183 0.7770682 0.67396349 1.1964827e-38
1.8239542 0.77322167 0.66558075 1.1596412e-38
1.8217367 0.77953994 0.66770327 1.2983302e-38
1.8254451 0.7744261 0.65879095 1.4364115e-38
1.8227533 0.78201681 0.66144472 1.2703519e-38
1.8264641 0.77690709 0.65251935 1.3904918e-38
1.8242419 0.78323168 0.65465277 1.1873346e-38
1.8272219 0.78001332 0.64661503 1.1412042e-38
1.8249942 0.78635144 0.64875627 1.1226902e-38
1.8295461 0.77520168 0.64260894 1.1867237e-38
1.827852 0.78344584 0.64086932 1.1593903e-38
1.8315526 0.77724856 0.63305157 1.1597861e-38
1.8282943 0.78931588 0.63343227 1.2147049e-38
1.833835 0.77350968 0.62814772 1.1965571e-38
1.8303407 0.78588271 0.6291151 1.1596769e-38
1.8333919 0.7817443 0.62171435 1.0490081e-38
1.8316718 0.7869935 0.62301826 1.1870122e-38
1.8297317 0.79298133 0.62442285 1.2517625e-38
1.8377745 0.77184504 0.61497366 9.5695625e-39
1.8361779 0.77737612 0.61553556 1.2611304e-38
1.832751 0.78911483 0.61687446 1.1318725e-38
1.8300081 0.79773223 0.61871046 1.3069011e-38
1.8361698 0.78846073 0.60466397 1.2885321e-38
1.8353668 0.79815549 0.5981468 1.2793142e-38
1.84012 0.79775137 0.5806734 1.2609461e-38
1.8387324 0.81497425 0.56894982 1.3528184e-38
1.8396862 0.81743044 0.56294769 1.3344509e-38
1.8380888 0.82181638 0.56463999 1.454594e-38
1.8487892 0.80066115 0.5452168 1.4177863e-38
1.8470043 0.80558085 0.5470888 1.4268273e-38
1.8444924 0.81228942 0.54993349 1.4175715e-38
1.8499565 0.80054021 0.54094702 1.0320052e-38
1.8493935 0.80207884 0.5415504 1.3072618e-38
1.8478371 0.80869031 0.54089916 1.4546661e-38
1.8452433 0.82714075 0.53250283 1.5189155e-38
1.8435826 0.83185613 0.53410834 1.6390209e-38
1.8227305 0.75703537 0.68610233 6.438888e-39
1.8180155 0.77463704 0.68651676 1.1874429e-38
1.8187295 0.77769196 0.6808275 1.1873349e-38
1.8186046 0.78801388 0.67114407 1.3253754e-38
1.8092631 0.76414973 0.72973931 1.3344878e-38
1.8104128 0.76629621 0.7233057 1.3253404e-38
1.8091788 0.77186185 0.72247058 1.4359366e-38
1.8129069 0.76387811 0.71630639 1.3069713e-38
1.8112067 0.77115023 0.71554583 1.325267e-38
1.8097572 0.77590519 0.71631932 1.5280245e-38
1.8131412 0.76900101 0.71038657 1.3714357e-38
1.8142641 0.77013683 0.70504743 1.1965898e-38
1.8129311 0.77542573 0.70485753 1.3528529e-38
1.8150363 0.77188641 0.70042342 1.3253381e-38
1.8165733 0.77293062 0.69361788 1.2977522e-38
1.8174218 0.7756803 0.68772268 1.3530341e-38
1.8153633 0.78572345 0.68558395 1.4175363e-38
1.8185573 0.77790123 0.68126917 1.3528191e-38
1.8182213 0.78206575 0.67843568 1.187298e-38
1.8186841 0.78319335 0.6755867 1.3344498e-38
1.8198203 0.7854203 0.66912425 1.3160121e-38
1.8216074 0.78706813 0.66078502 1.131731e-38
1.8224317 0.79001796 0.6547842 1.159459e-38
1.8258109 0.78935593 0.64273018 1.214776e-38
1.8241438 0.79341483 0.64500558 1.1964809e-38
1.828452 0.7850405 0.63704491 1.2978297e-38
1.8264313 0.79474735 0.63509464 1.3805478e-38
1.8290039 0.7915222 0.62859458 1.3344494e-38
1.8274529 0.79724902 0.62879318 1.3805117e-38
1.8273945 0.80312282 0.62323469 1.4818536e-38
1.8309308 0.79421091 0.61870474 1.3621807e-38
1.8348254 0.78682905 0.61132336 1.1321277e-38
1.8335341 0.79213524 0.61095852 1.316119e-38
1.8319534 0.79674286 0.61236989 1.3898031e-38
1.8305471 0.80092907 0.61353964 1.4081357e-38
1.8287653 0.80610067 0.61515188 1.4727787e-38
1.8345634 0.79468584 0.6045804 1.3437425e-38
1.8329741 0.79928011 0.60603672 1.3990589e-38
1.8315613 0.80344296 0.60725349 1.4173187e-38
1.8297524 0.80861568 0.60896653 1.4913622e-38
1.8297622 0.81179208 0.60580534 1.5098401e-38
1.8361191 0.79590911 0.5975281 1.3713643e-38
1.83358 0.8031944 0.59990817 1.4266104e-38
1.8319602 0.80785406 0.60141528 1.408134e-38
1.8378414 0.79648542 0.59048545 1.3713285e-38
1.8359796 0.80176342 0.59229368 1.3805483e-38
1.8345976 0.80573171 0.59358674 1.4082786e-38
1.8329716 0.81037599 0.59513181 1.4265719e-38
1.8313479 0.8150124 0.59667557 1.6205089e-38
1.8375639 0.80293155 0.58518863 1.3989507e-38
1.8361459 0.8069486 0.58656842 1.4174616e-38
1.8345242 0.81154817 0.58814162 1.426608e-38
1.833099 0.81518561 0.58992195 1.4267559e-38
1.8379438 0.80517554 0.58155298 1.2242492e-38
1.8371642 0.80949521 0.58023536 1.4265381e-38
1.8355364 0.81407863 0.58184725 1.4358272e-38
1.833809 0.81892812 0.58357114 1.6297293e-38
1.8389333 0.80596846 0.5770523 1.398987e-38
1.8381805 0.81204712 0.57390344 1.4174627e-38
1.8365468 0.81661451 0.57555437 1.4819241e-38
1.8346545 0.82194102 0.57742906 1.5928518e-38
1.8397588 0.8090905 0.57087839 1.4082426e-38
1.8389074 0.8132534 0.56998402 1.2427249e-38
1.8373001 0.81998974 0.56940174 1.5466428e-38
1.84078 0.8116768 0.56449461 1.4266823e-38
1.8395923 0.81568122 0.56502092 1.4634889e-38
1.844907 0.80589038 0.55466938 1.4082429e-38
1.8429391 0.81137651 0.55667228 1.3806566e-38
1.8413908 0.81556058 0.55837762 1.4358307e-38
1.8400815 0.82079506 0.55815202 1.4449776e-38
1.8386915 0.82526565 0.55898094 1.5192406e-38
1.8422123 0.81872588 0.55217564 1.4268273e-38
1.8411082 0.82262576 0.55249095 1.4820365e-38
1.8400507 0.8263483 0.55280536 1.5835583e-38
1.8459318 0.81398642 0.54285342 1.4638138e-38
1.8440527 0.81917149 0.54481846 1.4822526e-38
1.8423369 0.82382178 0.54669517 1.4821448e-38
1.8409871 0.82842529 0.54724234 1.666535e-38
1.8464577 0.81716162 0.53775215 1.3810185e-38
1.8451024 0.82065868 0.53940821 1.3901308e-38
1.8437275 0.82515538 0.54015529 1.5098041e-38
1.8418359 0.8303147 0.54219246 1.6388781e-38
1.8409606 0.83388186 0.5419746 1.4641763e-38
1.8457352 0.82418615 0.53355962 1.4178914e-38
1.8421466 0.83551145 0.53591192 1.4459169e-38
1.8448285 0.83255339 0.5287382 1.3167291e-38
1.8194664 0.78529698 0.67057681 1.1964085e-38
1.8201842 0.78836864 0.66485649 1.2056283e-38
1.8196719 0.79272211 0.66250086 1.4911814e-38
1.8206849 0.7951923 0.65626198 1.5096572e-38
1.8254206 0.80306399 0.63071412 1.4911095e-38
1.828192 0.79969412 0.62360877 1.4541245e-38
1.8302017 0.81329024 0.60267949 1.6388387e-38
1.8350637 0.82630992 0.57159281 1.5929955e-38
1.836068 0.8288461 0.56532246 1.5746632e-38
1.8371742 0.83202052 0.5580411 1.546899e-38
1.8380351 0.83242989 0.55440211 1.4274058e-38
1.8387877 0.83494884 0.54909486 1.546684e-38
1.8428055 0.83898365 0.53001994 1.4367677e-38
1.8395814 0.83822465 0.54288882 1.4634887e-38
1.8406714 0.8409071 0.53615153 1.3344163e-38
1.8362144 0.83195263 0.56171632 1.4090367e-38
1.8394573 0.83403969 0.54747164 1.5656264e-38
1.83769 0.8382659 0.54995924 1.2243253e-38
1.8430059 0.77184588 0.59530389 1.0031241e-38
