# .PCD v0.7 - Point Cloud Data file format
VERSION 0.7
FIELDS x y z rgb
SIZE 4 4 4 4
TYPE F F F F
COUNT 1 1 1 1
WIDTH 1060
HEIGHT 1
VIEWPOINT 0 0 0 1 0 0 0
POINTS 1060
DATA ascii
1.715969 0.77094674 0.80163097 1.7881635e-38
1.7129046 0.77731377 0.79819936 1.7790528e-38
1.7202743 0.76803094 0.80080169 1.7881973e-38
1.7202169 0.77143347 0.79766095 1.7605024e-38
1.7183753 0.7743811 0.79642224 1.8066025e-38
1.7269646 0.76937789 0.79400545 1.7326279e-38
1.7257038 0.77224225 0.79236436 1.7881254e-38
1.7239141 0.77533072 0.79095048 1.7327734e-38
1.8654553 0.64802974 0.79315615 0
1.8612497 0.65275943 0.79220313 0
1.733423 0.76789355 0.79005384 1.4083865e-38
1.7260107 0.77643597 0.78818089 1.7696862e-38
1.7261983 0.77877003 0.78583825 1.7235533e-38
1.8693619 0.65064299 0.78747612 8.2651947e-40
1.8651561 0.65537262 0.78652304 1.0101905e-39
1.7310854 0.7759499 0.78443861 1.6679825e-38
1.7283316 0.77943903 0.78344697 1.7788698e-38
1.7295423 0.78136724 0.78063858 1.7327369e-38
1.7296561 0.78435618 0.77774358 1.8250423e-38
1.8785589 0.65079504 0.77972585 2.759755e-39
1.8690625 0.65798587 0.7808429 2.8469088e-39
1.7317914 0.78234488 0.77786207 1.7604311e-38
1.7321299 0.78466564 0.77540725 1.7143347e-38
1.7288651 0.78895152 0.77409196 1.8066758e-38
1.7340467 0.7857765 0.7727809 1.7420637e-38
1.7378745 0.7871297 0.76834661 1.7972393e-38
1.7335901 0.79148948 0.76780522 1.8158945e-38
1.7376957 0.78729081 0.76834345 1.6868548e-38
1.7397088 0.7900582 0.76408499 1.7235168e-38
1.7386843 0.79294378 0.76222837 1.7329543e-38
1.7417595 0.79108936 0.76142246 1.7696501e-38
1.7437693 0.79284436 0.75811547 1.705042e-38
1.7419139 0.79560685 0.75706172 1.8158226e-38
1.7491162 0.79167575 0.7547875 1.8526263e-38
1.745322 0.79610378 0.75377685 1.7050055e-38
1.7428584 0.79952663 0.75260735 1.7603972e-38
1.750401 0.79483753 0.75076205 1.7696139e-38
1.7493744 0.79891616 0.74778932 1.7141881e-38
1.7459856 0.8026439 0.74709928 1.8157511e-38
1.7523524 0.79953778 0.74474347 1.7602509e-38
1.7502764 0.80286044 0.74334699 1.7142624e-38
1.7479787 0.80532485 0.7429384 1.6684182e-38
1.7422721 0.80926788 0.7439642 1.7605779e-38
1.7552409 0.80034757 0.74159521 1.7880539e-38
1.7560698 0.80457711 0.73694623 1.7235535e-38
1.7516702 0.80772626 0.73763454 1.6038451e-38
1.7582316 0.80703348 0.73285645 1.7234091e-38
1.7557966 0.81047821 0.73164272 1.7143717e-38
1.7592224 0.80529863 0.73366231 1.7880173e-38
1.7579521 0.81105363 0.72932059 1.6496534e-38
1.7611287 0.81294113 0.72492415 1.7144067e-38
1.9081266 0.68411839 0.72404194 1.1965532e-38
1.7633468 0.81019729 0.72566044 1.7418476e-38
1.767225 0.81501251 0.71794033 1.7233746e-38
1.9064205 0.68760973 0.72218162 1.2517284e-38
1.7669257 0.81441051 0.71875197 1.7418832e-38
1.7665406 0.81774205 0.71594876 1.6127749e-38
1.9118042 0.69000208 0.71548629 1.3439223e-38
1.917256 0.69185907 0.70923656 1.3074085e-38
1.909364 0.69944066 0.7086606 1.0488285e-38
1.7723331 0.81324148 0.71537441 1.8708858e-38
1.7722808 0.81620032 0.71264505 1.8247873e-38
1.7702529 0.8202256 0.71055073 1.5850073e-38
1.9239268 0.69078332 0.70472646 1.2885009e-38
1.921186 0.69448805 0.70352226 1.021746e-38
1.775226 0.81644821 0.70997673 1.8524824e-38
1.7727858 0.82020199 0.7084775 1.7971287e-38
1.7739654 0.82270896 0.70515281 1.6127013e-38
1.9287949 0.6921199 0.69944727 1.399206e-38
1.9225248 0.69838506 0.69876319 7.7260269e-39
1.9163933 0.70345461 0.69908464 9.5695737e-39
1.7779772 0.81815749 0.70609927 1.8891444e-38
1.7771029 0.82209939 0.70312858 1.705078e-38
1.7739305 0.82538295 0.70267594 1.7695053e-38
1.769156 0.83103651 0.70132774 1.6128102e-38
1.9332767 0.69498795 0.69305247 1.2059938e-38
1.7859986 0.81971407 0.6980055 1.8984364e-38
1.7817183 0.82404786 0.69748497 1.8065278e-38
1.7798713 0.82762283 0.6956628 1.7325913e-38
1.7728468 0.83350551 0.69596112 1.5205417e-38
1.9385591 0.69573939 0.68797886 1.2700976e-38
1.9354064 0.70083439 0.68581223 1.048935e-38
1.9253616 0.71475458 0.68107754 7.9965055e-39
1.7888983 0.82293737 0.69258648 1.8708855e-38
1.784264 0.83039892 0.68942797 1.6313202e-38
1.7851465 0.83433646 0.68500817 1.6590881e-38
1.7760561 0.8396309 0.68756664 1.6961141e-38
1.7721035 0.84407574 0.6866709 1.7421747e-38
1.9603202 0.69528884 0.67040038 1.2237476e-38
1.7885927 0.83733445 0.67934817 1.825042e-38
1.7916096 0.84199446 0.67248607 1.8528455e-38
1.9616612 0.71158922 0.65401685 9.1068061e-39
1.7985831 0.84053844 0.66808176 1.7511396e-38
1.7956036 0.84557468 0.66582733 1.8160028e-38
1.8019886 0.84374887 0.66225678 1.760324e-38
1.7953727 0.84989494 0.66197026 1.8067474e-38
1.9897007 0.70295781 0.63891083 1.0397192e-38
1.9770974 0.71508354 0.63797373 1.0124918e-38
1.8075691 0.84170604 0.6595546 1.7880532e-38
1.8026557 0.84632003 0.65929526 1.6588383e-38
1.8050675 0.85048449 0.65339822 1.8160028e-38
1.9865887 0.71218836 0.63283545 9.84509e-39
1.8097626 0.84462219 0.65500772 1.7880894e-38
1.8066186 0.84904623 0.65346277 1.7511766e-38
1.8070922 0.85203809 0.6502676 1.6866781e-38
1.9906235 0.71547472 0.62641841 8.4625059e-39
1.9459989 0.74356532 0.63700932 1.2063214e-38
1.8108006 0.84807038 0.65091801 1.8433706e-38
1.8110853 0.8511979 0.64775181 1.8064218e-38
1.8090746 0.85481757 0.64602327 1.7145153e-38
1.9524102 0.74589545 0.62952232 1.22483e-38
1.8151758 0.85011488 0.64538318 1.7881249e-38
1.8155813 0.85433018 0.64109772 1.7695432e-38
1.8124588 0.85813433 0.64011586 1.7143711e-38
1.9966063 0.72004175 0.61718988 1.0675565e-38
1.9847252 0.72838455 0.61920011 6.7111743e-39
1.9830619 0.73404616 0.61527103 8.6501706e-39
1.9610804 0.74752408 0.62082428 1.4461763e-38
1.8206011 0.85229069 0.63885635 1.815748e-38
2.0118563 0.70690334 0.61688668 1.1505648e-38
2.0017073 0.71327806 0.61930841 1.1132569e-38
1.993367 0.725802 0.61447173 1.0859217e-38
1.9853622 0.7316274 0.61563468 7.9089832e-39
1.9818822 0.73798388 0.61255682 5.6062701e-39
1.9743965 0.74330533 0.61376256 9.2069303e-39
1.8246593 0.85469383 0.63324755 1.852663e-38
1.8216348 0.85914081 0.6315825 1.7604314e-38
1.8200905 0.86252689 0.62968689 1.7235182e-38
1.9987983 0.71903908 0.61631638 1.1223302e-38
1.9932938 0.72266567 0.61747134 9.5684975e-39
1.9883865 0.734981 0.6099906 7.9104279e-39
1.9865521 0.73728323 0.60935056 7.7206389e-39
1.9736993 0.74796528 0.60997289 8.0977045e-39
1.9657234 0.75170457 0.61306638 1.059129e-38
1.8275324 0.85796708 0.6278038 1.8801413e-38
1.8227789 0.86602128 0.62418866 1.7420292e-38
1.8199706 0.86958545 0.62317193 1.6406509e-38
2.0161154 0.71187329 0.60870641 1.6395674e-38
2.0082541 0.71837997 0.60911214 9.6650344e-39
1.9790757 0.74686462 0.60655665 8.094829e-39
1.8304013 0.86124444 0.62235945 1.8893968e-38
1.8289801 0.86488479 0.62012386 1.824861e-38
1.8275911 0.86902171 0.61739635 1.7697962e-38
1.8231763 0.87315696 0.61717355 1.75143e-38
1.8275453 0.87668651 0.61025208 1.7699048e-38
1.8077385 0.90114766 0.6037147 1.8894722e-38
1.8025401 0.90563512 0.60381001 1.8250061e-38
1.7980657 0.90982139 0.60358834 1.815715e-38
1.7937187 0.91545409 0.60190606 1.8063875e-38
1.7935486 0.91884524 0.59886897 1.7880919e-38
1.7890503 0.92305493 0.59864545 1.7696162e-38
2.012229 0.72103912 0.60333228 1.5016379e-38
1.994471 0.7343362 0.60556144 1.150352e-38
1.8326164 0.87118989 0.61120766 1.8435896e-38
1.8285047 0.87528181 0.6107747 1.8528815e-38
1.8265018 0.87770474 0.61016101 1.7145524e-38
1.8243306 0.88263679 0.60733557 1.8802881e-38
1.8217092 0.88641334 0.60596508 1.8894719e-38
1.817381 0.89051896 0.60569805 1.8894719e-38
1.8129296 0.89468396 0.60547751 1.8710319e-38
1.8099158 0.89852518 0.60437125 1.8525569e-38
1.8079829 0.90455765 0.60031724 1.5020314e-38
1.8013006 0.90970683 0.60101986 1.4561865e-38
1.8001815 0.91354895 0.59834504 1.4560049e-38
1.7973123 0.91802305 0.59652609 1.3361133e-38
1.9921789 0.7389425 0.60314125 1.0767743e-38
1.8319581 0.8692199 0.61359841 1.8249686e-38
1.8318995 0.8730098 0.6100955 1.7144074e-38
1.8287976 0.88089502 0.60527253 1.6682014e-38
1.826537 0.88401163 0.604222 1.5851876e-38
1.8207418 0.88994461 0.60345644 1.4100141e-38
1.8136815 0.8947919 0.60475439 1.3361473e-38
1.8128108 0.89887398 0.60164964 1.2531728e-38
1.8099729 0.90171099 0.60133857 1.290159e-38
1.8048174 0.90786344 0.59983814 1.2072586e-38
1.8057606 0.91239035 0.59481567 1.4929552e-38
1.8024733 0.91634625 0.59382826 1.5113943e-38
1.8008558 0.92147654 0.59035891 1.5667477e-38
1.7976482 0.92544568 0.58929288 1.548345e-38
1.8339384 0.8708446 0.61043805 1.8248967e-38
1.83281 0.88049012 0.60233277 1.4652958e-38
1.8283982 0.88461226 0.60211962 1.4835918e-38
1.8253298 0.88845384 0.60105813 1.4744436e-38
1.8228209 0.89364237 0.59827161 1.5943349e-38
1.818392 0.89778006 0.59805763 1.5666765e-38
1.8154405 0.90159255 0.59692687 1.5667128e-38
1.8124713 0.90541852 0.59579778 1.5574571e-38
1.8099345 0.90919268 0.59435976 1.5666403e-38
1.8081253 0.91480768 0.59059459 1.5851881e-38
1.8048474 0.91999382 0.58844638 1.6958941e-38
1.8007739 0.92310137 0.5889042 1.5390922e-38
1.8018471 0.9264791 0.58485121 1.7051499e-38
1.7973598 0.93066514 0.5846405 1.7235163e-38
1.7928725 0.93485129 0.5844298 1.7052209e-38
1.8315034 0.88494307 0.59924108 1.7602876e-38
1.8304669 0.88829631 0.59695631 1.7418843e-38
1.8260543 0.89241689 0.59674537 1.7327009e-38
1.8247707 0.89732414 0.59320867 1.7603953e-38
1.8226819 0.90062082 0.59184742 1.797238e-38
1.8202668 0.9046433 0.59007591 1.7604678e-38
1.8158969 0.90884787 0.58975065 1.7419202e-38
1.8133559 0.9126361 0.58830279 1.7511032e-38
1.8104856 0.91798967 0.5856604 1.7511755e-38
1.8042487 0.92181969 0.5872308 1.5762209e-38
1.8058569 0.92496496 0.58295327 1.7512114e-38
1.8004879 0.93011636 0.58256721 1.622067e-38
1.7997702 0.93432879 0.5792135 1.7603944e-38
1.7949674 0.93860012 0.57918388 1.7420274e-38
1.7904791 0.94278479 0.57897556 1.732773e-38
1.8356675 0.8817867 0.59875423 1.7696151e-38
1.8302896 0.89136481 0.59422767 1.6867465e-38
1.8280318 0.89494026 0.59274507 1.6957504e-38
1.8272706 0.90009582 0.58854353 1.8433716e-38
1.8255658 0.90451962 0.58580834 1.8157122e-38
1.8211163 0.90866673 0.58560288 1.8065651e-38
1.8199512 0.91081905 0.58455002 1.6591251e-38
1.8188171 0.91343093 0.58304036 1.8156764e-38
1.8143501 0.91759497 0.58283359 1.7604665e-38
1.8102058 0.92317951 0.5810287 1.7604308e-38
1.8036988 0.92846704 0.58145672 1.6314658e-38
1.7999675 0.93329263 0.58002138 1.5758616e-38
1.8012288 0.93760747 0.57493466 1.5667485e-38
1.7902353 0.9465816 0.57561928 1.5668205e-38
1.8340679 0.88961107 0.5927456 1.8526271e-38
1.8297516 0.89395332 0.59224707 1.825004e-38
1.8290635 0.89738297 0.58960265 1.834079e-38
1.8281041 0.9005425 0.58743566 1.7419559e-38
1.826339 0.90398747 0.58566731 1.723517e-38
1.8270688 0.90946752 0.57992882 1.6866028e-38
1.8249016 0.91309983 0.57831764 1.6681992e-38
1.818392 0.91751134 0.57956868 1.6682352e-38
1.8137223 0.92165416 0.57954943 1.5946586e-38
1.8069276 0.92757201 0.57962441 1.4932783e-38
1.8078191 0.93108577 0.57559437 1.5578141e-38
1.8348299 0.89996606 0.58241206 1.6313917e-38
1.8325313 0.90357554 0.58093143 1.6314273e-38
1.8305337 0.90708911 0.57929134 1.6036977e-38
1.8313724 0.91129112 0.57465988 1.4471104e-38
1.3812118 0.50931579 1.3237017 1.2623969e-38
1.451456 0.53135908 1.2449405 1.8395798e-39
1.4911267 0.59390002 1.1535209 1.8530971e-38
1.4959068 0.59482157 1.1487031 1.8161833e-38
1.5438602 0.63892418 1.06771 1.8991599e-38
1.5810575 0.60923862 1.0647577 2.3509886e-38
1.5430647 0.6448133 1.0628498 1.9360026e-38
1.5451841 0.64837193 1.0577619 1.9084511e-38
1.5566288 0.64926177 1.0474612 1.9544755e-38
1.5638983 0.65418196 1.0368373 1.9359659e-38
1.5788789 0.66817302 1.0113353 1.9359653e-38
1.5853065 0.67896509 0.99590552 1.908235e-38
1.5874492 0.68256253 0.99076229 1.908235e-38
1.5958841 0.6820336 0.98428059 1.8990877e-38
1.6047686 0.69079953 0.96871734 1.7516818e-38
1.6298361 0.70479959 0.93486279 1.8069634e-38
1.6320375 0.70849597 0.92957795 1.8345864e-38
1.6400795 0.71385181 0.91790712 1.1252142e-38
1.6511326 0.72087556 0.90218258 1.8067472e-38
1.6533468 0.72459322 0.89686716 1.7791962e-38
1.7922636 0.61288095 0.88663614 4.414568e-39
1.7876462 0.61720461 0.88640434 7.093576e-39
1.6555612 0.72831106 0.89155179 1.8068548e-38
1.7990457 0.61088121 0.88289988 4.506765e-39
1.7944558 0.615179 0.88266939 4.3220221e-39
1.6577754 0.73202872 0.88623649 1.8159668e-38
1.6666143 0.73533469 0.87582725 1.8251142e-38
1.6659698 0.73757446 0.8742615 1.8251142e-38
1.6606396 0.74505043 0.87166518 1.8251142e-38
1.6694278 0.74833727 0.86131573 1.8435532e-38
1.6788203 0.75096089 0.85108775 1.6961116e-38
1.6887205 0.74938196 0.84437799 1.9356744e-38
1.6843101 0.75351155 0.84415644 1.8250416e-38
1.6933485 0.750723 0.83929306 1.815928e-38
1.6975592 0.75268793 0.83396882 1.9908477e-38
1.7385941 0.79880875 0.75680739 1.7329903e-38
1.7519424 0.81008643 0.73519802 1.9081251e-38
1.9472235 0.68498063 0.69089305 1.344138e-38
1.7628616 0.82270038 0.71434581 1.6127044e-38
1.9515982 0.68946916 0.68306845 1.3440675e-38
1.7710484 0.82363451 0.70669842 1.474659e-38
1.9531819 0.69378775 0.67771178 1.3529657e-38
1.7742481 0.82708812 0.70081556 1.6221368e-38
1.9710487 0.68933403 0.66710567 1.3627228e-38
2.000809 0.72592926 0.60819656 1.2699172e-38
1.8133187 0.86260569 0.63521463 1.7511412e-38
1.8147889 0.86672276 0.6301406 1.7695797e-38
1.8205192 0.88211691 0.61097533 1.8342256e-38
1.8204228 0.88410163 0.60919535 1.9172731e-38
1.8157521 0.88847488 0.60896081 1.9079463e-38
1.8158419 0.89180911 0.60576248 1.9172375e-38
1.8058116 0.89737058 0.6088478 1.7881626e-38
1.8011671 0.90141749 0.60889757 1.7696523e-38
1.7984767 0.90503228 0.60773605 1.769652e-38
1.7965978 0.91058248 0.60408944 1.7789076e-38
1.8202693 0.89302009 0.60096514 1.4652979e-38
1.8064307 0.90946889 0.59699935 1.400723e-38
1.834693 0.91117245 0.57202452 1.8156756e-38
1.8299947 0.91557151 0.57178855 1.7787973e-38
1.8252965 0.91997063 0.57155257 1.7788692e-38
1.8071544 0.93438649 0.57305139 1.6682334e-38
1.6002754 0.69104278 0.972206 1.4016259e-38
1.6324955 0.71262264 0.92533231 1.5211903e-38
1.6587068 0.73856622 0.87934005 1.3736433e-38
1.6631501 0.73936248 0.87491852 1.4472919e-38
1.7142515 0.76520699 0.80842984 1.5945859e-38
1.7179915 0.77947944 0.79196221 1.4380364e-38
1.9617153 0.68994105 0.67425722 1.279531e-38
2.0011983 0.69783086 0.63420421 1.288682e-38
2.0123138 0.69653428 0.62622434 1.5197825e-38
2.0016272 0.70258057 0.62939852 1.0580472e-38
1.9953941 0.7155658 0.62238693 1.9351359e-38
1.9873794 0.72937667 0.6160751 1.0213521e-38
1.9826027 0.73314071 0.61649913 1.002876e-38
1.994409 0.7463553 0.59435046 1.0120936e-38
1.8147489 0.88763982 0.61057347 1.65909e-38
1.8142787 0.8902902 0.60847861 1.6773844e-38
1.8096668 0.89392471 0.60888809 1.6681648e-38
1.8013909 0.90299785 0.60723162 1.7327033e-38
1.8110023 0.8976925 0.60425252 1.3177083e-38
1.8251412 0.90115833 0.58930933 1.7326275e-38
1.8205291 0.9047929 0.58971882 1.7235158e-38
1.8075691 0.93030977 0.57652843 1.6590519e-38
1.7894716 0.94383746 0.57882249 1.5852591e-38
1.3850739 0.4834666 1.3447291 1.9624644e-38
1.3798018 0.49213436 1.3409678 1.8436266e-38
1.3872406 0.48598135 1.3405803 1.7407316e-38
1.3840233 0.49411967 1.3356155 1.5293643e-38
1.3877921 0.49626639 1.3304863 1.6209807e-38
1.3910955 0.49903962 1.3251553 1.7318684e-38
1.3982775 0.49725372 1.3208879 1.8513592e-38
1.3968267 0.50712961 1.3128337 1.9998873e-38
1.4023434 0.50563544 1.3096706 1.8337226e-38
1.4357373 0.52494198 1.2639562 2.0540865e-38
1.435991 0.52879459 1.260136 1.7779329e-38
1.4382612 0.53268999 1.254608 1.7963689e-38
1.4464743 0.54418397 1.2370435 1.7970563e-38
1.4489127 0.54537702 1.2339087 1.9441349e-38
1.4508358 0.54770118 1.2301399 1.7599602e-38
1.4580536 0.5539723 1.2182931 1.6402887e-38
1.4654834 0.55837095 1.2080255 1.6951324e-38
1.4706815 0.56528765 1.1972442 1.8801394e-38
1.4742466 0.56756073 1.1921654 1.7691453e-38
1.4785407 0.56905949 1.1872089 1.7413775e-38
1.4841013 0.58171272 1.1707523 2.1479414e-38
1.4902756 0.57854515 1.1686132 1.6397101e-38
1.5916929 0.66116905 1.0072986 1.7876939e-38
1.5978215 0.66800648 0.99582207 1.8524448e-38
1.6159408 0.68088257 0.96876848 1.5940092e-38
1.6181352 0.68400854 0.96402401 1.5663504e-38
1.6276665 0.69204736 0.94860685 1.8241752e-38
1.6381048 0.69506913 0.93714076 1.4271181e-38
1.6356001 0.7030558 0.93172896 1.8986888e-38
1.6423372 0.70196998 0.92717326 1.5198193e-38
1.648577 0.70300859 0.92103875 1.6303457e-38
1.6471045 0.70812285 0.91746426 1.7696144e-38
1.6526315 0.70645463 0.91445565 1.3165556e-38
1.6650034 0.7163623 0.89493781 1.4274435e-38
1.6710342 0.71694928 0.88939917 1.5651927e-38
1.4032011 0.50698948 1.3076921 1.6214853e-38
1.667906 0.72561651 0.88386482 1.547875e-38
1.6755971 0.73059618 0.87283683 1.7046815e-38
1.3733549 0.50847888 1.3309848 2.1205569e-39
1.4070224 0.51573795 1.2963333 1.6775546e-38
1.6805609 0.73853499 0.86129177 1.1340393e-38
1.4063383 0.45394552 1.354802 6.5009879e-40
1.4048553 0.51100141 1.3025647 1.7225396e-38
1.4435953 0.53664416 1.2464902 1.8146277e-38
1.4568067 0.5489639 1.2240179 1.0101905e-39
1.4618886 0.54959059 1.2192267 1.6670443e-38
1.4860654 0.57481402 1.1755922 1.611723e-38
1.3911779 0.51148218 1.3134278 1.9727324e-38
1.7378298 0.57903606 0.96337777 8.1981523e-39
1.7849505 0.62156844 0.88454509 4.5121376e-39
1.7779335 0.62990355 0.8825388 1.6541193e-39
1.7902945 0.63727999 0.86540174 2.8530044e-39
1.9117491 0.80296105 0.60968351 1.2518363e-38
1.9319652 0.82257563 0.57458127 1.8896157e-38
1.6445422 0.63585925 0.98729867 9.8562219e-39
1.7379048 0.57432371 0.96773154 7.2750974e-39
1.7143978 0.59221286 0.97041357 7.2779869e-39
1.722132 0.59077972 0.96535867 8.4732889e-39
1.6648302 0.65837723 0.9494161 1.031322e-38
1.6726773 0.65690237 0.94430691 1.0498698e-38
1.6801783 0.6556856 0.9392423 1.0681669e-38
1.753961 0.61618376 0.91522509 6.6358797e-39
1.8591788 0.67565125 0.77246529 2.2076392e-39
1.8644499 0.67781657 0.76607627 1.4736727e-39
1.8747209 0.68092871 0.75466359 6.5310822e-39
1.5486081 0.57734329 1.1214871 3.6893806e-39
1.598707 0.60411048 1.0549634 7.3651126e-40
1.6018372 0.60827202 1.0484748 0
1.5952421 0.6144942 1.0480996 2.3509527e-38
1.6030898 0.613671 1.0423794 2.3509886e-38
1.6327441 0.59122765 1.0388799 2.1108487e-38
1.6593356 0.58136094 1.0261295 1.6493996e-38
1.54752 0.55754369 1.1409403 1.751215e-38
1.5737078 0.60466564 1.0751224 1.9084416e-38
1.909253 0.71160865 0.69735038 8.5514631e-39
1.9049989 0.71639282 0.69638628 9.2040184e-39
1.9159306 0.71788758 0.68594295 8.3703075e-39
1.9083705 0.72321725 0.68720227 5.9768406e-39
1.9211462 0.71999425 0.67965454 9.3837293e-39
1.9218729 0.7243982 0.67492676 1.0402164e-38
1.9380398 0.71753067 0.66798884 9.5674031e-39
1.9497257 0.71543181 0.66028899 8.7394599e-39
1.9411607 0.72101063 0.66214621 1.381385e-38
1.9554223 0.71803504 0.65313745 5.7910172e-39
1.9377997 0.72819602 0.65819335 1.2895841e-38
1.9763788 0.70986742 0.64345592 1.0583349e-38
1.9545515 0.72403973 0.64823109 1.0863943e-38
1.9706461 0.7201525 0.63856018 1.0772405e-38
1.9543152 0.72877336 0.64399081 1.5841767e-38
1.9598465 0.73144543 0.63691157 1.6396022e-38
1.9621497 0.73531818 0.63137728 1.6489313e-38
1.9881808 0.7238937 0.6205501 7.9100622e-39
1.9693054 0.7375288 0.62338692 1.4000387e-38
1.9724071 0.74051487 0.61802292 1.188169e-38
1.9643742 0.74942732 0.61631632 1.3172428e-38
1.9724768 0.75390315 0.60541993 6.5343654e-39
1.9130356 0.72352523 0.68305498 9.9405184e-39
1.9050006 0.72894186 0.68462574 1.1415972e-38
1.4010071 0.4998765 1.3161724 2.1373799e-38
1.4401975 0.53563213 1.2502494 1.5935324e-38
1.6836853 0.72913188 0.86751842 1.5558634e-38
1.3887827 0.48037285 1.3445601 1.1608363e-38
1.3963392 0.48610675 1.3329365 1.8973833e-38
1.4067665 0.49411994 1.3168024 1.8973478e-38
1.4105126 0.49629125 1.3116691 1.8143721e-38
1.4033334 0.50221992 1.3120521 2.1557521e-38
1.4152437 0.49742186 1.3066961 1.8507457e-38
1.4675987 0.54937208 1.2147083 1.9344445e-38
1.472249 0.55698234 1.2037301 2.2111774e-38
1.5089501 0.58272135 1.1492524 2.0084536e-38
1.5464426 0.61263132 1.0902119 1.8140478e-38
1.7110817 0.70195901 0.87031871 1.4082806e-38
1.6934 0.71546608 0.87228823 1.426823e-38
1.6927198 0.73724562 0.85244215 1.6665353e-38
1.7885901 0.72482705 0.78477579 1.3252321e-38
1.6757268 0.72821563 0.8749603 1.3439576e-38
1.7049609 0.75082463 0.82959223 1.3072587e-38
1.3933933 0.48136151 1.3398198 1.7221073e-38
1.3967137 0.49251944 1.3266178 2.1005765e-38
1.4030125 0.49157381 1.3222933 1.9709992e-38
1.409132 0.50516123 1.3044991 2.3123046e-38
1.4071828 0.51378322 1.2980325 1.8974209e-38
1.4396268 0.52728283 1.258545 2.2570588e-38
1.4465528 0.53959 1.2412834 1.9531735e-38
1.4504519 0.54178715 1.2359996 2.137639e-38
1.4546617 0.54331994 1.2310807 2.1195603e-38
1.4646226 0.5527668 1.2139889 2.0727395e-38
1.4686732 0.55471188 1.2088155 2.2388729e-38
1.4745103 0.56092876 1.1981617 2.0267851e-38
1.4780762 0.56320345 1.1930807 2.0913243e-38
1.4823782 0.56469738 1.1881222 2.1282742e-38
1.4859331 0.56699044 1.1830328 2.1003984e-38
1.490636 0.56820858 1.1780009 2.2018503e-38
1.4944499 0.57022864 1.1729534 2.1649707e-38
1.4963173 0.57511151 1.1668329 2.2387293e-38
1.5018889 0.57810062 1.1594236 2.1742997e-38
1.5152632 0.58843708 1.1386745 2.1280582e-38
1.5187542 0.59077787 1.1335933 2.0912891e-38
1.6778549 0.68936694 0.90960312 1.4176445e-38
1.6557218 0.707973 0.91047662 1.4085318e-38
1.690496 0.68548322 0.90278554 1.3717252e-38
1.6970364 0.74003047 0.84626204 1.6390566e-38
1.7044178 0.74496841 0.83552873 1.6941967e-38
1.7081087 0.74743742 0.83016223 1.6850838e-38
1.7075968 0.75383037 0.82459527 1.3623621e-38
1.7272943 0.76693583 0.79602122 1.343996e-38
1.7351999 0.76461065 0.79166043 1.592922e-38
1.5407835 0.6293385 1.0792373 1.7879781e-38
1.6658744 0.70426559 0.90555251 1.7865308e-38
1.697957 0.7388972 0.84656221 1.6295106e-38
1.7001587 0.74259359 0.84127736 1.5741228e-38
1.7107902 0.74029911 0.83463317 1.8598538e-38
1.3894584 0.52234209 1.304674 2.0743287e-38
1.4061257 0.51574379 1.2970697 2.1849996e-38
1.4098409 0.5179255 1.2919521 2.2771956e-38
1.4010434 0.52041626 1.2968954 1.5762894e-38
1.4177428 0.5157752 1.2874306 1.8978951e-38
1.4220001 0.5175755 1.2822219 1.8238128e-38
1.4244962 0.52087617 1.2770643 1.6946275e-38
1.4292024 0.52324229 1.2709544 1.7222883e-38
1.413137 0.51966453 1.287596 1.9633701e-38
1.4160227 0.50696689 1.2971072 2.1557499e-38
1.4212445 0.5107066 1.2892838 1.9713932e-38
1.4347193 0.52064925 1.2688205 1.9898679e-38
1.437444 0.52280474 1.2645468 2.017527e-38
1.4117551 0.51336932 1.2946383 1.7774248e-38
1.4195487 0.51342946 1.2881348 2.0080578e-38
1.4237058 0.51539522 1.2828541 2.1833732e-38
1.4310409 0.51695687 1.2753234 2.1557154e-38
1.4318756 0.52638018 1.2658026 1.91615e-38
1.771553 0.6453343 0.87335736 5.5101578e-40
1.8382961 0.69001716 0.77627784 1.6530389e-39
1.8461021 0.69035137 0.76950753 3.1224111e-39
1.7970042 0.76941693 0.73603255 1.2700931e-38
1.8070153 0.7644242 0.7324298 1.1965178e-38
1.8181212 0.76212084 0.7254014 1.0950672e-38
1.8092427 0.76797163 0.72726309 1.1412011e-38
1.8053674 0.77309662 0.7256664 1.0767362e-38
1.8109403 0.77303618 0.7211132 1.1780778e-38
1.8163905 0.77248883 0.71711773 9.7557474e-39
1.8120435 0.77662075 0.71684158 1.0765209e-38
1.8643061 0.80223078 0.64961272 9.8468669e-39
1.8788896 0.80273491 0.63707674 1.2883929e-38
1.8744849 0.80718029 0.63655472 1.316157e-38
1.8821671 0.80601358 0.63129342 1.2978285e-38
1.8877366 0.80657011 0.62616479 1.2703485e-38
1.882493 0.81326103 0.62423259 1.3069703e-38
1.8719226 0.81985867 0.62679398 1.3070073e-38
1.8914785 0.80971074 0.62012649 1.1596764e-38
1.8869455 0.82372606 0.61074311 1.2702017e-38
1.920458 0.80513394 0.60044384 1.3347745e-38
1.9088951 0.82419932 0.59214312 1.2426153e-38
1.8959075 0.83292979 0.59470552 1.3898752e-38
1.912639 0.82853866 0.58498013 1.3714019e-38
1.8998888 0.83538103 0.5891152 1.2978612e-38
1.9146028 0.83104318 0.58100861 1.2242151e-38
1.9225742 0.82931775 0.57603174 1.2526281e-38
1.9310545 0.83032656 0.5680716 2.0091149e-38
1.9338374 0.81099963 0.58387983 1.3434192e-38
1.9179541 0.81852424 0.58996743 1.3618589e-38
1.7460518 0.72934997 0.81572497 1.0492564e-38
1.7627481 0.72749227 0.80365455 1.0582965e-38
1.8513149 0.69617826 0.75973552 9.2036414e-39
1.7955509 0.74820471 0.75711173 1.1506736e-38
1.7640178 0.64655817 0.8784436 6.1720191e-39
1.7331656 0.68132377 0.87138724 1.2335762e-38
1.7465862 0.7258473 0.81856501 1.2884956e-38
1.7490145 0.73028505 0.8123979 1.2884604e-38
1.7556269 0.73591036 0.80165708 1.2793485e-38
1.7673007 0.73846543 0.78960609 1.2609099e-38
1.7696092 0.74193656 0.78444409 1.2701294e-38
1.7492394 0.63437951 0.90208024 1.1877685e-38
1.7526858 0.63949227 0.89443862 1.1969512e-38
1.7555722 0.64243883 0.88928974 1.1600728e-38
1.6997533 0.69397914 0.88716692 1.3256269e-38
1.7274246 0.68922758 0.86873001 1.2519434e-38
1.7181751 0.69600075 0.87003416 1.2610917e-38
1.7383466 0.6835233 0.8650406 1.3071519e-38
1.7298423 0.69263679 0.8635354 1.242652e-38
1.721378 0.69895279 0.86461842 1.2426519e-38
1.7102892 0.70657367 0.86664999 1.3070805e-38
1.733126 0.69655138 0.85715091 1.2426158e-38
1.7133762 0.71053189 0.86038744 1.325411e-38
1.7314377 0.70298964 0.85251451 1.2700946e-38
1.7216988 0.70984721 0.85414463 1.2978245e-38
1.7356061 0.70522517 0.84697175 1.2792419e-38
1.7240703 0.71323287 0.84901035 1.3070426e-38
1.7150171 0.71972579 0.85041481 1.3254823e-38
1.7379888 0.70864397 0.84179711 1.2793142e-38
1.7199646 0.72150487 0.84465545 1.3530333e-38
1.7062764 0.7376225 0.84087503 1.6848658e-38
1.7479191 0.71773219 0.82506663 1.3621092e-38
1.745283 0.74076229 0.80566692 1.4080978e-38
1.7594801 0.73870498 0.79585087 1.2793844e-38
1.7498764 0.74515581 0.79775035 1.3161187e-38
1.7444757 0.75004995 0.79763156 1.2241039e-38
1.7386597 0.7565307 0.79636979 1.4819984e-38
1.7379879 0.76095945 0.79277557 1.4360449e-38
1.7534233 0.75450361 0.78605694 1.3528903e-38
1.7450219 0.76032072 0.78755552 1.4452281e-38
1.7556908 0.75795203 0.78094995 1.3529986e-38
1.7666409 0.7545594 0.77507114 1.4451937e-38
1.7905145 0.74381322 0.76539266 1.3255566e-38
1.7605011 0.76430398 0.77101868 1.3900575e-38
1.7739861 0.77058005 0.75398302 1.3806935e-38
1.7396835 0.69852144 0.84988046 1.2884979e-38
1.7265722 0.71622926 0.8441332 1.316227e-38
1.7521398 0.69919378 0.83894682 1.2426879e-38
1.7445264 0.70499963 0.83980435 1.2793139e-38
1.7290002 0.72057718 0.83805048 1.3438499e-38
1.7545189 0.70263755 0.83375192 1.2887124e-38
1.7511791 0.7076456 0.83182162 1.2608753e-38
1.7412217 0.71720433 0.8311016 1.2977529e-38
1.7313427 0.72397619 0.83292758 1.34385e-38
1.7528421 0.71082717 0.827465 1.2793139e-38
1.7355287 0.72618103 0.82739908 1.3253391e-38
1.7656802 0.70715708 0.82028419 1.2977882e-38
1.7479476 0.72009557 0.82282841 1.2148484e-38
1.7401525 0.72642398 0.8233465 1.3344513e-38
1.7648573 0.71308237 0.81541258 1.3069366e-38
1.7503293 0.734191 0.80765033 1.2701658e-38
1.7477938 0.74213052 0.80230778 1.2333594e-38
1.8434465 0.69934434 0.76327717 1.0862787e-38
1.7831638 0.74284971 0.77237618 1.2886776e-38
1.7732223 0.74931687 0.77453959 1.3163006e-38
1.7775618 0.75151592 0.76888943 1.3439959e-38
1.7675215 0.75795537 0.77116048 1.390021e-38
1.857729 0.70018232 0.75067782 1.1323069e-38
1.7893697 0.7487253 0.76173693 1.3348127e-38
1.7799073 0.75611806 0.76263678 1.3440678e-38
1.7912346 0.75897539 0.75058937 1.3439945e-38
1.7946236 0.76204437 0.7449103 1.2886048e-38
1.784883 0.76828367 0.74712098 1.3529974e-38
1.8068554 0.75878698 0.73784447 1.2149204e-38
1.7962821 0.76533192 0.74045777 1.2700576e-38
1.7892987 0.77047253 0.74141741 1.3160841e-38
1.7882659 0.7751919 0.73784924 1.3161556e-38
1.8003998 0.77249092 0.73034316 1.2516907e-38
1.8011765 0.77713126 0.72535253 1.1597836e-38
1.8565115 0.80426431 0.65415472 1.1230523e-38
1.8640186 0.8092863 0.64323914 1.1045034e-38
1.8795526 0.80991024 0.62980467 1.3159784e-38
1.8808396 0.82040441 0.61890656 1.3438489e-38
1.8897167 0.82102436 0.61098242 1.3990951e-38
1.8943895 0.82550871 0.60291511 1.3897316e-38
1.88112 0.83211732 0.60769916 1.3713635e-38
1.8942386 0.82987857 0.59894526 1.4081351e-38
1.884792 0.83539772 0.60158759 1.3898035e-38
1.8868794 0.83913189 0.59636182 1.3806917e-38
1.9185251 0.82151645 0.58669126 1.5279145e-38
1.7387999 0.71280277 0.83722901 1.2884976e-38
1.7338707 0.73270041 0.82266134 1.3345943e-38
1.7389723 0.73446506 0.81678772 1.3161549e-38
1.7412982 0.7378729 0.8116706 1.316155e-38
1.7588353 0.744389 0.79105806 1.2977526e-38
1.7472478 0.7520417 0.79347211 1.3437073e-38
1.8002294 0.72181648 0.77796876 1.2425082e-38
1.7601852 0.74825841 0.78631568 1.3253756e-38
1.7927307 0.73194903 0.77467692 1.2886053e-38
1.7719052 0.7454139 0.77928632 1.2793496e-38
1.7624625 0.75171185 0.78119576 1.3162277e-38
1.8071347 0.72757739 0.76685858 1.2980044e-38
1.7983428 0.73365569 0.76843518 1.3348109e-38
1.7713772 0.7619307 0.76424599 1.4083895e-38
1.7900916 0.75498927 0.75527006 1.3439603e-38
1.78039 0.76127803 0.75740212 1.3624707e-38
1.7707496 0.76751119 0.75953615 1.3900219e-38
1.7826427 0.76477778 0.75225955 1.3715814e-38
1.8049426 0.75557673 0.74243492 1.2884973e-38
1.8801469 0.82689136 0.61340088 1.3989507e-38
1.9070213 0.81866711 0.59887725 1.3715076e-38
1.9099931 0.8220703 0.59322989 1.3898391e-38
1.453977 0.52329022 1.250416 7.361189e-40
1.4530013 0.53249109 1.2426014 3.1278061e-39
1.4580903 0.53303289 1.237884 7.3685038e-40
1.467733 0.53493786 1.2281224 3.6879793e-40
1.4713347 0.53718382 1.2230388 6.4465054e-40
1.4683878 0.54061627 1.2222598 1.2882221e-39
1.4757773 0.54504454 1.2119979 2.1147275e-39
1.4910288 0.55167055 1.1931732 6.3502811e-39
1.5523014 0.54750293 1.146394 1.5844302e-38
1.5429089 0.58677751 1.1173612 2.1104852e-38
1.5477223 0.58545423 1.1146196 2.3509168e-38
1.5484952 0.59061861 1.1091409 2.3509886e-38
1.5468155 0.59311199 1.108194 1.8987238e-38
1.5575678 0.60496229 1.0881953 2.3509886e-38
1.5529099 0.60990113 1.0874202 1.8893599e-38
1.5514349 0.6135388 1.0852318 1.3448606e-38
1.5695736 0.61905479 1.0650588 1.8149919e-38
1.5710248 0.62013078 1.0628502 2.0645357e-38
1.5791489 0.61654174 1.0594931 2.3509886e-38
1.586156 0.61551034 1.0546633 2.3509886e-38
1.5826708 0.61940372 1.053898 2.2401387e-38
1.5897608 0.61732852 1.0499774 2.3509886e-38
1.5855289 0.62209737 1.0490098 1.5663961e-38
1.5934633 0.6191619 1.0451969 2.3140023e-38
1.589874 0.62344795 1.0441496 1.4556468e-38
1.644191 0.60019487 1.0210084 1.7230458e-38
1.6390982 0.6068548 1.0189805 1.5288948e-38
1.3911284 0.4802838 1.342703 2.8675247e-39
1.3891351 0.49370304 1.3317775 1.6583962e-38
1.4091338 0.49364012 1.3152936 1.1693654e-38
1.4170097 0.49060959 1.3116183 1.1786202e-38
1.4070573 0.50702822 1.3044658 1.5015545e-38
1.4825658 0.55973327 1.1926184 1.1324495e-38
1.5386461 0.59315217 1.1149141 1.2525932e-38
1.4537799 0.5498153 1.2257237 1.2999916e-38
1.6624786 0.58161825 1.0232882 1.6308146e-38
1.4617012 0.53527397 1.2327974 7.361217e-40
1.4639118 0.53930837 1.2271881 5.5137311e-40
1.4711028 0.5438059 1.2170253 4.5103608e-39
1.4793546 0.54731011 1.2069159 4.2316075e-39
1.4855227 0.54733604 1.2017896 6.8087411e-39
1.5030204 0.56577629 1.170036 1.2890765e-38
1.4954411 0.57382077 1.1687675 1.7042034e-38
1.5480617 0.55247378 1.1452432 1.5292915e-38
1.5434002 0.57702667 1.126092 2.1104467e-38
1.54031 0.58609569 1.1201501 1.5011606e-38
1.5468493 0.58776104 1.1131799 2.2492491e-38
1.5413733 0.59460455 1.1112974 1.4548134e-38
1.5372975 0.59985751 1.1097462 1.5381823e-38
1.5523833 0.59443432 1.1023492 2.3509886e-38
1.5465163 0.60126966 1.1007974 1.4827558e-38
1.548349 0.60496515 1.0958182 1.5932518e-38
1.551861 0.6067422 1.0912479 1.9992404e-38
1.5574547 0.61320341 1.0805668 1.8334652e-38
1.5613763 0.61551559 1.075156 1.6675093e-38
1.5669692 0.61602408 1.0700531 1.8153143e-38
1.5739861 0.62184513 1.0587943 1.7503082e-38
1.5775541 0.62463903 1.0532249 1.5104504e-38
1.5829624 0.63016534 1.0435727 1.6025409e-38
1.4030917 0.51074171 1.3042667 1.6768389e-38
1.4050827 0.51408476 1.299487 1.5661325e-38
1.4618895 0.55284852 1.2161732 1.8424672e-38
1.5025412 0.56173015 1.1742237 1.1232646e-38
1.544921 0.61455357 1.0896692 1.6392734e-38
1.5559747 0.61541897 1.0797149 1.2156774e-38
1.4184245 0.49999979 1.3016491 1.7311805e-38
1.444468 0.52130026 1.2601465 1.5013018e-38
1.4481314 0.52351528 1.2550406 1.2987967e-38
1.4426957 0.52985394 1.2535974 2.1280571e-38
1.450667 0.52856362 1.2482126 1.0592346e-38
1.4468441 0.53295231 1.2472624 2.1096546e-38
1.4497881 0.53614599 1.2418343 1.8884554e-38
1.4534041 0.5383693 1.23676 1.8057304e-38
1.4570104 0.54060149 1.231685 1.6861655e-38
1.4603425 0.54345495 1.2262551 6.9978379e-39
1.4645596 0.5449937 1.2213249 1.3907447e-38
1.4734381 0.54826891 1.2109114 1.7870389e-38
1.4755282 0.55167437 1.2059915 1.621122e-38
1.4798186 0.55314863 1.2010612 1.446131e-38
1.4783388 0.55657005 1.199079 1.9067145e-38
1.4881827 0.55123049 1.1959398 1.3167314e-38
1.4819059 0.55884618 1.1939956 1.8513955e-38
1.492713 0.55266207 1.1908511 1.3627937e-38
1.4862157 0.56033528 1.1890352 1.8145523e-38
1.4954553 0.55638433 1.1850946 1.3626854e-38
1.4897717 0.56262988 1.1839435 1.7590907e-38
1.4999063 0.55451113 1.1831682 1.2430114e-38
1.4951758 0.5631265 1.1790078 1.5562604e-38
1.5032505 0.55631864 1.178708 1.2890006e-38
1.4998879 0.56429327 1.1740167 1.5195624e-38
1.4874276 0.57716012 1.1722668 1.9161518e-38
1.5081233 0.56510198 1.1664469 1.3166983e-38
1.5037137 0.56937379 1.1660912 1.676151e-38
1.4948441 0.58036757 1.1631267 2.0729941e-38
1.5124837 0.56662202 1.1614157 1.289182e-38
1.5057364 0.57375169 1.160316 1.5472216e-38
1.5181406 0.56699389 1.1563876 1.2430121e-38
1.5113595 0.57412314 1.1553164 1.3995283e-38
1.5058829 0.58000958 1.1543308 2.045225e-38
1.5216808 0.56934261 1.1512583 1.2521608e-38
1.5166063 0.57483882 1.1503059 1.335099e-38
1.5201272 0.57718956 1.1451906 1.3535019e-38
1.5314673 0.577595 1.13543 1.3901658e-38
1.5255805 0.58375347 1.1345288 1.4640625e-38
1.5418357 0.5728848 1.1312672 1.5751342e-38
1.5338527 0.58097798 1.1302871 1.4916532e-38
1.5269784 0.58801973 1.1293749 1.4364423e-38
1.5386164 0.58217293 1.1252267 1.4731387e-38
1.5317138 0.58920676 1.1243455 1.4549899e-38
1.5351912 0.59152639 1.1192954 1.5011968e-38
1.5399182 0.59282333 1.11417 1.5102357e-38
1.5317099 0.59981149 1.1144114 1.6857312e-38
1.5320373 0.60538268 1.1089203 2.0175665e-38
1.5435895 0.5985558 1.1057614 1.510197e-38
1.538569 0.609842 1.0993385 1.8885987e-38
1.5444973 0.60927242 1.0949684 1.7773857e-38
1.540251 0.6142593 1.0938077 2.0175308e-38
1.5611056 0.62186682 1.0694284 1.6669663e-38
1.564504 0.62427723 1.0643586 1.6485636e-38
1.5678936 0.62669706 1.0592873 1.71285e-38
1.5722712 0.62550259 1.0567856 1.6023973e-38
1.5657054 0.63238358 1.0557688 1.7960811e-38
1.3896645 0.49572873 1.3294412 1.851541e-38
1.3851902 0.49739704 1.3315792 1.5382217e-38
1.3951436 0.50776899 1.3136268 1.2252957e-38
1.4914386 0.57792187 1.1682353 1.9164386e-38
1.5000703 0.5750522 1.1637843 1.5106646e-38
1.5170788 0.59694427 1.1292009 1.9533907e-38
1.5517992 0.61932856 1.0795051 1.805333e-38
1.4312609 0.50798029 1.2835529 1.2339736e-38
1.4311858 0.51032084 1.2814219 1.7035563e-38
1.4249324 0.51938164 1.2781041 2.109905e-38
1.4395627 0.51381284 1.2712204 1.4180038e-38
1.443242 0.51603371 1.2660959 1.3075503e-38
1.7235284 0.57949853 0.97477448 4.9666502e-39
1.7193714 0.58417368 0.97383243 1.1600051e-38
1.719766 0.58812433 0.96980387 9.0228739e-39
1.7233411 0.58920753 0.96583152 8.8399568e-39
1.7204002 0.59259391 0.96509123 9.5767568e-39
1.7816616 0.62046814 0.88829637 7.3468397e-40
1.7774814 0.62516934 0.88734901 2.5713939e-39
1.7882681 0.61805242 0.88509536 4.8769881e-39
1.7855446 0.62306571 0.88265043 4.8813139e-39
1.7813643 0.62776691 0.88170308 6.2577645e-39
1.7872486 0.62639338 0.87812263 4.3241786e-39
1.7864362 0.62897795 0.87637287 4.6018417e-39
1.784564 0.6332956 0.8738755 3.4068999e-39
1.7939433 0.63036287 0.86886537 2.9452001e-39
1.7916105 0.63405359 0.86733657 2.945563e-39
1.7989051 0.62574643 0.86908668 5.3361558e-39
1.7991954 0.62750649 0.86719745 3.5884073e-39
1.7957833 0.63218057 0.86564004 2.944484e-39
1.7932559 0.63544077 0.86467564 2.7611745e-39
1.7915714 0.63823462 0.86345118 3.221787e-39
1.7890519 0.64148039 0.86249357 2.760813e-39
1.802588 0.6285702 0.8633942 4.6911605e-39
1.7965529 0.63654625 0.86091244 3.0363195e-39
1.7976024 0.63788873 0.85878646 2.7608116e-39
1.7922119 0.64267886 0.8587569 2.9441239e-39
1.787915 0.64788234 0.85743511 2.2994775e-39
1.8050954 0.63211381 0.85799944 5.8896813e-39
1.8055851 0.6361475 0.85381466 4.3216647e-39
1.7963969 0.64309657 0.85490358 2.9444854e-39
1.7946619 0.6461615 0.85346681 2.7604487e-39
1.7997499 0.64342678 0.85182053 4.5081972e-39
1.7976094 0.64861113 0.84873313 4.3216577e-39
1.7947108 0.65286624 0.84714359 3.3093079e-39
1.800505 0.64970034 0.84531707 5.1485457e-39
1.7904713 0.66016263 0.8438133 3.9532311e-39
1.7970271 0.65846908 0.83997756 6.7205167e-39
1.7929597 0.66336012 0.83875889 5.7982073e-39
1.7997195 0.66190195 0.83453351 5.1517799e-39
1.7954273 0.66656697 0.83371246 3.9557563e-39
1.7927662 0.66990829 0.83278292 3.7731573e-39
1.8101678 0.66140443 0.82635683 4.2305369e-39
1.8027562 0.66757423 0.82670623 3.9528724e-39
1.7955008 0.67426097 0.82644242 3.3096652e-39
1.8150483 0.66147149 0.82225686 4.3223724e-39
1.810675 0.66593599 0.82169116 4.6893528e-39
1.8063015 0.6704005 0.82112533 4.4145666e-39
1.7953051 0.68082738 0.82045078 3.6784463e-39
1.8187037 0.6634137 0.81741345 4.6929373e-39
1.8194566 0.66600478 0.81436276 4.6003844e-39
1.8164763 0.66909188 0.81393498 4.1405035e-39
1.8073765 0.67585331 0.81512642 4.1404894e-39
1.8021681 0.68200958 0.81366622 3.3114645e-39
1.8239266 0.66787416 0.80891347 2.2983985e-39
1.8216949 0.67134005 0.80751181 1.8392211e-39
1.8147212 0.67778367 0.80724204 7.3468397e-40
1.8352109 0.66166645 0.80539584 7.3468397e-40
1.8198831 0.67750841 0.8032304 0
1.8172693 0.68087035 0.80224216 9.1835496e-41
1.8364761 0.6657427 0.80052948 3.6734198e-40
1.8643918 0.64582121 0.79610533 0
1.8557339 0.66252238 0.78761739 1.6530389e-39
1.8606499 0.69632596 0.7518751 1.1872639e-38
1.8609554 0.69854897 0.74953938 9.7532363e-39
1.8531132 0.70538223 0.74962342 9.6617609e-39
1.8480831 0.71401453 0.74569517 1.0765565e-38
1.8859385 0.68458581 0.7419576 1.3811285e-38
1.8776854 0.69008052 0.74363577 1.1954416e-38
1.8470451 0.71819776 0.74263394 1.1593901e-38
1.892417 0.69247192 0.72920913 1.325306e-38
1.8879353 0.69702214 0.72865254 8.0901332e-39
1.8781779 0.70375133 0.73041826 1.3529649e-38
1.896068 0.69241077 0.72624642 1.279461e-38
1.8926831 0.69681907 0.72491556 1.0026229e-38
1.8869464 0.70163435 0.7251485 8.3685208e-39
1.8812239 0.70643938 0.72537982 1.0398244e-38
1.9033488 0.6946134 0.71815968 1.2978285e-38
1.8988478 0.69890219 0.71786404 9.7514454e-39
1.8958284 0.70382887 0.71574503 1.0304977e-38
1.8878632 0.70954895 0.7169739 9.6595875e-39
1.9453951 0.75430834 0.627442 1.4647959e-38
1.9509733 0.75676334 0.62052739 1.1235586e-38
1.953208 0.75953496 0.61608171 6.5339913e-39
1.9892104 0.76001185 0.58585376 9.3801574e-39
1.9440706 0.80530065 0.58075517 9.5752924e-39
2.0006466 0.76454645 0.57214457 1.0022625e-38
1.9631438 0.79711139 0.5726518 6.9132079e-39
1.7898659 0.61947674 0.8824389 3.4979997e-39
1.7841605 0.62463456 0.88232529 1.7477527e-39
1.7942932 0.62559998 0.87303871 4.7844295e-39
1.7944748 0.62721515 0.87137514 4.5986103e-39
1.789885 0.63151288 0.87114471 4.6908088e-39
1.7852952 0.63581067 0.87091422 4.1433761e-39
1.8548958 0.6961692 0.75678194 7.5409251e-39
1.9505972 0.80159074 0.57883304 1.1507059e-38
1.7316312 0.57796049 0.9695133 4.9634216e-39
1.7304305 0.62300545 0.92829698 6.0884891e-39
1.7773485 0.62970793 0.88320601 9.1835496e-41
1.7734736 0.63723975 0.87935376 1.2885682e-39
1.7827281 0.63361502 0.87509513 2.2072875e-39
1.773851 0.6414203 0.8751241 1.6573507e-39
1.7869861 0.63554782 0.86976153 1.6577025e-39
1.7830797 0.64846051 0.86089319 8.279544e-40
1.7803688 0.66315317 0.8493678 3.6734198e-40
1.7853564 0.67367089 0.83538663 3.5891205e-39
1.7776265 0.68322682 0.83282632 2.7644045e-39
1.8266355 0.67902553 0.79622298 0
1.8186506 0.69321322 0.78953344 0
1.9141222 0.68671691 0.71664733 1.0950693e-38
1.9145272 0.69120198 0.71210957 1.094997e-38
1.8911477 0.70610154 0.71748728 8.0969632e-39
1.9194945 0.69209218 0.70716667 9.9365373e-39
1.9133997 0.72961307 0.6770491 1.0498038e-38
1.7043074 0.62452275 0.948484 1.1146276e-38
1.7086638 0.62591952 0.94357181 1.0873632e-38
1.7053568 0.6296972 0.94276732 1.0131734e-38
1.7165837 0.62194765 0.94074219 1.7144832e-38
1.713493 0.62668073 0.93886364 1.2905565e-38
1.7815382 0.62945908 0.87997335 3.7724496e-39
1.7792486 0.63213068 0.87936401 5.1496345e-39
1.783596 0.65415055 0.85513437 9.1835496e-40
1.793788 0.6498729 0.85071188 2.1150877e-39
1.7887852 0.65314072 0.85178787 2.1136513e-39
1.7836243 0.66080391 0.84887624 8.268782e-40
1.7921206 0.65745556 0.84498566 3.2142424e-39
1.7951189 0.67212635 0.8287583 4.5078314e-39
1.7944884 0.67687219 0.82483256 4.4156372e-39
1.801928 0.67486495 0.82055956 4.4160029e-39
1.8061669 0.68439341 0.8081246 9.1835496e-40
1.8207499 0.68990481 0.79089707 5.5101298e-40
1.8435189 0.71750718 0.74619806 1.1231592e-38
1.9066664 0.80241418 0.61440051 1.2423646e-38
1.9264801 0.80264544 0.59779418 1.0400032e-38
1.9228873 0.8085019 0.59527802 1.3992454e-38
1.9374107 0.79955441 0.59164882 1.1778321e-38
1.9281319 0.80638927 0.59291959 1.0862438e-38
1.9230248 0.8120901 0.59180206 1.2058815e-38
1.942181 0.80173975 0.58565503 1.2517288e-38
1.9358947 0.80750006 0.58545715 1.2332154e-38
1.9302769 0.81296164 0.58498651 1.1411998e-38
1.9638366 0.80077928 0.56864166 1.0590952e-38
1.7784225 0.64319021 0.86968434 5.5101298e-40
1.784958 0.66554111 0.84333414 1.8388623e-39
1.7066692 0.59796703 0.97141463 8.5676551e-39
1.7111359 0.59876734 0.96696991 8.4751008e-39
1.6709006 0.63722867 0.96421182 1.0039173e-38
1.6855686 0.63064313 0.95824975 9.3945333e-39
1.6752584 0.63800955 0.95987546 9.7622242e-39
1.6712559 0.64116335 0.96023077 1.003917e-38
1.6756138 0.64194429 0.95589453 9.6703845e-39
1.7088543 0.6221655 0.94693172 7.3697986e-39
1.6719666 0.64903289 0.95226884 9.9458742e-39
1.7494375 0.61464322 0.92041022 6.3578509e-39
1.7184249 0.63680863 0.92529351 8.1041504e-39
1.7573416 0.65361989 0.87734902 0
1.7661793 0.65111113 0.87238926 0
1.7577534 0.65682542 0.87400448 0
1.7623239 0.6586048 0.86855656 0
1.7580928 0.66193891 0.86893219 0
1.7749838 0.65396231 0.86243474 0
1.7707312 0.65731329 0.86281222 0
1.7673062 0.66358978 0.85976392 0
1.7795645 0.66023189 0.85277045 0
1.7714863 0.66567457 0.85435277 0
1.7756701 0.66780156 0.84889877 0
1.7676113 0.67320633 0.85050046 0
1.7760495 0.67200333 0.84464777 0
1.789258 0.66719645 0.8382259 1.9285454e-39
1.7807029 0.67283708 0.8400172 8.2651947e-40
1.8328718 0.70151091 0.7699945 9.6639007e-39
1.9478021 0.80806839 0.57507479 8.655176e-39
1.9112452 0.72771972 0.68060553 1.021637e-38
1.9017962 0.72109246 0.69463152 7.6277272e-39
1.7265016 0.63524956 0.92007369 1.427188e-38
1.692672 0.6764279 0.90947092 1.3624365e-38
1.7300867 0.64598781 0.90704554 1.2980784e-38
1.7030598 0.66968572 0.9071961 1.38091e-38
1.7228355 0.65716904 0.90256637 1.289002e-38
1.7202711 0.64634991 0.91482586 1.3902743e-38
1.7201904 0.64974874 0.9117077 1.3717641e-38
1.7262818 0.64876902 0.90758693 1.3626505e-38
1.7640933 0.65137899 0.87386382 1.5644446e-39
1.7649866 0.65669793 0.86814088 9.1835496e-41
1.767458 0.66018945 0.8628248 3.6734198e-40
1.7635323 0.67348897 0.85360986 1.1034609e-39
1.7627057 0.6805588 0.84766871 1.8367099e-40
1.7670432 0.6876784 0.83740938 1.8367099e-40
1.7737354 0.69338745 0.82652408 4.5917748e-40
1.7865089 0.68873471 0.82031745 9.1835496e-41
1.7786757 0.69568157 0.82028759 1.3775324e-39
1.7903705 0.69131786 0.81470293 7.3468397e-40
1.7862133 0.69599277 0.81376082 0
1.780535 0.70144361 0.81335026 9.1128793e-39
1.8028772 0.68714422 0.80826831 3.6734198e-40
1.787306 0.69957757 0.80949807 1.8367099e-39
1.80676 0.68974167 0.80262238 8.2651947e-40
1.8025798 0.69444293 0.80167508 0
1.7978188 0.69980621 0.80058771 3.8578083e-39
1.8111405 0.69209433 0.79679424 6.4284847e-40
1.8233863 0.69318277 0.78564483 1.5612034e-39
1.8325953 0.68829429 0.78260779 8.2651947e-40
1.8311788 0.6956532 0.7768839 4.3216493e-39
1.8480254 0.71097851 0.74858791 1.1876247e-38
1.8356262 0.72316045 0.74742925 1.1140115e-38
1.8315943 0.72697711 0.74718803 9.3912935e-39
1.8263468 0.73658192 0.74252856 8.9238302e-39
1.8302689 0.73841578 0.73756582 1.0488638e-38
1.823858 0.74406165 0.73757845 1.0215628e-38
1.8274778 0.7434653 0.73514295 1.0766672e-38
1.8231707 0.74883878 0.73367053 9.7535796e-39
1.8237489 0.75305539 0.72924113 1.0858855e-38
1.8193607 0.75723863 0.72895116 1.0859553e-38
1.8224916 0.75795847 0.72568655 1.0214919e-38
1.899251 0.80352378 0.61949474 1.3436727e-38
1.9047824 0.80542397 0.6131385 1.1875542e-38
1.9006971 0.81001842 0.61221266 1.0771337e-38
1.9130006 0.8062461 0.60557026 1.3071533e-38
1.9085226 0.81075716 0.60504705 1.17797e-38
1.9181271 0.80905634 0.59869617 1.2055602e-38
1.9197994 0.81235802 0.59421897 1.196087e-38
1.9144733 0.81755936 0.59375083 1.2977866e-38
1.9210428 0.81555545 0.59019428 9.5688282e-39
1.9158759 0.82017249 0.59014213 1.1323049e-38
1.9255309 0.81723124 0.58491153 1.0857395e-38
1.9186956 0.82197583 0.58611971 1.214993e-38
1.9328518 0.81928366 0.57693267 8.5654887e-39
1.9206452 0.82564038 0.58107316 1.1876913e-38
1.7932247 0.72244626 0.78317273 1.0033745e-38
1.8022403 0.72136754 0.77672595 1.0216719e-38
1.822003 0.73669153 0.74601907 8.4682512e-39
1.7563155 0.64689493 0.88449949 1.0866054e-38
1.747661 0.65356106 0.88541204 1.1876949e-38
1.7537675 0.65431792 0.87965143 1.0771693e-38
1.7450687 0.66096133 0.88062191 1.1691113e-38
1.7589337 0.65702528 0.87284106 9.7607781e-39
1.7493087 0.66415453 0.87412214 1.0953545e-38
1.7588445 0.66188854 0.8683576 8.1041504e-39
1.7509332 0.66802239 0.86915421 1.0678402e-38
1.7432758 0.67403394 0.86985505 1.1784029e-38
1.7533985 0.67147881 0.86387593 1.031143e-38
1.7439442 0.6784206 0.86519182 1.1783303e-38
1.7463769 0.68185937 0.8599571 1.150672e-38
1.7380185 0.68815255 0.86097401 1.2059887e-38
1.7515699 0.68456268 0.85312837 1.1323771e-38
1.741456 0.69172812 0.8547802 1.2058456e-38
1.7352124 0.6974175 0.85461348 1.1781519e-38
1.7499168 0.69103366 0.84843224 1.1783299e-38
1.743795 0.70075572 0.84438586 1.2334323e-38
1.7637676 0.70366073 0.82514256 1.2612356e-38
1.7752814 0.70046723 0.81861097 1.0492221e-38
1.757077 0.71335596 0.82159197 1.2793131e-38
1.7727486 0.70725006 0.81435019 1.2335019e-38
1.7746609 0.71132034 0.80895436 1.1781138e-38
1.767223 0.71655375 0.8102029 1.2701292e-38
1.7587544 0.72262508 0.81151879 1.2701288e-38
1.7803668 0.71289545 0.80275857 1.2332521e-38
1.7611759 0.72711593 0.80530792 1.2609101e-38
1.7654831 0.72932738 0.79967272 1.2517261e-38
1.8166741 0.69852775 0.78618848 7.9143558e-39
1.7968634 0.71199161 0.78995949 1.1687147e-38
1.817991 0.70263517 0.7812503 1.0954617e-38
1.7796417 0.73535872 0.78230894 1.2793124e-38
1.7183951 0.63107485 0.9306913 1.4549915e-38
1.7130728 0.64129484 0.92551708 1.3903829e-38
1.6978509 0.65636069 0.92399091 1.4271889e-38
1.7144712 0.6447016 0.92116803 1.325954e-38
1.7255874 0.63769668 0.9185369 1.298259e-38
1.7334346 0.63676494 0.91291863 1.2982225e-38
1.7265416 0.64266104 0.91309547 1.3165179e-38
1.7090726 0.65900695 0.912229 1.3626518e-38
1.7376522 0.63884073 0.90748495 1.2889307e-38
1.7182606 0.65625089 0.90721112 1.2705278e-38
1.7106986 0.66309673 0.90705156 1.3441038e-38
1.7372707 0.64433169 0.90265489 1.2521249e-38
1.729616 0.65137583 0.90238631 1.2796751e-38
1.7141699 0.66623735 0.90123737 1.316553e-38
1.7331791 0.65382355 0.89714527 1.2336854e-38
1.7250613 0.66035843 0.89773679 1.2705273e-38
1.7165741 0.66871816 0.89692372 1.2245383e-38
1.7423117 0.6472891 0.89571369 1.2245381e-38
1.7339206 0.65800947 0.89260936 1.2244661e-38
1.7434936 0.65126032 0.89101493 1.2061346e-38
1.737334 0.66135669 0.88664943 1.2152453e-38
1.7302362 0.6673671 0.88688862 1.3532503e-38
1.7364202 0.66755539 0.88159674 1.2244648e-38
1.7424079 0.66976321 0.87457508 1.1967703e-38
1.7238295 0.70327061 0.85854471 1.2610181e-38
1.7564009 0.71917522 0.81669831 1.2700936e-38
1.7712789 0.71928072 0.80429256 1.2517631e-38
1.7881285 0.71816444 0.79140061 1.2333241e-38
1.7693554 0.73214221 0.79383171 1.2608732e-38
1.8116339 0.7077719 0.78169543 1.1412718e-38
1.8008043 0.71486229 0.78400981 1.1872257e-38
