# .PCD v0.7 - Point Cloud Data file format
VERSION 0.7
FIELDS x y z rgb
SIZE 4 4 4 4
TYPE F F F F
COUNT 1 1 1 1
WIDTH 1004
HEIGHT 1
VIEWPOINT 0 0 0 1 0 0 0
POINTS 1004
DATA ascii
-2.8361838 -0.0023876079 0.41964456 1.7985405e-38
-2.8725476 -0.13061553 0.43634343 1.8615223e-38
-2.8919187 -0.11786281 0.48142901 1.2047378e-38
-2.8313742 -0.047222648 0.38984731 1.8904109e-38
-2.9076791 -0.16162778 0.49393854 8.6361506e-39
-2.9122779 -0.1561985 0.5057146 7.9918574e-39
-2.9097214 -0.13027215 0.51209021 8.3592162e-39
-2.8288143 -0.10967435 0.35676038 1.7710256e-38
-2.8371408 -0.048752174 0.40089113 1.761627e-38
-2.8668468 -0.10145254 0.43777069 1.0562164e-38
-2.8997729 -0.13144372 0.49133685 9.0052946e-39
-2.9120831 -0.073919207 0.54205161 6.1544454e-39
-2.9062338 -0.12339206 0.50806963 9.003131e-39
-2.9080727 -0.17045665 0.49079755 8.9127319e-39
-2.8261468 -0.16326705 0.32740977 2.3509886e-38
-2.9199557 -0.06204652 0.56336176 7.7386329e-39
-2.8194382 0.26978531 0.5071044 2.0565397e-38
-2.8232417 0.28747365 0.52273583 2.0930225e-38
-2.9224229 -0.15449473 0.52710521 7.2557287e-39
-2.9273887 -0.14917408 0.5395788 6.5203342e-39
-2.8101859 0.43865001 0.5636791 2.0195904e-38
-2.8517992 -0.05258942 0.42898613 1.2859162e-38
-2.8862109 -0.20378396 0.43146259 1.6415549e-38
-2.921849 -0.13814066 0.5332399 6.9802264e-39
-2.8198869 0.0072104228 0.39078975 2.341805e-38
-2.8232307 0.20144278 0.48430407 2.1023866e-38
-2.8242624 0.25657612 0.51101649 2.1391928e-38
-2.8235476 -0.0014814562 0.39435288 2.3509886e-38
-2.8228378 0.0071123969 0.39674607 2.3509886e-38
-2.8242161 0.030144237 0.40983164 2.093094e-38
-2.8225024 -0.081544764 0.35648367 2.3509886e-38
-2.8266604 0.020201482 0.41036335 2.0194468e-38
-2.837538 -0.015047392 0.41674656 1.743331e-38
-2.8307545 -0.11131724 0.35997263 2.0101554e-38
-2.8392355 -0.066964656 0.39702031 1.7249639e-38
-2.8456419 0.16767192 0.51480108 1.7156e-38
-2.8526099 -0.075406328 0.42044863 2.1018116e-38
-2.8559306 -0.052262604 0.43753281 2.0283068e-38
-2.8561184 0.14311238 0.52514058 1.5129538e-38
-2.9033992 0.24938449 0.66873252 9.957519e-39
-2.8953018 0.045956355 0.56144559 1.1805755e-38
-2.8993647 0.13434525 0.60916883 1.0974908e-38
-2.9060719 0.2284555 0.66482323 8.4845329e-39
-2.9086437 0.085711434 0.60632509 7.3778364e-39
-2.9079175 0.094499893 0.60877264 7.3778364e-39
-2.9122922 0.091665372 0.61640203 7.0094084e-39
-2.9187589 0.1775604 0.6679005 8.2878284e-39
-2.9165418 -0.08502961 0.54615831 6.3485168e-39
-2.9211922 -0.071198247 0.56178987 6.9971106e-39
-2.8111362 -0.051119588 0.34695384 2.3509886e-38
-2.8096261 -0.042284094 0.3478272 2.3509886e-38
-2.8203092 0.031389572 0.40244269 2.3509886e-38
-2.8202899 -0.080338337 0.35252297 2.065868e-38
-2.8260162 -0.028646909 0.38724497 2.2958873e-38
-2.8244839 -0.019682614 0.38813117 2.3509886e-38
-2.8252773 0.020232093 0.40756503 2.2683366e-38
-2.8160815 0.23679681 0.48554981 2.3509886e-38
-2.8195224 0.13095304 0.44529349 2.3509886e-38
-2.8234882 0.12037715 0.44863617 2.2132353e-38
-2.8524373 -0.10134819 0.40851539 1.9254195e-38
-2.8493495 -0.083283529 0.41030121 1.7382965e-38
-2.8478055 -0.074251182 0.41119418 1.7010913e-38
-2.8337226 0.073127441 0.44835353 2.1856488e-38
-2.8486881 -0.034388699 0.43078548 1.9268592e-38
-2.8392556 0.053383075 0.45079002 2.1579905e-38
-2.8361211 0.071719997 0.4526026 2.1856129e-38
-2.8359058 0.10556982 0.46727648 2.2040518e-38
-2.8588467 -0.081287719 0.43050489 1.4248937e-38
-2.8572912 -0.07218729 0.43140447 1.4432255e-38
-2.8557358 -0.063086845 0.43230414 1.4431536e-38
-2.869005 -0.12818669 0.43022433 1.6189717e-38
-2.8658941 -0.10998593 0.43202358 1.5544342e-38
-2.862859 -0.059453242 0.44841185 1.5174836e-38
-2.8612916 -0.050284788 0.44931832 1.4897898e-38
-2.8597245 -0.041116364 0.45022461 1.3605365e-38
-2.8581574 -0.031947926 0.45113099 1.3607651e-38
-2.8565898 -0.022779426 0.45203733 2.2587226e-38
-2.8699589 -0.088366099 0.44994196 1.5454315e-38
-2.8652575 -0.060860682 0.45266101 1.5726941e-38
-2.8460803 0.11706997 0.49310088 2.1026022e-38
-2.8817606 -0.14478427 0.44875294 1.2324337e-38
-2.877059 -0.11727884 0.45147207 1.3982079e-38
-2.8660095 0.013291498 0.48729533 2.3509886e-38
-2.8469231 0.15964912 0.51382458 2.0289904e-38
-2.8422933 0.22316773 0.53276795 2.056541e-38
-2.840678 0.23261927 0.53370208 2.0380663e-38
-2.8827214 -0.10472268 0.46859187 1.1309457e-38
-2.8811426 -0.095486172 0.46950504 1.1217261e-38
-2.8795638 -0.086249687 0.47041813 1.1492419e-38
-2.8779848 -0.077013202 0.47133121 1.3242699e-38
-2.876406 -0.067776643 0.47224426 1.3611476e-38
-2.8804202 -0.045392465 0.49040088 1.1398085e-38
-2.8772395 -0.026783288 0.49224031 1.7705231e-38
-2.8601627 0.14465486 0.53405392 2.3509886e-38
-2.8923972 -0.10264807 0.48919424 1.0571539e-38
-2.8666728 0.16769145 0.55757642 2.1394799e-38
-2.8756752 0.12813751 0.55822426 1.5495406e-38
-2.8724196 0.14718351 0.56010693 1.5865994e-38
-2.8916109 0.20123625 0.62326461 1.3464563e-38
-2.9068956 0.085994117 0.60289586 1.2540436e-38
-2.9035192 0.19600056 0.6451425 1.3641028e-38
-2.8238907 0.30539745 0.53205675 2.0563611e-38
-2.862608 0.39110315 0.6490531 1.078947e-38
-2.8728604 0.28012738 0.62035644 1.9824618e-38
-2.8365042 -0.16659586 0.34698567 2.2775202e-38
-2.875952 -0.082033589 0.46495572 1.5913103e-38
-2.8887212 -0.19904839 0.4386811 1.4928533e-38
-2.8228478 -0.16011992 0.32210582 2.3509886e-38
-2.8221436 -0.14391783 0.32790717 2.1213998e-38
-2.8179784 -0.078982063 0.34842837 1.9928301e-38
-2.8293514 -0.13335064 0.34728244 2.2683366e-38
-2.827841 -0.12451535 0.34815595 2.2591531e-38
-2.826978 -0.076958053 0.36763242 2.3326215e-38
-2.8104458 0.31838632 0.51051515 2.3509886e-38
-2.8108318 0.36324725 0.53132886 2.1489505e-38
-2.8072791 0.4198443 0.54937184 2.1945812e-38
-2.8133233 0.36178547 0.53574228 1.586705e-38
-2.8116953 0.37130845 0.5366838 1.4761773e-38
-2.8100677 0.38083154 0.53762513 1.4483734e-38
-2.8084397 0.39035451 0.53856659 1.393056e-38
-2.8097901 0.41837087 0.55382019 1.6237638e-38
-2.8139417 0.4072994 0.5573194 1.7245682e-38
-2.8135939 0.44535375 0.57360148 1.4388317e-38
-2.8119402 0.4550271 0.5745579 1.3835493e-38
-2.8102868 0.46470058 0.57551414 1.4296103e-38
-2.8177779 0.43419525 0.57712853 1.6878342e-38
-2.8161244 0.44386882 0.57808465 1.7062017e-38
-2.8144708 0.45354217 0.579041 1.6784707e-38
-2.8128173 0.46321565 0.57999724 1.5956015e-38
-2.8219621 0.42303699 0.58065516 1.6141502e-38
-2.8203084 0.43271035 0.58161157 1.6048937e-38
-2.8260911 0.4502601 0.60120571 1.5126259e-38
-2.8189135 0.52858168 0.62157637 1.4202488e-38
-2.8155539 0.54823655 0.6235193 1.4018087e-38
-2.813874 0.55806392 0.62449086 1.3926247e-38
-2.8353102 0.40975419 0.60186905 1.567693e-38
-2.8336432 0.41950637 0.60283315 1.5401419e-38
-2.8319764 0.42925861 0.60379714 1.4848599e-38
-2.8303092 0.43901083 0.60476136 1.4571653e-38
-2.8286426 0.44876319 0.60572511 1.4388697e-38
-2.8214843 0.52707314 0.62613076 1.3371651e-38
-2.8198044 0.53690052 0.62710226 1.3280171e-38
-2.8181245 0.5467279 0.62807381 1.3279453e-38
-2.8164449 0.55655533 0.62904531 1.3187257e-38
-2.8951294 -0.21037091 0.44665754 1.6035594e-38
-2.8586452 0.36379969 0.62880504 1.5033007e-38
-2.8820729 0.3353253 0.6637333 1.2447877e-38
-2.8178077 0.28262255 0.50951952 1.5312486e-38
-2.8226378 0.20161125 0.48317376 1.2362946e-38
-2.8222504 0.27974349 0.5172686 1.5772739e-38
-2.8314567 0.19589643 0.49855539 1.5406118e-38
-2.8271337 0.22279085 0.50177187 1.9089941e-38
-2.8271952 0.23118433 0.50564426 1.8722242e-38
-2.8291292 0.23936106 0.51322716 1.8446734e-38
-2.8261163 0.087294906 0.43921077 1.6050757e-38
-2.8321023 -0.0070252088 0.40927413 1.5682342e-38
-2.8351302 0.0067846701 0.42159766 1.8169792e-38
-2.8309205 -0.11055899 0.36064851 1.5775612e-38
-2.8368981 0.10489038 0.46899173 1.5219934e-38
-2.8361831 0.11354806 0.47140267 1.5403246e-38
-2.8598101 0.21384993 0.56422853 1.7248566e-38
-2.8590002 0.10822666 0.51542556 1.4301221e-38
-2.8582797 0.11694808 0.51785445 1.4483814e-38
-2.864536 0.19961415 0.56748331 1.6140799e-38
-2.8638043 0.20847335 0.56995022 1.6324114e-38
-2.8627346 0.038982347 0.49210563 1.4393418e-38
-2.8691225 0.085157849 0.52571076 1.6695045e-38
-2.8174639 0.041069876 0.40097868 1.7715278e-38
-2.8229516 -0.010718275 0.38901734 2.341805e-38
-2.8136096 0.18513332 0.45745865 1.8449964e-38
-2.810544 0.34383872 0.52207869 1.8721881e-38
-2.8148396 0.26764917 0.49679887 1.8167619e-38
-2.8141022 0.2765753 0.49928465 1.5769085e-38
-2.8126276 0.29442772 0.50425625 9.234016e-39
-2.8098099 0.15661272 0.43699843 2.3509886e-38
-2.8192823 0.26477009 0.50454801 1.2455866e-38
-2.8185449 0.27369618 0.50703388 1.3746958e-38
-2.8227947 0.29895943 0.52695471 1.5773095e-38
-2.8163118 0.12763546 0.43728349 2.3509886e-38
-2.8155913 0.13635688 0.43971232 2.3509886e-38
-2.8148711 0.14507827 0.44214106 1.8074714e-38
-2.8081832 0.15627576 0.4335399 1.5773053e-38
-2.8219059 0.21047018 0.485641 1.3285627e-38
-2.8222644 0.22171678 0.49139091 1.8812272e-38
-2.8238087 0.23023638 0.49833414 1.8628604e-38
-2.8249106 0.23823355 0.50414574 2.1483765e-38
-2.8265247 0.26379848 0.51884162 2.0654373e-38
-2.8271234 0.29139552 0.53237975 1.9827492e-38
-2.8272729 0.29605776 0.53476471 1.5035529e-38
-2.8244491 0.30491519 0.53297669 1.6877984e-38
-2.8143013 0.061447401 0.40364495 2.3509886e-38
-2.818928 0.075564414 0.41935706 2.3142544e-38
-2.8182132 0.084222145 0.42176801 1.7340032e-38
-2.817498 0.09287972 0.42417902 1.5495019e-38
-2.8235738 0.10022206 0.43981224 1.8536379e-38
-2.8160679 0.11019507 0.42900085 9.8786791e-39
-2.8158202 0.12171094 0.43363872 1.41193e-38
-2.8206527 0.12482239 0.44485489 1.0060201e-38
-2.82605 0.13474409 0.46025959 1.881298e-38
-2.819212 0.14226525 0.44971237 1.2916839e-38
-2.8184915 0.15098664 0.4521412 1.3746602e-38
-2.829803 0.1532533 0.47615516 1.9366875e-38
-2.8230188 0.16511512 0.46765509 1.6695748e-38
-2.8268268 0.18092594 0.48245719 2.1575959e-38
-2.8263054 0.19896667 0.48945159 2.1024229e-38
-2.8229496 0.207783 0.48656285 2.0010092e-38
-2.8248868 0.21581772 0.49408996 1.9642033e-38
-2.824549 0.25066131 0.5089587 1.8998103e-38
-2.8233774 0.25981349 0.51066238 1.8721516e-38
-2.8280306 0.27230227 0.52569962 1.9734577e-38
-2.8296716 0.28105283 0.53294379 1.9642383e-38
-2.8338387 0.28717539 0.54415148 1.8443857e-38
-2.8307137 0.29267284 0.54025126 1.7523703e-38
-2.8301353 0.30202517 0.54325002 1.6140783e-38
-2.8346531 0.30928451 0.55567807 1.8259465e-38
-2.8221278 0.015706204 0.3991394 2.1856129e-38
-2.821418 0.024300104 0.40153253 1.6694657e-38
-2.8247502 0.038311567 0.41456446 2.0193737e-38
-2.822494 0.048011336 0.41430727 1.8170842e-38
-2.8185785 0.058675498 0.41110563 9.2322377e-39
-2.8213403 0.064568691 0.41935316 1.6416981e-38
-2.8232372 0.072771981 0.42687297 1.107545e-38
-2.827661 0.081703536 0.43985593 1.7893197e-38
-2.824718 0.091767244 0.43836412 1.8537485e-38
-2.8259346 0.099747144 0.44440091 2.0839477e-38
-2.8247273 0.10896751 0.44606203 2.12079e-38
-2.8255053 0.11613041 0.45084202 2.0747646e-38
-2.818819 0.12395553 0.44073901 2.0286675e-38
-2.817678 0.13286841 0.44239849 1.9550556e-38
-2.8235526 0.13945219 0.45728385 1.6878717e-38
-2.8228326 0.14817373 0.45971242 1.6694687e-38
-2.8316607 0.16929327 0.48709425 2.120754e-38
-2.8304343 0.17865616 0.48878005 2.1207541e-38
-2.8292077 0.18801902 0.490466 2.0931674e-38
-2.8363471 0.25065345 0.53294754 1.9734939e-38
-2.8358183 0.25974777 0.53593171 1.9458355e-38
-2.8345697 0.26926106 0.53764015 1.9273965e-38
-2.8367801 0.27645648 0.54534727 1.8167989e-38
-2.8277516 0.28357992 0.530168 1.743115e-38
-2.8408477 0.28779271 0.55868012 1.8812994e-38
-2.8329799 0.2997655 0.54802561 1.6971255e-38
-2.8317866 0.30903006 0.54973531 1.669395e-38
-2.8359404 0.33486676 0.56971711 1.5495413e-38
-2.8368797 0.35298404 0.57971555 1.4849687e-38
-2.8230762 -0.017627748 0.38618624 1.0432186e-38
-2.8278248 -0.0042533558 0.40181351 9.2307944e-39
-2.8277345 0.027929589 0.4159981 1.7249635e-38
-2.8272061 0.036666967 0.41882458 1.9182492e-38
-2.8260121 0.0457974 0.42047209 1.9367242e-38
-2.8228557 0.055903643 0.41856617 1.5958927e-38
-2.8221459 0.064497381 0.42095935 1.669397e-38
-2.820555 0.072896086 0.42147359 1.7802086e-38
-2.8266788 0.077991433 0.43620092 2.0194118e-38
-2.8316748 0.095070876 0.45398545 2.0471421e-38
-2.8246861 0.10461017 0.44403285 1.5958203e-38
-2.8239708 0.11326773 0.44644383 1.5866007e-38
-2.822166 0.12185453 0.44660684 1.964203e-38
-2.8225408 0.13058309 0.45126572 1.55887e-38
-2.8218255 0.13924067 0.45367682 1.5589066e-38
-2.8259537 0.14535604 0.46480203 1.9181778e-38
-2.8248003 0.15433745 0.46646604 1.8998463e-38
-2.8357878 0.15808001 0.49048007 2.0471418e-38
-2.8381462 0.16607237 0.49884439 1.9366161e-38
-2.8306515 0.17784368 0.48885897 1.5220285e-38
-2.8306992 0.18610854 0.49264571 1.8722239e-38
-2.8388867 0.19233674 0.51207632 2.0104076e-38
-2.8351343 0.20189795 0.50871336 1.4944424e-38
-2.8317082 0.21153422 0.5060491 1.8538209e-38
-2.8305345 0.22065584 0.50773436 1.8538209e-38
-2.8305986 0.22904851 0.51161104 1.8169073e-38
-2.8294232 0.23817104 0.5132938 1.8169789e-38
-2.828248 0.24729341 0.51497674 1.7985758e-38
-2.839463 0.25747335 0.542328 1.9366521e-38
-2.842052 0.26426613 0.55062556 1.853641e-38
-2.832355 0.27224082 0.53446722 1.7524784e-38
-2.8343191 0.28063706 0.54220939 1.7339318e-38
-2.8407063 0.28735229 0.55819577 1.3836631e-38
-2.8364222 0.29760534 0.55406135 1.6694669e-38
-2.8352261 0.30687159 0.55576605 1.6509558e-38
-2.8340299 0.31613791 0.55747062 1.6048582e-38
-2.8394032 0.33269402 0.5757885 1.5218829e-38
-2.8281147 -0.10120802 0.35911813 1.5039101e-38
-2.8212452 -0.08098276 0.35417795 1.7338563e-38
-2.8212709 -0.072994836 0.35779709 1.6050715e-38
-2.8201694 -0.064345427 0.35941809 1.6232947e-38
-2.8190675 -0.055696022 0.36103922 1.6324781e-38
-2.8179662 -0.047046609 0.36266038 1.6693924e-38
-2.8240144 -0.042988773 0.37677175 1.4207912e-38
-2.8335218 -0.024212988 0.40448758 1.4759662e-38
-2.8308353 0.017601082 0.4176929 1.9918973e-38
-2.8253016 0.029006859 0.4115316 2.0010092e-38
-2.8324935 0.033467393 0.42814797 2.1024586e-38
-2.8312938 0.042618688 0.42979398 2.1207898e-38
-2.8271334 0.053131834 0.42602664 1.5865644e-38
-2.8250065 0.06196611 0.42564625 1.9549837e-38
-2.8269124 0.069242932 0.43277007 1.9549477e-38
-2.8331511 0.078287907 0.44949517 2.0839476e-38
-2.8345046 0.084688485 0.45510551 2.0010445e-38
-2.8297102 0.093160048 0.4491379 1.4760737e-38
-2.8289952 0.10181767 0.45154881 1.485293e-38
-2.8266456 0.11084703 0.45080221 1.8446721e-38
-2.8275647 0.11913288 0.45637092 1.5035523e-38
-2.8268499 0.1277906 0.45878175 1.4943696e-38
-2.8262367 0.13627936 0.46132538 1.862968e-38
-2.8263116 0.14450991 0.46515176 1.863004e-38
-2.828151 0.15223543 0.47234163 1.8814071e-38
-2.8433375 0.15406096 0.50403827 1.9181415e-38
-2.8357518 0.16622044 0.49404103 1.5128089e-38
-2.8352723 0.17489348 0.49693808 1.8630042e-38
-2.8340991 0.18398161 0.49861023 1.8446368e-38
-2.8335738 0.19258614 0.50138348 1.4760031e-38
-2.8330045 0.20142439 0.50417095 1.8262341e-38
-2.8366411 0.20878109 0.5148505 1.6695395e-38
-2.8339214 0.21853094 0.51367289 1.8169785e-38
-2.8339877 0.22692266 0.51755422 1.7893561e-38
-2.8328094 0.23604684 0.51923203 1.7892845e-38
-2.8349781 0.24417534 0.52727044 1.7616979e-38
-2.8368828 0.2524516 0.53483874 1.7709173e-38
-2.840759 0.25930092 0.54577923 1.4021747e-38
-2.8400216 0.26822722 0.5482651 1.3929549e-38
-2.8392844 0.27715343 0.55075067 1.3561489e-38
-2.8397822 0.28693339 0.55612892 1.6786505e-38
-2.8444412 0.29344723 0.56851131 1.3374933e-38
-2.8436978 0.30244386 0.57101679 1.2913952e-38
-2.8429549 0.31144062 0.57352215 1.272884e-38
-2.832077 -0.14456813 0.34781736 1.9549808e-38
-2.8294804 -0.13467522 0.34695297 1.7707345e-38
-2.8284552 -0.12575367 0.34885156 1.7890661e-38
-2.8313069 -0.11969873 0.35735378 1.8075415e-38
-2.8368382 -0.09873122 0.37796274 1.5867431e-38
-2.8372042 -0.09137091 0.38199288 1.4850429e-38
-2.8274364 -0.077063791 0.3685174 1.7156725e-38
-2.8263259 -0.068380564 0.37013572 1.6606429e-38
-2.8272281 -0.053066839 0.37880701 1.6144739e-38
-2.8392189 -0.044172712 0.40716195 1.5590143e-38
-2.8363798 -0.0097971363 0.4167347 1.5405753e-38
-2.8401947 -0.0049494975 0.42665717 2.0103e-38
-2.8391404 0.0042245518 0.42860895 2.0102642e-38
-2.8380859 0.013398595 0.4305605 2.0011166e-38
-2.8349261 0.023517054 0.42865187 2.1023507e-38
-2.8360147 0.031254113 0.43432 2.0104436e-38
-2.8348131 0.040406454 0.43596277 2.0196272e-38
-2.8302748 0.050755396 0.43135467 1.733968e-38
-2.8283119 0.059893262 0.43144223 1.8906266e-38
-2.8379004 0.066858247 0.45405006 2.0195551e-38
-2.8396084 0.072871223 0.46020773 1.9182129e-38
-2.8322022 0.082724229 0.4495455 1.8537845e-38
-2.8310535 0.091641635 0.45119143 1.8446009e-38
-2.8299053 0.10055893 0.4528378 1.8446369e-38
-2.8330483 0.10732801 0.46225166 1.8445292e-38
-2.8318739 0.11634044 0.46388686 1.4667469e-38
-2.8311591 0.12499812 0.46629778 1.4943696e-38
-2.8304439 0.13365574 0.46870881 1.4759665e-38
-2.8327332 0.14111058 0.47669229 1.8538206e-38
-2.8345571 0.14887197 0.48386654 1.8445655e-38
-2.8333914 0.15789185 0.48552287 1.8446011e-38
-2.8365998 0.16495906 0.49520251 1.8538564e-38
-2.8386617 0.17277455 0.50288421 1.8445294e-38
-2.8374856 0.18186472 0.50455111 1.8261623e-38
-2.8363094 0.19095495 0.50621814 1.8261981e-38
-2.83639 0.19930866 0.51011151 1.7985758e-38
-2.838474 0.20729089 0.51791328 1.7894283e-38
-2.8406739 0.21530026 0.52596229 1.7893205e-38
-2.8417575 0.22276033 0.53149635 1.4115382e-38
-2.8410256 0.23161933 0.5339635 1.4114661e-38
-2.8383808 0.24205014 0.53324145 1.7248558e-38
-2.8515005 0.24942464 0.56321305 1.7891049e-38
-2.8390861 0.25952148 0.5424757 1.7156359e-38
-2.8444645 0.26534823 0.556014 1.3377094e-38
-2.8411763 0.27635542 0.55424118 1.6786865e-38
-2.8481758 0.29954201 0.5788272 1.2637364e-38
-2.8475935 0.31042725 0.5825029 1.5402498e-38
-2.8354211 -0.15500657 0.34995702 1.503839e-38
-2.8336966 -0.14416911 0.35128874 1.4024984e-38
-2.8372869 -0.14013425 0.36039069 1.5683405e-38
-2.8362544 -0.13116688 0.36229485 1.6052186e-38
-2.8316145 -0.11896159 0.35830852 1.5498666e-38
-2.8370521 -0.10706361 0.37467706 1.6696831e-38
-2.8358433 -0.098203152 0.37617537 1.5590143e-38
-2.8397472 -0.092213936 0.38678801 2.0194837e-38
-2.8389857 -0.083493203 0.38913289 1.6973054e-38
-2.8295648 -0.07041055 0.37581635 1.9366162e-38
-2.8406925 -0.067817084 0.39960212 2.0010806e-38
-2.8421643 -0.060389817 0.40591133 1.9827133e-38
-2.8379269 -0.051471826 0.40127534 1.5037691e-38
-2.8476694 -0.038496219 0.42687982 1.9089579e-38
-2.8466127 -0.029319024 0.42882872 1.9089578e-38
-2.8455563 -0.020141706 0.43077764 1.9089579e-38
-2.840657 -0.012568989 0.42419529 1.5220285e-38
-2.8442042 -0.0075100125 0.43366721 1.9089938e-38
-2.840843 0.0030029153 0.43152604 1.9920045e-38
-2.8396406 0.012156378 0.43316713 2.0012239e-38
-2.8349633 0.023129489 0.42855516 1.8538568e-38
-2.8422568 0.027759328 0.4454529 1.9089938e-38
-2.8363979 0.038994156 0.4385547 1.5035893e-38
-2.8468401 0.042553063 0.46137857 1.9181774e-38
-2.8457763 0.051802356 0.46334419 1.9089579e-38
-2.8419104 0.06191615 0.45999819 1.9920405e-38
-2.8436484 0.070300922 0.46727562 1.9182132e-38
-2.8355141 0.080648623 0.45535433 1.8537847e-38
-2.8343627 0.089567833 0.45699495 1.8446729e-38
-2.8376133 0.096232809 0.46658075 1.4852581e-38
-2.8354678 0.12220564 0.47381377 1.5128089e-38
-2.8372631 0.13002184 0.48095345 1.8354172e-38
-2.8455474 0.13438587 0.4997482 1.9919329e-38
-2.8379111 0.1467756 0.48975107 1.8261622e-38
-2.8367424 0.15579748 0.49140227 1.8446015e-38
-2.8508129 0.15838146 0.52116877 1.9550911e-38
-2.8495715 0.16780339 0.5228501 1.9366161e-38
-2.8524454 0.1754719 0.5321179 1.835238e-38
-2.8513589 0.1849139 0.53412414 1.8352023e-38
-2.8504772 0.19426487 0.53650612 1.9089937e-38
-2.8509614 0.21222013 0.54550666 1.8997741e-38
-2.8540089 0.22045867 0.55538213 1.7891049e-38
-2.8529136 0.22997911 0.55740482 1.7798496e-38
-2.8447034 0.23762105 0.54412121 1.3744801e-38
-2.8439717 0.24648003 0.5465883 1.3835198e-38
-2.8540621 0.25209466 0.56961375 1.7798856e-38
-2.8491983 0.26407957 0.56507438 1.6692873e-38
-2.8479898 0.27335605 0.56675839 1.6416647e-38
-2.8467815 0.2826325 0.56844282 1.6140421e-38
-2.8526537 0.29664034 0.58663732 1.2360055e-38
-2.854615 0.30751988 0.59548324 1.5124839e-38
-2.8385727 -0.15528181 0.35624325 1.5223159e-38
-2.8378787 -0.14687933 0.35858324 1.4947649e-38
-2.8412025 -0.14263712 0.36723584 1.9643105e-38
-2.8364906 -0.13007431 0.36326307 1.4945496e-38
-2.8357966 -0.12167181 0.365603 1.476218e-38
-2.842032 -0.11859212 0.3796573 1.9643462e-38
-2.8435242 -0.11138706 0.38590851 1.9735299e-38
-2.8424828 -0.1023488 0.38782626 1.9734937e-38
-2.8436937 -0.094730407 0.39369035 1.8721517e-38
-2.8451786 -0.087424055 0.39997092 1.8537127e-38
-2.8416114 -0.076653674 0.39752561 1.8628604e-38
-2.8446665 -0.070348099 0.40655354 1.8813353e-38
-2.8400269 -0.05734174 0.40292478 1.9643822e-38
-2.8450894 -0.053810183 0.41479704 1.881407e-38
-2.8465562 -0.046305865 0.42112967 1.8905547e-38
-2.8470638 -0.041122399 0.42447615 1.4668186e-38
-2.8506205 -0.031865999 0.43584147 1.87208e-38
-2.845644 -0.023934787 0.42926279 1.4667467e-38
-2.8492682 -0.019246677 0.43872529 1.8721517e-38
-2.848212 -0.010069191 0.44067422 1.8813713e-38
-2.8471553 -0.00089169561 0.44262326 1.8813354e-38
-2.8431466 0.0099538248 0.43931311 1.9735658e-38
-2.8419423 0.019108268 0.44095135 1.9643822e-38
-2.8371046 0.029925531 0.43594345 1.8354176e-38
-2.8406754 0.036222301 0.44601527 1.4943696e-38
-2.8462131 0.041494559 0.45963073 1.4667832e-38
-2.8429227 0.051534563 0.45742184 1.7063453e-38
-2.8527789 0.056423243 0.47964761 1.8997744e-38
-2.8517079 0.065720201 0.48161998 1.9181772e-38
-2.841954 0.077020504 0.46683004 1.8630403e-38
-2.8426378 0.084782735 0.47168565 1.4852231e-38
-2.8419225 0.093440264 0.47409678 1.4944424e-38
-2.8428562 0.10169392 0.47968039 1.8446369e-38
-2.8416877 0.11068645 0.48131913 1.8446369e-38
-2.8550384 0.11125017 0.50871956 1.8813354e-38
-2.8503554 0.12279424 0.50435001 1.9459075e-38
-2.8510478 0.13132352 0.50956595 1.9458716e-38
-2.8438163 0.14283007 0.49999779 1.4390524e-38
-2.8430958 0.15155143 0.50242662 1.429833e-38
-2.843466 0.16069753 0.50726271 1.7985037e-38
-2.8453991 0.16856635 0.51470691 1.7983962e-38
-2.8474226 0.17529345 0.52182502 1.4298327e-38
-2.8464811 0.18550348 0.5244692 1.7707732e-38
-2.8527715 0.19046828 0.53947669 1.4021021e-38
-2.8603685 0.19877166 0.55863279 1.7889611e-38
-2.8518744 0.23581009 0.55789489 1.678507e-38
-2.8547761 0.2422507 0.56667137 1.7798853e-38
-2.8577142 0.2498109 0.57602179 1.715493e-38
-2.8603454 0.25760406 0.58485097 1.6600324e-38
-2.863672 0.27581063 0.59974438 1.6508488e-38
-2.8594513 0.28582358 0.59563142 1.4020291e-38
-2.8593688 0.3465853 0.62259042 1.1161865e-38
-2.8409715 -0.15857472 0.35965061 1.9551629e-38
-2.8461506 -0.15410936 0.37217644 1.8537849e-38
-2.8412001 -0.142102 0.36746994 1.9551628e-38
-2.8406727 -0.13278441 0.37055755 1.4577069e-38
-2.8470125 -0.13012321 0.38463727 1.8630399e-38
-2.8459721 -0.12110813 0.38654625 1.8537843e-38
-2.8331542 -0.10407993 0.36808324 1.7986469e-38
-2.8505566 -0.10778753 0.40181604 1.844529e-38
-2.8370719 -0.091131262 0.38183108 1.8077944e-38
-2.8532634 -0.092782997 0.41401985 1.8076513e-38
-2.8496876 -0.081964232 0.41157836 1.8168708e-38
-2.848639 -0.072877839 0.41350248 1.8260543e-38
-2.850112 -0.065448582 0.41981423 1.8444215e-38
-2.8529885 -0.058875911 0.42859837 1.8720798e-38
-2.852051 -0.052488226 0.4295435 1.4116817e-38
-2.8533912 -0.042145777 0.43688565 1.87208e-38
-2.8409145 -0.029488193 0.41716591 1.8078666e-38
-2.8499212 -0.02670664 0.43672332 1.4300129e-38
-2.8495684 -0.019303566 0.4393104 1.9367597e-38
-2.8483634 -0.0101482 0.4409472 1.9459075e-38
-2.8471584 -0.00099270151 0.44258413 1.9550911e-38
-2.8466442 0.0077573988 0.44544473 1.9551268e-38
-2.845438 0.016912708 0.44708022 1.9458714e-38
-2.8442321 0.026068058 0.44871557 1.9551268e-38
-2.8436248 0.034277279 0.45114475 1.8077951e-38
-2.8476102 0.040356927 0.46196419 1.641881e-38
-2.857919 0.044537414 0.48479351 1.8628245e-38
-2.8568468 0.053836256 0.48676452 1.8536408e-38
-2.8557744 0.063135065 0.48873568 1.8536052e-38
-2.8476617 0.073332578 0.47679076 1.429941e-38
-2.846947 0.081990354 0.47920159 1.4482725e-38
-2.8462315 0.090647839 0.48161277 1.4299057e-38
-2.8461998 0.099609613 0.48554847 1.8077953e-38
-2.8450279 0.10860439 0.48718229 1.8169785e-38
-2.8436809 0.11768493 0.48849666 1.7985034e-38
-2.858062 0.11800448 0.51788312 1.816799e-38
-2.8488774 0.13129555 0.50514048 1.4572397e-38
-2.8479054 0.14122894 0.50759876 1.8076153e-38
-2.846724 0.15029244 0.50924236 1.7799568e-38
-2.8605387 0.15280774 0.53845799 1.8075076e-38
-2.8611038 0.17067195 0.54758233 1.7983244e-38
-2.8600128 0.18014616 0.54959363 1.7798856e-38
-2.8626544 0.18799224 0.55846864 1.8261263e-38
-2.8613949 0.19751598 0.56015801 1.8076874e-38
-2.8601346 0.20703956 0.56184781 1.7983962e-38
-2.8623409 0.21517542 0.56996661 1.6970178e-38
-2.8565125 0.22444059 0.56225133 1.6511e-38
-2.8535221 0.23190619 0.55950296 1.2916839e-38
-2.8598402 0.23777719 0.57497174 1.6693954e-38
-2.85853 0.24778473 0.57677555 1.2640608e-38
-2.8621359 0.256547 0.58802062 1.8352736e-38
-2.8638391 0.26534855 0.59541279 1.7984318e-38
-2.8691645 0.2824302 0.61386871 1.8351302e-38
-2.867878 0.29213274 0.61558425 1.7798852e-38
-2.8631613 0.31621417 0.61674356 1.5311389e-38
-2.8642502 0.34311742 0.63096815 1.5216668e-38
-2.8469372 -0.16070209 0.37083218 1.4485236e-38
-2.8395715 -0.14782971 0.36160177 1.8262697e-38
-2.8490288 -0.14763871 0.38091743 1.8261263e-38
-2.8385086 -0.13126062 0.36683694 1.7803519e-38
-2.8373971 -0.12263694 0.36842725 1.7895355e-38
-2.8374481 -0.11469335 0.37207681 1.798647e-38
-2.8363354 -0.10606897 0.37366441 1.7801364e-38
-2.8545251 -0.11031912 0.40875575 1.8076872e-38
-2.8534753 -0.10123096 0.41067863 1.8260544e-38
-2.8470864 -0.089462653 0.40294027 1.4758583e-38
-2.8536599 -0.08449436 0.41852549 2.0466747e-38
-2.8505774 -0.064037628 0.42139089 2.1572714e-38
-2.8548727 -0.043105379 0.43947059 1.9546596e-38
-2.8538153 -0.033948082 0.44140837 1.8720079e-38
-2.8478453 -0.025605513 0.43299305 1.439088e-38
-2.8530602 -0.021495843 0.44543239 1.9182488e-38
-2.8562222 -0.015183661 0.45468006 1.8352381e-38
-2.8551636 -0.0060027302 0.45662645 1.8536408e-38
-2.8519943 0.0044913674 0.45486602 1.9274682e-38
-2.8507826 0.013668271 0.45650014 1.9366518e-38
-2.8468282 0.024057373 0.45309672 1.7802082e-38
-2.847887 0.031573642 0.45860514 1.6234415e-38
-2.8487742 0.03950816 0.46395192 1.7801366e-38
-2.8541162 0.044567201 0.47707358 1.4298324e-38
-2.8534009 0.053224847 0.47948474 1.4298327e-38
-2.8526859 0.061882578 0.48189569 1.4205412e-38
-2.8519709 0.070540145 0.48430666 1.4297255e-38
-2.8512559 0.079197928 0.48671749 1.3929551e-38
-2.8505406 0.087855451 0.48912859 1.3837353e-38
-2.8498254 0.096513025 0.4915396 1.3930265e-38
-2.8483548 0.10653219 0.49302223 1.7432584e-38
-2.860899 0.10749642 0.51896089 1.8167989e-38
-2.8489816 0.12323068 0.50175142 1.7341109e-38
-2.8532186 0.12848258 0.51271176 1.3929551e-38
-2.8524978 0.13720395 0.51514071 1.3929551e-38
-2.8517776 0.14592539 0.5175693 1.393027e-38
-2.863986 0.1510594 0.54468721 1.8721876e-38
-2.8627307 0.16053022 0.54636282 1.8721158e-38
-2.8614752 0.17000106 0.54803836 1.8536771e-38
-2.8598154 0.17890465 0.54863816 1.6972695e-38
-2.8615904 0.18475352 0.55485821 1.3655851e-38
-2.8586633 0.22018984 0.56472641 1.4484523e-38
-2.8651011 0.22560072 0.58023423 1.8812997e-38
-2.86412 0.23710632 0.58337587 1.9366884e-38
-2.8646412 0.24616452 0.5884788 1.9182136e-38
-2.8622353 0.25383186 0.58701056 1.5495429e-38
-2.8696628 0.26250377 0.60598493 2.0286668e-38
-2.8674524 0.27214277 0.60579401 1.6693227e-38
-2.8519959 -0.1609872 0.38099194 1.8446012e-38
-2.8504252 -0.15500973 0.38046655 1.4393397e-38
-2.849731 -0.14660718 0.38280663 1.4300123e-38
-2.844768 -0.13556588 0.37764364 1.7803518e-38
-2.8547969 -0.13452499 0.39850166 1.4116461e-38
-2.8437147 -0.11894429 0.38292184 1.7802445e-38
-2.8595426 -0.12193947 0.413771 1.8261263e-38
-2.8584917 -0.1128495 0.41569287 1.8444576e-38
-2.8574412 -0.10375947 0.4176144 2.0098325e-38
-2.8631032 -0.082281657 0.43871665 1.3342826e-38
-2.8620443 -0.073122405 0.44065312 1.2971882e-38
-2.860986 -0.063963145 0.44258943 1.22358e-38
-2.8588684 -0.045644756 0.44646236 1.7694403e-38
-2.85781 -0.036485579 0.44839868 1.9360408e-38
-2.8584762 -0.0322503 0.45164439 1.6502744e-38
-2.8577662 -0.02365654 0.45403776 1.4389804e-38
-2.8570564 -0.015062686 0.45643094 1.3746236e-38
-2.8563466 -0.0064687878 0.45882407 1.448272e-38
-2.8624318 -0.0018593633 0.47325605 1.8260186e-38
-2.8572912 0.0097755175 0.46799663 1.9090294e-38
-2.8560739 0.018987194 0.46963382 1.9091014e-38
-2.853507 0.027906697 0.46839699 1.420793e-38
-2.8527975 0.036500551 0.47079018 1.3656201e-38
-2.8584254 0.041774772 0.48458961 1.3564725e-38
-2.8577101 0.050432466 0.48700061 1.4115382e-38
-2.8569951 0.059090197 0.48941153 1.3931349e-38
-2.8562801 0.067747764 0.49182254 1.3746958e-38
-2.8555646 0.076405413 0.4942337 1.3931714e-38
-2.8548498 0.08506307 0.49664453 1.3748401e-38
-2.8541346 0.093720645 0.49905547 1.3656207e-38
-2.8534193 0.10237829 0.50146669 1.4023912e-38
-2.8593407 0.12648202 0.52426815 1.8814796e-38
-2.8581457 0.13559002 0.52590501 1.8446736e-38
-2.8663442 0.15827328 0.55270344 2.1116064e-38
-2.8669815 0.16703035 0.55790895 2.0840558e-38
-2.8667314 0.17303708 0.56008202 1.6142957e-38
-2.8659997 0.18189612 0.56254905 1.6050763e-38
-2.870718 0.19226857 0.5767746 2.15756e-38
-2.8630724 0.21733235 0.57241744 1.5772012e-38
-2.8623407 0.22619139 0.57488453 1.5679095e-38
-2.861609 0.23505041 0.57735151 1.5771281e-38
-2.8718131 0.23999624 0.60030949 2.0930947e-38
-2.8683808 0.25860193 0.60163707 1.8443477e-38
-2.8566608 -0.16916099 0.3868292 1.8077592e-38
-2.8556237 -0.16018517 0.38872725 1.7985755e-38
-2.8490794 -0.14621915 0.38165456 1.7619131e-38
-2.85987 -0.1466895 0.40338737 1.8077592e-38
-2.8656125 -0.14265421 0.41686583 1.807795e-38
-2.8645604 -0.13356251 0.41878664 1.8353097e-38
-2.8635089 -0.12447041 0.42070672 2.0283791e-38
-2.8621166 -0.03452054 0.45803371 1.7230585e-38
-2.8620648 -0.027056176 0.46126065 2.0285232e-38
-2.8608494 -0.017859491 0.46289483 1.9274685e-38
-2.8596339 -0.0086628608 0.46452928 1.9090297e-38
-2.8689806 -0.0058697155 0.48478267 1.853749e-38
-2.8679116 0.003388193 0.48674208 1.8445655e-38
-2.8648798 0.013009515 0.48487258 1.4484523e-38
-2.8699226 0.019647783 0.49809062 1.8629684e-38
-2.8634496 0.030324776 0.48969463 1.4576719e-38
-2.8620193 0.047640078 0.49451655 1.485439e-38
-2.8613043 0.056297652 0.49692756 1.5130255e-38
-2.8605893 0.064955384 0.49933848 1.5406121e-38
-2.8598738 0.073612861 0.50174969 1.5407555e-38
-2.859159 0.082270525 0.50416052 1.5683421e-38
-2.8631992 0.090113953 0.51587826 2.0102645e-38
-2.864969 0.097839274 0.52292645 2.0102645e-38
-2.8637726 0.10694885 0.52456009 2.0103004e-38
-2.862576 0.11605827 0.52619416 2.0378869e-38
-2.8626969 0.12440094 0.53016448 2.037851e-38
-2.8709588 0.12888311 0.54896635 2.1759989e-38
-2.8724678 0.13707471 0.55569178 2.1575599e-38
-2.8712087 0.1465483 0.55736113 2.1575598e-38
-2.8657331 0.15755352 0.55113995 2.0102281e-38
-2.8705807 0.16477951 0.56422377 2.1575238e-38
-2.8693204 0.17427233 0.56589872 2.1575235e-38
-2.8757329 0.1801815 0.58157665 2.056181e-38
-2.8696773 0.18789768 0.57270706 1.5125906e-38
-2.8689454 0.19675669 0.57517427 1.4479459e-38
-2.8682137 0.20561588 0.57764119 1.4110678e-38
-2.8674819 0.21447492 0.58010828 1.3650771e-38
-2.8667502 0.22333397 0.58257538 1.3281989e-38
-2.8687413 0.23039792 0.58977717 1.6692853e-38
-2.8705609 0.23881106 0.59723413 1.6600653e-38
-2.8765292 0.26413786 0.62067819 1.0790536e-38
-2.8763585 0.29077947 0.63222539 1.2174908e-38
-2.8751101 0.30022433 0.63390309 1.24497e-38
-2.8631115 -0.17361218 0.39795902 1.8261623e-38
-2.8620713 -0.16460985 0.39986268 1.8169428e-38
-2.8646233 -0.15691899 0.40848595 1.4484873e-38
-2.8639238 -0.14845273 0.41084364 1.4116811e-38
-2.8728175 -0.025488403 0.48382655 1.927325e-38
-2.8719411 0.00081965595 0.49378935 2.0655452e-38
-2.8655543 0.012667025 0.48609111 1.8444943e-38
-2.8684738 0.018874656 0.49479944 1.6235151e-38
-2.8677588 0.027532393 0.49721044 1.6878717e-38
-2.8670437 0.036189962 0.49962142 1.6695405e-38
-2.8717892 0.060088187 0.51994109 2.0654734e-38
-2.8705907 0.069199316 0.52157182 2.0562181e-38
-2.8693924 0.078310281 0.5232026 2.037851e-38
-2.8683157 0.0957634 0.5288049 2.0378147e-38
-2.8759153 0.099758714 0.5460425 2.1575238e-38
-2.87466 0.10921112 0.54771006 2.1390845e-38
-2.8779426 0.11545034 0.55717069 2.0285582e-38
-2.8679314 0.13014646 0.5433737 1.936399e-38
-2.8766963 0.14354675 0.56718004 1.8443843e-38
-2.878509 0.15184858 0.57457238 1.853568e-38
-2.8775289 0.20016667 0.59415132 1.5219166e-38
-2.867013 -0.17610528 0.40477988 1.8354179e-38
-2.8659718 -0.16710149 0.40668249 1.8538209e-38
-2.8688371 -0.15964974 0.41583583 1.4576719e-38
-2.8681378 -0.15118349 0.41819352 1.531139e-38
-2.8789842 -0.046579897 0.48695016 1.2405373e-38
-2.877913 -0.037318341 0.48890671 1.7042229e-38
-2.8749282 -0.0098907659 0.49508253 1.7430089e-38
-2.8802707 0.030799342 0.52411252 2.0746563e-38
-2.8780286 0.040773086 0.52400637 2.1575235e-38
-2.8806088 0.048243679 0.53258872 2.0469254e-38
-2.8753366 0.057245526 0.5258863 1.7704846e-38
-2.8749042 0.064901985 0.52842456 1.5032627e-38
-2.872726 0.076242059 0.52905816 1.9363627e-38
-2.8734634 0.08234489 0.53328204 1.3928434e-38
-2.8782511 0.090667874 0.54673398 1.7799188e-38
-2.8704462 0.10281181 0.53628391 1.7983216e-38
-2.8782334 0.1069768 0.55397874 1.9088122e-38
-2.8797755 0.11511374 0.56074727 1.7705922e-38
-2.8767638 0.13448313 0.56327075 1.6048919e-38
-2.8798931 0.15948886 0.58079809 1.4663829e-38
-2.8817039 0.16787681 0.58822519 1.4756385e-38
-2.8833587 0.17620713 0.59530902 1.3926255e-38
-2.8821578 0.18870957 0.59844875 1.2359663e-38
-2.8820715 0.19789319 0.60237324 1.1160757e-38
-2.8740141 -0.17276153 0.4205099 1.9551274e-38
-2.8730509 -0.16238049 0.42318565 1.6324099e-38
-2.8723516 -0.15391429 0.42554346 1.6957204e-38
-2.8779366 -0.13386266 0.44585276 1.3699359e-38
-2.8768799 -0.12474081 0.44777665 1.3698633e-38
-2.8843608 -0.061767973 0.4911032 1.3795507e-38
-2.882813 -0.055971403 0.49054343 1.0117769e-38
-2.8830085 -0.049150292 0.49398664 1.3886614e-38
-2.8851194 -0.033158425 0.50541872 2.0561453e-38
-2.8840408 -0.023848059 0.5073818 2.0377063e-38
-2.8829625 -0.014537816 0.50934517 2.0284503e-38
-2.8792989 0.0048884945 0.51056844 1.9456186e-38
-2.8763769 0.021947417 0.51224244 1.3836242e-38
-2.8795714 0.072494641 0.5413056 1.6415898e-38
-2.877804 0.079531766 0.54085344 1.0885959e-38
-2.8785007 0.090018824 0.54695189 1.4112101e-38
-2.883637 0.17046644 0.59331238 9.3168383e-39
-2.8844411 0.20445026 0.61011934 1.1621726e-38
-2.8902402 0.21156292 0.6250875 1.1897236e-38
-2.8789904 -0.18432301 0.42546806 2.0839121e-38
-2.8779411 -0.17527084 0.42737541 2.1206102e-38
-2.8806298 -0.14404622 0.44678339 1.3237667e-38
-2.8879321 -0.11532434 0.47445491 1.3887347e-38
-2.8870957 -0.072100185 0.49205154 1.3518915e-38
-2.8913305 -0.05436746 0.50858021 1.2322911e-38
-2.8848851 -0.0331892 0.50492823 1.8252238e-38
-2.880686 0.01915499 0.51975834 1.1528824e-38
-2.8841267 0.061270922 0.5455575 1.300719e-38
-2.8886905 0.092137396 0.56861842 1.3833338e-38
-2.8924954 0.14794947 0.60127354 1.2357849e-38
-2.8940575 0.17374596 0.61596632 1.1712841e-38
-2.8897049 0.19303474 0.61572737 1.0605418e-38
-2.8829169 -0.18683261 0.43233183 2.1297212e-38
-2.8845835 -0.14656787 0.45369646 1.3428879e-38
-2.887569 -0.1069824 0.47744077 1.2692044e-38
-2.8873551 0.025274111 0.53605205 1.3189772e-38
-2.8905506 0.057696216 0.55702531 1.2728794e-38
-2.8882444 0.084481366 0.56429303 1.2634801e-38
-2.8941436 0.089058578 0.57833296 1.3647861e-38
-2.8901474 0.13075814 0.5888238 1.2173822e-38
-2.8940532 0.13770957 0.59986967 1.1713199e-38
-2.89586 0.14584309 0.60717505 1.171248e-38
-2.8982456 0.22504984 0.6473881 1.097311e-38
-2.8930397 -0.1888337 0.45202327 1.021068e-38
-2.8895946 -0.15821514 0.45868671 1.1768291e-38
-2.8885348 -0.14908816 0.46060681 1.1400586e-38
-2.8852036 -0.13860548 0.45851254 1.2045594e-38
-2.8857315 -0.1306911 0.46311951 1.1954117e-38
-2.8906448 0.023235351 0.54183114 1.282063e-38
-2.891995 0.047998942 0.55563259 1.2267459e-38
-2.8959386 0.070209764 0.5735684 1.3647506e-38
-2.898504 0.11781221 0.60003716 1.152809e-38
-2.9006824 0.16096367 0.62373203 1.1066746e-38
-2.8935452 -0.16073582 0.46559551 9.9261775e-39
-2.8886495 -0.14076465 0.46455598 1.0018736e-38
-2.8938603 -0.079109475 0.50267833 8.4564439e-39
-2.8995514 -0.024403652 0.53867483 1.3278001e-38
-2.8960574 0.032317206 0.5568924 1.2357851e-38
-2.8958249 -0.16227452 0.46954432 9.8361287e-39
-2.8953567 -0.15355471 0.47248518 9.4680721e-39
-2.8970456 -0.14647211 0.47908211 9.4677133e-39
-2.8975513 -0.13849384 0.48367181 9.5599076e-39
-2.9017758 -0.033992294 0.53891748 1.1713918e-38
-2.9019651 -0.00031015673 0.55434 1.2080901e-38
-2.9015207 0.033985294 0.56874686 1.1436612e-38
-2.9016626 0.042385548 0.57278591 1.1251499e-38
-2.9092431 0.11193173 0.61924994 1.0695806e-38
-2.898531 -0.18889874 0.46316075 9.8379308e-39
-2.8973093 -0.17975527 0.46475869 9.9286957e-39
-2.9001446 -0.17341802 0.47335368 8.8226998e-39
-2.8992751 -0.16443674 0.47559503 9.0996469e-39
-2.9008763 -0.15722558 0.4820711 8.9156157e-39
-2.901005 -0.14065631 0.48972961 8.7312189e-39
-2.9052494 -0.0023408933 0.56011158 1.1159661e-38
-2.907316 0.051483106 0.58834362 1.0605769e-38
-2.9019561 -0.1910439 0.46916819 9.1003713e-39
-2.9040661 -0.17601947 0.48016679 9.0070953e-39
-2.9097512 -0.013534479 0.56426877 1.0513568e-38
-2.9085197 -0.0043619382 0.56586033 1.0697961e-38
-2.8324976 -0.16413859 0.33993492 1.6515303e-38
-2.8376327 -0.12436312 0.36813527 1.6974843e-38
-2.8274333 0.056931991 0.42833397 2.0288823e-38
-2.8271506 0.14476243 0.46697068 2.1301882e-38
-2.822499 0.2864337 0.52076066 2.1761061e-38
-2.8318193 0.1332313 0.4713161 2.3509886e-38
-2.8292723 0.19702472 0.49461746 2.3142544e-38
-2.8447344 -0.17055464 0.36195427 2.0933111e-38
-2.8463259 -0.13839495 0.3795487 2.111714e-38
-2.845017 -0.17228241 0.36175781 2.1118934e-38
-2.8538177 -0.16877207 0.38122159 2.0933828e-38
-2.8500438 -0.14073852 0.38606212 2.0656887e-38
-2.8390863 0.037886009 0.4435268 2.1946889e-38
-2.8427205 0.16315731 0.50684458 2.1946889e-38
-2.8587935 -0.18046029 0.38612145 2.0656528e-38
-2.8448205 0.034519285 0.45368472 2.157847e-38
-2.8625114 -0.18280382 0.39263484 2.0380304e-38
-2.8662288 -0.18514751 0.39914852 2.0841275e-38
-2.8691654 -0.1621861 0.41537136 2.0933111e-38
-2.8699465 -0.18749109 0.40566188 2.1946889e-38
-2.8729122 -0.16454816 0.42193592 2.2406783e-38
-2.8736639 -0.18983483 0.4121756 2.3509886e-38
-2.8766589 -0.16691019 0.4285005 2.3509886e-38
-2.8653426 0.1778359 0.55940068 2.2498978e-38
-2.8879561 -0.19988741 0.43675098 2.0651137e-38
-2.8887241 -0.062383816 0.49970108 1.4437274e-38
-2.8865776 0.0012947803 0.52376539 2.0837326e-38
-2.8854604 0.077095427 0.55533475 2.056289e-38
-2.8877926 0.092080943 0.56676781 2.010084e-38
-2.8812625 0.20749409 0.6050148 1.9365082e-38
-2.8926914 -0.071958765 0.50349414 1.1029992e-38
-2.9019866 -0.20836681 0.46149611 1.0112724e-38
-2.8988054 -0.075775109 0.51422215 9.9272411e-39
-2.9051538 -0.21031252 0.4670684 9.6510396e-39
-2.8254378 -0.1469526 0.33325148 2.3509886e-38
-2.8163764 -0.093940146 0.33849189 2.3509886e-38
-2.830642 -0.13515848 0.34910011 2.3509886e-38
-2.8291211 -0.12625855 0.34997976 2.3509886e-38
-2.8275995 -0.11735876 0.3508597 2.3509886e-38
-2.8141568 -0.06879025 0.34520695 2.3509886e-38
-2.8126464 -0.059954964 0.34608048 2.3509886e-38
-2.8139083 -0.037260048 0.3587777 2.3509886e-38
-2.8123868 -0.028360253 0.35965765 2.3509886e-38
-2.8274388 -0.16281378 0.33023882 2.0844504e-38
-2.8259389 -0.15403913 0.33110622 1.9738532e-38
-2.824439 -0.14526471 0.33197361 1.8816938e-38
-2.8229392 -0.13649023 0.3328411 1.7804594e-38
-2.82704 -0.13199435 0.34318778 1.7711322e-38
-2.8255298 -0.12315898 0.34406117 1.6790815e-38
-2.8240197 -0.1143235 0.34493452 1.6422754e-38
-2.8225093 -0.10548811 0.345808 1.6517105e-38
-2.8147151 -0.02972638 0.3637822 2.3509886e-38
-2.8250892 -0.028416054 0.38546363 2.3509886e-38
-2.8218 -0.089173712 0.35164961 2.1305116e-38
-2.8216071 -0.057792135 0.3652674 1.798719e-38
-2.8170433 -0.03109258 0.36790681 1.6976278e-38
-2.821326 -0.025894834 0.37893611 1.7530528e-38
-2.8197935 -0.016930494 0.37982228 1.9100347e-38
-2.8182614 -0.0079661207 0.3807084 2.1856847e-38
-2.8228204 -0.002705521 0.39232826 2.3509886e-38
-2.8212764 0.0063269264 0.39322114 2.3509886e-38
-2.8197327 0.015359314 0.39411402 2.3509886e-38
-2.8236711 -0.02727084 0.3830905 2.1948682e-38
-2.8221385 -0.018306594 0.38397685 2.0751592e-38
-2.8206065 -0.0093422076 0.3848629 1.9922557e-38
-2.8190742 -0.00037790995 0.38574913 1.9185361e-38
-2.8175416 0.0085864896 0.38663524 1.8354525e-38
-2.8220956 0.013972864 0.3982999 1.7526212e-38
-2.8204038 0.055896908 0.41357666 2.1489505e-38
-2.8217299 0.080164462 0.42710808 2.3509886e-38
-2.8275483 -0.037611231 0.38635889 2.2591531e-38
-2.8244584 0.012586276 0.40248606 2.3509886e-38
-2.8227844 0.054499924 0.41779423 2.0750873e-38
-2.8181179 0.081801206 0.42049316 1.8356323e-38
-2.8194268 0.10626246 0.43407616 1.798682e-38
-2.8178596 0.11543096 0.43498254 1.8174086e-38
-2.8147254 0.13376787 0.4367952 2.1856847e-38
-2.8190875 0.14036854 0.44861263 2.3509886e-38
-2.8314531 -0.015897429 0.40399343 2.2316024e-38
-2.8299093 -0.0068649934 0.40488619 2.2499695e-38
-2.8283653 0.0021673623 0.40577924 2.2591531e-38
-2.8268213 0.01119975 0.40667212 2.2683366e-38
-2.8251653 0.05310297 0.42201179 2.3509886e-38
-2.82496 0.086518243 0.43651241 2.3509886e-38
-2.8233926 0.095686577 0.43741888 2.3509886e-38
-2.812031 0.19436987 0.45837176 1.9096401e-38
-2.8353601 -0.026316281 0.40728658 2.1396952e-38
-2.8368793 -0.0028965545 0.42083168 2.1765011e-38
-2.8304927 0.066773772 0.43894905 2.2499695e-38
-2.8289256 0.0759423 0.43985525 2.2499695e-38
-2.8257911 0.094279133 0.44166809 2.2775202e-38
-2.824224 0.10344768 0.44257432 2.2958873e-38
-2.8226569 0.11261617 0.4434807 2.3234379e-38
-2.8223414 0.14676942 0.45808688 2.3509886e-38
-2.8267043 0.15355343 0.46998742 2.3509886e-38
-2.8203421 0.19077164 0.47366673 2.2867037e-38
-2.8155708 0.2186853 0.47642606 1.872474e-38
-2.8137262 0.26348603 0.4926759 1.7900014e-38
-2.8105206 0.28223836 0.49452966 2.3509886e-38
-2.8225899 0.22454204 0.49331361 2.3509886e-38
-2.820987 0.23391822 0.49424049 2.3509886e-38
-2.8177814 0.2526705 0.49609441 2.3509886e-38
-2.8145764 0.27142301 0.49794802 2.2223471e-38
-2.8193803 0.27912989 0.51115829 2.056468e-38
-2.8129182 0.31693548 0.51489544 1.5774123e-38
-2.8096869 0.33583817 0.51676416 1.6609998e-38
-2.8140876 0.34420118 0.52944601 1.7440851e-38
-2.8124597 0.35372415 0.53038752 2.1212922e-38
-2.8298509 0.1949742 0.49487841 2.2224189e-38
-2.8220298 0.20652421 0.48413056 2.2499695e-38
-2.8266454 0.21372657 0.49673209 2.2499695e-38
-2.8234398 0.23247889 0.49858597 2.2867037e-38
-2.8218372 0.24185514 0.49951279 2.2683366e-38
-2.8234684 0.26822758 0.51460409 2.3142544e-38
-2.8218527 0.27767909 0.51553845 2.3142544e-38
-2.8186219 0.29658177 0.517407 2.3326215e-38
-2.8153906 0.31548458 0.51927572 2.2039441e-38
-2.8137751 0.32493603 0.52021009 2.1486994e-38
-2.8121595 0.33438733 0.52114427 2.1209335e-38
-2.8374846 0.09633328 0.4663634 2.1856847e-38
-2.8403685 0.11205033 0.47924468 2.1673176e-38
-2.8307009 0.20291102 0.50015074 2.2224189e-38
-2.8226874 0.24979195 0.504785 2.1764652e-38
-2.8259408 0.26677671 0.51898438 2.1211128e-38
-2.8178632 0.31403381 0.52365589 2.1303681e-38
-2.8162477 0.32348517 0.52459025 2.0843428e-38
-2.820698 0.33175454 0.53733152 2.0750875e-38
-2.8190699 0.34127745 0.53827304 2.0750157e-38
-2.8174422 0.35080048 0.53921437 2.074944e-38
-2.8158147 0.36032361 0.54015565 2.0379945e-38
-2.8141868 0.36984667 0.54109704 2.0011168e-38
-2.8573258 -0.039708965 0.4459756 1.5728814e-38
-2.841212 0.11992653 0.48447672 2.2316024e-38
-2.830029 0.25587445 0.5224303 2.1671741e-38
-2.8248169 0.32076973 0.54080355 1.992005e-38
-2.8231893 0.33029276 0.54174489 1.9644185e-38
-2.8215613 0.33981565 0.54268634 1.9275408e-38
-2.8262963 0.34823644 0.55607486 1.9182855e-38
-2.8230152 0.36743295 0.55797249 1.8630049e-38
-2.8388119 0.18128003 0.50698769 2.1579905e-38
-2.8372095 0.19065632 0.50791436 2.1303323e-38
-2.8273082 0.31930792 0.54521686 1.9183573e-38
-2.8256803 0.32883078 0.54615849 1.909102e-38
-2.8271668 0.35636142 0.56147182 1.816836e-38
-2.825526 0.36595955 0.56242079 1.7983254e-38
-2.8238852 0.37555784 0.56336969 1.7431882e-38
-2.8285758 0.38434315 0.57683027 1.7245695e-38
-2.8269224 0.39401656 0.57778656 1.7063099e-38
-2.825269 0.40369004 0.57874268 1.6693959e-38
-2.8349743 0.25297281 0.53119063 2.0750875e-38
-2.8281715 0.327369 0.55057174 1.8538213e-38
-2.8313184 0.34528968 0.56497133 1.7892136e-38
-2.8344138 0.36351123 0.57940084 1.7338971e-38
-2.8263965 0.3740845 0.56781787 1.6878717e-38
-2.8311067 0.38285831 0.58131331 1.6509214e-38
-2.8261464 0.41187853 0.58418214 1.5770928e-38
-2.8244927 0.421552 0.58513838 1.5678726e-38
-2.8787262 -0.094068319 0.46522447 1.5088071e-38
-2.8771472 -0.084831871 0.46613765 1.5087705e-38
-2.8755686 -0.075595297 0.46705055 1.5088051e-38
-2.8455245 0.20426501 0.53089917 2.0840917e-38
-2.8439088 0.21371642 0.53183359 2.0380663e-38
-2.8453128 0.24019992 0.54651266 2.0472857e-38
-2.8436854 0.24972303 0.54745388 2.0196992e-38
-2.8371742 0.28781509 0.55121946 1.9553067e-38
-2.8371105 0.3246198 0.56752205 1.8353107e-38
-2.8338294 0.34381628 0.56941962 1.7431524e-38
-2.8321886 0.35341448 0.57036853 1.7246418e-38
-2.8369443 0.36202636 0.58388382 1.6969118e-38
-2.8352909 0.3716999 0.58484018 1.6509574e-38
-2.8336372 0.38137332 0.58579648 1.6232269e-38
-2.8319838 0.3910467 0.58675277 1.5956041e-38
-2.8303301 0.40072009 0.58770907 1.5678729e-38
-2.8779864 -0.043964162 0.48608866 1.5180251e-38
-2.8763957 -0.034659564 0.48700842 1.2691047e-38
-2.8576689 0.21756595 0.56153303 1.9919692e-38
-2.8560281 0.22716419 0.56248188 1.9920409e-38
-2.8427818 0.34119448 0.58645457 1.7062388e-38
-2.8411286 0.35086799 0.58741075 1.669397e-38
-2.8428624 0.3790004 0.60349661 1.5771296e-38
-2.8411953 0.38875267 0.6044606 1.5586902e-38
-2.8618202 0.20649426 0.5650326 2.038138e-38
-2.8519766 0.26408374 0.57072544 1.8997032e-38
-2.8552337 0.28166899 0.58519995 1.8353466e-38
-2.8454137 0.3775034 0.60801619 1.576914e-38
-2.8895409 -0.050944861 0.50646931 1.1310904e-38
-2.8594093 0.23381564 0.57232726 2.1486635e-38
-2.8562999 0.32724512 0.60771561 1.6508505e-38
-2.8512988 0.35650191 0.61060774 1.5586183e-38
-2.9015074 -0.058176875 0.5275737 1.0113437e-38
-2.874738 0.24623325 0.60904241 2.0473933e-38
-2.8714042 0.26573768 0.6109705 2.102674e-38
-2.8697369 0.2754899 0.6119346 2.121077e-38
-2.8578563 0.381946 0.63530248 1.5033007e-38
-2.9072108 -0.078530572 0.53008533 8.9141906e-39
-2.886852 0.14997452 0.59070092 1.5033321e-38
-2.8688266 0.3313002 0.63499945 1.835239e-38
-2.8604274 0.38043749 0.63985693 1.7242811e-38
-2.8587477 0.3902649 0.64082831 1.769875e-38
-2.8624382 0.40925774 0.65681267 1.1863389e-38
-2.91505 0.090967558 0.62169939 1.2263127e-38
-2.8974216 0.27282417 0.66704065 1.2447877e-38
-2.8241522 0.4790487 0.61011529 1.2080916e-38
-2.8086333 0.47437394 0.57647043 1.411386e-38
-2.8109868 0.51176757 0.5979507 1.3189771e-38
-2.8093197 0.5215199 0.59891468 1.3001774e-38
-2.8135381 0.51027048 0.6024704 1.5032967e-38
-2.8227572 0.46976459 0.60313368 1.4664202e-38
-2.8194232 0.48926902 0.60506189 1.4479087e-38
-2.8177564 0.49902126 0.60602593 1.4387967e-38
-2.8219745 0.48777208 0.60958135 1.364968e-38
-2.8265238 0.49759078 0.62321633 1.3557481e-38
-2.823164 0.51724565 0.62515938 1.337237e-38
-2.8307745 0.48625466 0.6267994 1.3095434e-38
-2.8383851 0.45526385 0.62843937 1.4290024e-38
