# .PCD v0.7 - Point Cloud Data file format
VERSION 0.7
FIELDS x y z rgb
SIZE 4 4 4 4
TYPE F F F F
COUNT 1 1 1 1
WIDTH 1043
HEIGHT 1
VIEWPOINT 0 0 0 1 0 0 0
POINTS 1043
DATA ascii
0.23002923 -0.90792692 2.9807751 3.6734198e-40
0.23086147 -0.90258867 2.9813316 0
0.23252577 -0.89191234 2.9824445 5.5101298e-40
0.20571291 -1.2179058 2.9125659 4.052642e-39
0.20653085 -1.2126588 2.9131129 4.1448377e-39
0.20734878 -1.2074116 2.9136598 4.052642e-39
0.20816672 -1.2021648 2.9142067 4.237392e-39
0.20898454 -1.1969179 2.9147537 4.4214246e-39
0.20980236 -1.1916708 2.9153008 3.9629645e-39
0.21062051 -1.1864239 2.9158478 4.5136202e-39
0.21143833 -1.181177 2.9163947 4.5132699e-39
0.21225625 -1.1759299 2.9169416 4.6980114e-39
0.21307418 -1.1706829 2.9174886 5.0653548e-39
0.21389201 -1.165436 2.9180357 5.0653548e-39
0.22078115 -1.1572615 2.9104917 4.5132615e-39
0.22166465 -1.1507108 2.9113803 4.4221462e-39
0.2163458 -1.1496952 2.9196765 4.7902071e-39
0.21716373 -1.1444483 2.9202235 4.7902071e-39
0.21798167 -1.1392013 2.9207704 4.8827614e-39
0.2187997 -1.1339542 2.9213173 5.066794e-39
0.21961741 -1.1287073 2.9218645 5.1589896e-39
0.22043544 -1.1234603 2.9224114 5.2511852e-39
0.22125338 -1.1182133 2.9229584 5.2511852e-39
0.21014856 -1.1193361 2.9391854 5.2511852e-39
0.22978243 -1.1023487 2.9155562 4.9746011e-39
0.21179815 -1.108753 2.9402888 5.1589896e-39
0.21262319 -1.1034613 2.9408402 5.2511852e-39
0.21344803 -1.0981696 2.9413919 5.4337786e-39
0.21427287 -1.0928779 2.9419436 5.1589896e-39
0.22150932 -1.0841233 2.9340758 4.0551686e-39
0.21592276 -1.0822945 2.9430468 4.7898568e-39
0.22296977 -1.0737646 2.9353864 4.6965821e-39
0.21757235 -1.0717111 2.9441502 5.0653548e-39
0.22443031 -1.0634058 2.936697 4.6969353e-39
0.21922223 -1.0611278 2.9452534 4.8802545e-39
0.22589089 -1.0530471 2.9380076 4.4210672e-39
0.22087191 -1.0505444 2.9463568 4.9731592e-39
0.22169696 -1.0452527 2.9469082 5.0657052e-39
0.2225218 -1.0399609 2.9474599 4.7887595e-39
0.21106298 -1.0405496 2.9643965 5.7986039e-39
0.21189503 -1.0352114 2.9649529 5.0653548e-39
0.21272719 -1.0298734 2.9655094 5.0635668e-39
0.21355943 -1.0245352 2.9660659 5.0650045e-39
0.21439148 -1.0191969 2.9666224 5.0635668e-39
0.21522374 -1.0138587 2.9671788 5.0635668e-39
0.21605588 -1.0085205 2.9677353 4.5132699e-39
0.21688794 -1.0031823 2.9682918 5.0635668e-39
0.21772008 -0.99784404 2.9688482 4.6976611e-39
0.21855234 -0.99250597 2.9694047 5.0635668e-39
0.21938448 -0.98716772 2.9699612 4.2366886e-39
0.22021663 -0.98182952 2.9705176 4.1441342e-39
0.22104879 -0.97649133 2.9710741 4.0522917e-39
0.22188082 -0.97115308 2.9716306 3.8679005e-39
0.22937016 -0.92310935 2.976639 1.102026e-39
0.23020232 -0.91777116 2.9771955 5.5101298e-40
0.23103437 -0.91243291 2.977752 1.102026e-39
0.23186651 -0.90709478 2.9783084 3.6734198e-40
0.23269866 -0.90175658 2.9788649 0
0.23353091 -0.89641833 2.9794214 0
0.23436306 -0.8910802 2.9799778 2.7550649e-40
0.2195656 -1.2098304 2.8945754 4.1448377e-39
0.22037663 -1.2046281 2.8951175 4.0529924e-39
0.22118764 -1.1994259 2.8956599 3.8686011e-39
0.22199856 -1.1942236 2.8962021 4.1448377e-39
0.22280937 -1.1890215 2.8967445 3.8707675e-39
0.22362038 -1.1838192 2.8972869 4.4214246e-39
0.22443131 -1.178617 2.8978291 4.5132699e-39
0.22770648 -1.1722839 2.8950679 4.1452062e-39
0.22605312 -1.1682125 2.8989139 4.6976611e-39
0.22686414 -1.1630102 2.899456 4.7902071e-39
0.21569806 -1.1646181 2.915611 5.341583e-39
0.2165159 -1.1593713 2.916158 5.0653548e-39
0.21733393 -1.1541241 2.9167049 4.7902071e-39
0.21815175 -1.1488773 2.9172521 5.066794e-39
0.21896969 -1.1436303 2.917799 4.8827614e-39
0.21978761 -1.1383833 2.9183459 5.341583e-39
0.22060555 -1.1331363 2.9188929 5.066794e-39
0.22142348 -1.1278894 2.9194398 5.1589896e-39
0.22224151 -1.1226424 2.9199867 5.1586393e-39
0.22305922 -1.1173954 2.9205339 5.2508349e-39
0.22387716 -1.1121485 2.9210808 5.2508349e-39
0.224695 -1.1069016 2.9216275 5.2508349e-39
0.22551312 -1.1016545 2.9221747 5.4334283e-39
0.21444447 -1.1026363 2.938395 5.0664436e-39
0.21526931 -1.0973446 2.9389467 5.0664436e-39
0.21609426 -1.0920529 2.9394984 5.1589896e-39
0.216919 -1.0867612 2.9400499 4.7001793e-39
0.21774404 -1.0814695 2.9406016 4.7898568e-39
0.21939382 -1.0708861 2.941705 5.0653548e-39
0.22021876 -1.0655946 2.9422565 5.0653548e-39
0.22104351 -1.0603029 2.9428082 4.9731592e-39
0.22864093 -1.0517437 2.9343348 4.6043795e-39
0.22269329 -1.0497195 2.9439116 4.9731592e-39
0.23010071 -1.0413859 2.9356463 4.4214288e-39
0.22434308 -1.0391361 2.9450147 4.8806048e-39
0.23156039 -1.0310279 2.9369576 4.6965863e-39
0.22599296 -1.0285527 2.9461179 4.9724501e-39
0.22973506 -1.0222288 2.9426556 4.7873484e-39
0.22764264 -1.0179694 2.9472213 5.155768e-39
0.22846749 -1.0126777 2.9477727 5.0635724e-39
0.22929254 -1.007386 2.9483244 4.5132699e-39
0.23011738 -1.0020943 2.9488761 4.5132699e-39
0.23094222 -0.99680257 2.9494278 5.0635668e-39
0.23176707 -0.99151081 2.9499793 4.7898568e-39
0.23259211 -0.98621917 2.950531 4.6054655e-39
0.23341694 -0.98092765 2.9510827 4.4207211e-39
0.22205389 -0.98099738 2.968051 4.1437839e-39
0.23881458 -0.96670157 2.9478104 3.5916807e-39
0.22371829 -0.97032094 2.9691639 3.7757048e-39
0.22455032 -0.96498275 2.9697204 3.222531e-39
0.22538258 -0.9596445 2.9702768 3.037767e-39
0.22621453 -0.95430636 2.9708333 2.3945682e-39
0.22704677 -0.94896817 2.9713898 4.5918589e-40
0.22954322 -0.9329536 2.9730592 0
0.23037517 -0.9276154 2.9736159 0
0.23120742 -0.92227721 2.9741724 4.5917748e-40
0.23203957 -0.91693902 2.9747288 3.6734198e-40
0.23287182 -0.91160077 2.9752853 2.7550649e-40
0.23370376 -0.90626264 2.9758418 2.7550649e-40
0.23453601 -0.90092438 2.9763982 2.7550649e-40
0.22135603 -1.2090194 2.8921714 4.1448377e-39
0.22216715 -1.2038172 2.8927138 4.1455467e-39
0.22703275 -1.1726038 2.8959675 4.5132699e-39
0.22784367 -1.1674017 2.8965099 4.6054655e-39
0.2294656 -1.1569972 2.8975945 5.0653548e-39
0.23108743 -1.1465926 2.898679 4.8827614e-39
0.23615886 -1.1301706 2.8966355 4.6054613e-39
0.23595323 -1.1153791 2.901933 5.1586393e-39
0.22486518 -1.1165775 2.9181092 5.2508349e-39
0.22568321 -1.1113305 2.9186561 5.1586393e-39
0.22650093 -1.1060836 2.9192033 5.0664436e-39
0.22731896 -1.1008366 2.9197502 5.3412327e-39
0.22813679 -1.0955896 2.9202971 5.1586393e-39
0.22895472 -1.0903428 2.9208441 5.0664436e-39
0.22977285 -1.0850958 2.9213912 5.1589896e-39
0.23140851 -1.0746018 2.9224851 4.7898568e-39
0.23222645 -1.0693548 2.923032 4.7902071e-39
0.22616446 -1.0383111 2.9425695 4.9731592e-39
0.2269894 -1.0330194 2.9431212 4.9724501e-39
0.22781415 -1.0277277 2.9436729 4.9724501e-39
0.22863919 -1.0224361 2.9442244 5.155768e-39
0.22946404 -1.0171444 2.9447761 5.4323563e-39
0.23028888 -1.0118527 2.9453278 5.0635724e-39
0.23111382 -1.006561 2.9458792 4.5132699e-39
0.23193866 -1.0012695 2.9464309 4.5132699e-39
0.2327636 -0.9959777 2.9469826 5.0635668e-39
0.23358844 -0.990686 2.9475343 4.6976611e-39
0.23441339 -0.9853943 2.9480858 4.6054655e-39
0.23523822 -0.98010278 2.9486375 4.5129167e-39
0.23921807 -0.972763 2.9451621 3.8675557e-39
0.23688801 -0.96951932 2.9497409 4.0519386e-39
0.22555548 -0.9694888 2.9666972 3.8679005e-39
0.22638774 -0.96415061 2.9672537 3.4069223e-39
0.22721978 -0.95881236 2.9678102 3.3143553e-39
0.22805193 -0.95347428 2.9683666 2.4867639e-39
0.22888398 -0.94813603 2.9689231 8.2689361e-40
0.22971623 -0.9427979 2.9694796 1.2856969e-39
0.23054838 -0.93745965 2.970036 1.0101905e-39
0.23138054 -0.93212146 2.9705925 1.8367099e-40
0.23387687 -0.91610688 2.9722621 3.6734198e-40
0.22994272 -1.0947717 2.9178727 5.1589896e-39
0.23076066 -1.0895249 2.9184196 5.1589896e-39
0.23157859 -1.0842779 2.9189665 5.1589896e-39
0.23239651 -1.0790309 2.9195135 5.066794e-39
0.24335983 -1.0288571 2.9200456 4.6043851e-39
0.22881065 -1.0321946 2.940676 4.6054655e-39
0.2296354 -1.0269029 2.9412277 4.6054655e-39
0.23046035 -1.0216113 2.9417794 4.6054655e-39
0.23128529 -1.0163196 2.9423308 4.6976611e-39
0.23211023 -1.0110279 2.9428825 4.8802545e-39
0.23293507 -1.0057362 2.9434342 5.0635668e-39
0.23375982 -1.0004445 2.9439857 4.5129167e-39
0.2463011 -0.98983258 2.928812 4.6051124e-39
0.23623455 -0.98456943 2.9456408 4.6054655e-39
0.23705949 -0.97927785 2.9461923 4.5129167e-39
0.23788443 -0.97398615 2.946744 4.2366886e-39
0.23870927 -0.96869445 2.9472957 4.4196351e-39
0.23953421 -0.96340275 2.9478471 3.7757048e-39
0.24035916 -0.95811105 2.9483988 3.5913136e-39
0.24118389 -0.95281935 2.9489505 3.2218122e-39
0.23155349 -0.94196576 2.9670129 1.7456031e-39
0.23238564 -0.93662757 2.9675694 1.2856997e-39
0.23321779 -0.93128932 2.9681258 1.2856969e-39
0.24238168 -1.0257434 2.9225585 4.6054655e-39
0.24608628 -1.0179849 2.919636 4.2374074e-39
0.24401744 -1.0152495 2.9236526 4.6054655e-39
0.23310657 -1.0154947 2.9398856 4.6054655e-39
0.23393141 -1.010203 2.9404373 4.8802545e-39
0.24647133 -0.9995085 2.9252934 5.0635668e-39
0.24728915 -0.99426156 2.9258404 4.6051124e-39
0.24810708 -0.98901463 2.9263875 4.6051124e-39
0.2489249 -0.98376769 2.9269345 4.6051124e-39
0.24053055 -0.96786952 2.9448502 4.3270807e-39
0.24135549 -0.96257782 2.9454019 3.8679005e-39
0.24218033 -0.95728612 2.9459536 3.5913136e-39
0.24300538 -0.95199442 2.9465051 3.4980389e-39
0.25502643 -0.80234045 2.9790149 3.0392286e-39
0.24173374 -1.0406663 2.9184933 5.0635724e-39
0.24255167 -1.0354193 2.9190402 4.8802545e-39
0.24336961 -1.0301723 2.9195871 4.8802545e-39
0.24418743 -1.0249255 2.9201341 4.6054655e-39
0.24500547 -1.0196785 2.920681 4.6054655e-39
0.24582349 -1.0144315 2.9212282 4.5132699e-39
0.24827708 -0.99869061 2.922869 5.0635668e-39
0.25436726 -0.81752288 2.9748788 2.7637179e-39
0.25603166 -0.8068465 2.9759917 2.9481176e-39
0.25686371 -0.80150831 2.9765482 3.3165414e-39
0.25769585 -0.79617006 2.9771047 3.408737e-39
0.2459936 -1.0241075 2.9177096 4.6054655e-39
0.24681133 -1.0188606 2.9182565 4.6054655e-39
0.24762926 -1.0136136 2.9188035 4.6054655e-39
0.24747276 -0.94505292 2.9421663 3.2218122e-39
0.25454038 -0.82736713 2.9712989 3.0392286e-39
0.2484692 -0.94951975 2.9391696 3.3168917e-39
0.26372609 -1.0012665 2.8988984 4.6043669e-39
0.26596364 -0.91753244 2.9238 2.1150919e-39
0.27250698 -0.87555677 2.9281757 1.2882179e-39
0.28690392 -0.9033913 2.8972571 1.7491988e-39
0.15379974 -1.2119937 2.9921892 2.7647773e-39
0.16709828 -1.2419584 2.9621944 3.0370608e-39
0.1557526 -1.2394508 2.9800062 3.2218122e-39
0.15676881 -1.229477 2.9818516 3.1296151e-39
0.1588005 -1.2095292 2.9855425 2.7647773e-39
0.15981649 -1.1995554 2.9873879 2.7647773e-39
0.17205702 -1.2395146 2.9556038 2.7633522e-39
0.1730645 -1.2296244 2.9574337 2.7633522e-39
0.17407188 -1.2197343 2.9592638 3.2218122e-39
0.1760869 -1.199954 2.9629235 2.7647773e-39
0.17709428 -1.1900638 2.9647536 2.764071e-39
0.18003821 -1.2074002 2.9545028 3.4980389e-39
0.18104559 -1.19751 2.9563329 2.7647773e-39
0.18205288 -1.1876199 2.9581628 2.8562667e-39
0.17083415 -1.1846523 2.9759402 2.8562667e-39
0.17184995 -1.1746784 2.9777858 2.6725817e-39
0.18701188 -1.185176 2.9515719 3.4991179e-39
0.18801926 -1.1752859 2.953402 2.9484623e-39
0.18902665 -1.1653957 2.9552319 2.9484623e-39
0.17786661 -1.1622401 2.9729848 3.4069223e-39
0.17989853 -1.1422923 2.9766757 3.2250478e-39
0.18091451 -1.1323185 2.9785211 3.2250478e-39
0.18193042 -1.1223446 2.9803667 3.3172448e-39
0.1829464 -1.1123708 2.9822121 3.5913136e-39
0.19398548 -1.1629519 2.9486413 3.4987676e-39
0.18286753 -1.1597755 2.9663382 3.5913136e-39
0.18489943 -1.1398276 2.9700291 3.3172448e-39
0.19801524 -1.1233914 2.955961 3.7757048e-39
0.18896315 -1.0999323 2.977411 3.7757048e-39
0.18997914 -1.0899584 2.9792564 3.2250478e-39
0.19099493 -1.0799847 2.981102 3.7757048e-39
0.17996252 -1.0759708 2.9989536 3.5913136e-39
0.22730483 -1.1992248 2.88658 2.7633522e-39
0.19995171 -1.1506178 2.9438803 3.4097964e-39
0.20498884 -1.1011672 2.9530303 3.4097908e-39
0.20599623 -1.0912769 2.9548604 3.9604464e-39
0.20700352 -1.0813869 2.9566903 3.7757048e-39
0.19599581 -1.07752 2.9744554 3.2250478e-39
0.18705423 -1.0533702 2.9959731 3.5913192e-39
0.20651916 -0.86227614 3.0313315 0
0.22044703 -1.10254 2.9294515 3.4094404e-39
0.21296984 -1.0690529 2.9519296 3.3175951e-39
0.21397722 -1.0591627 2.9537597 3.8682508e-39
0.20302853 -1.0551077 2.9714997 3.7757048e-39
0.20404436 -1.0451337 2.9733453 3.7757048e-39
0.20506036 -1.0351599 2.9751906 3.7757048e-39
0.19414596 -1.0307698 2.9929926 3.7757048e-39
0.19517046 -1.0207123 2.9948537 4.0522917e-39
0.1961949 -1.0106546 2.9967146 3.3168917e-39
0.1972194 -1.000597 2.9985757 3.2246947e-39
0.22436644 -1.1099259 2.9210989 3.6863861e-39
0.2253657 -1.100116 2.922914 3.5938373e-39
0.21994343 -1.0468286 2.9489987 3.7753517e-39
0.22095093 -1.0369385 2.9508286 3.7753517e-39
0.22195831 -1.0270485 2.9526587 3.7757048e-39
0.21107721 -1.0227214 2.9703896 3.8675473e-39
0.2002131 -1.0182271 2.9881513 3.5913136e-39
0.20123771 -1.0081694 2.9900124 3.2246947e-39
0.20226212 -0.99811184 2.9918733 3.2246947e-39
0.20328672 -0.98805428 2.9937341 3.2214619e-39
0.20431095 -0.97799671 2.9955952 2.1183387e-39
0.20533547 -0.96793914 2.9974563 1.6562941e-39
0.22590968 -1.0344946 2.9442379 3.7753517e-39
0.21709396 -1.010283 2.9655883 4.3256514e-39
0.21810977 -1.0003091 2.9674339 3.2246947e-39
0.21912579 -0.99033535 2.9692795 2.9484679e-39
0.22014177 -0.98036146 2.9711249 2.7630018e-39
0.20935386 -0.97551137 2.9888928 2.5786092e-39
0.21037817 -0.9654538 2.9907539 1.3804135e-39
0.2073916 -0.87940067 3.0242498 2.7550649e-40
0.20842503 -0.8692559 3.0261269 0
0.24219772 -1.0265983 2.9225454 3.8675473e-39
0.23489816 -0.99249029 2.944967 3.3168917e-39
0.22514254 -0.97789681 2.9644783 2.947033e-39
0.22615846 -0.96792305 2.9663239 2.3938592e-39
0.22717433 -0.9579491 2.9681692 1.472263e-39
0.22819045 -0.94797522 2.9700146 8.2651947e-40
0.22920635 -0.93800139 2.9718602 2.2958972e-39
0.22464126 -0.87245017 3.0008001 9.1835496e-41
0.22566587 -0.8623926 3.002661 0
0.21454488 -0.85660428 3.0212436 0
0.21557817 -0.84645951 3.0231206 0
0.21661161 -0.83631462 3.0249977 0
0.2176449 -0.82616979 3.0268748 0
0.23217522 -0.95548457 2.9615226 1.472263e-39
0.22865947 -0.88002253 2.9922369 4.1329659e-39
0.22968408 -0.86996484 2.9940977 3.6734198e-40
0.23070857 -0.85990733 2.9959588 0
0.23173308 -0.84984976 2.9978197 0
0.22169812 -0.83380783 3.0182374 0
0.22273146 -0.823663 3.0201144 0
0.22376475 -0.81351823 3.0219915 0
0.22479807 -0.80337346 3.0238688 4.5917748e-40
0.22885124 -0.81101137 3.0152311 1.8367099e-40
0.22988468 -0.8008666 3.0171082 6.4284847e-40
0.23091799 -0.79072171 3.0189853 1.8367309e-39
0.23195142 -0.78057694 3.0208623 1.1056385e-39
0.23298466 -0.77043217 3.0227394 1.5666265e-39
0.23401815 -0.76028734 3.0246165 2.119796e-39
0.22308239 -0.75349653 3.0432601 2.7626487e-39
0.22412473 -0.7432645 3.0451534 2.3963829e-39
0.22516705 -0.73303252 3.0470464 2.3963829e-39
0.22620907 -0.72280037 3.0489399 1.8468063e-39
0.22829351 -0.70233643 3.0527263 2.5804239e-39
0.23497109 -0.79835975 3.0103478 7.3504691e-40
0.23703794 -0.77807009 3.0141017 1.472263e-39
0.23133941 -0.72027206 3.0421212 2.2141595e-39
0.23238166 -0.71004003 3.0440145 2.6729698e-39
0.23446611 -0.68957597 3.0478008 2.765171e-39
0.26624677 -0.6991024 2.9970636 2.6751348e-39
0.26727107 -0.68904483 2.9989247 2.8573681e-39
0.26978424 -0.64630508 3.0095851 3.5974499e-39
0.27383724 -0.65394306 3.0009475 4.5165293e-39
0.27487066 -0.64379829 3.0028245 4.0577217e-39
0.27045867 -0.62324572 3.0163555 4.0577217e-39
0.2715008 -0.61301368 3.0182488 4.242113e-39
0.27254322 -0.60278171 3.0201421 4.242113e-39
0.27358526 -0.59254962 3.0220354 5.0689968e-39
0.2799159 -0.41910464 3.0710807 1.6562941e-39
0.27663118 -0.61048526 3.0114303 4.700573e-39
0.27767348 -0.60025328 3.0133233 4.7927701e-39
0.27871573 -0.59002119 3.0152166 4.7934749e-39
0.27975786 -0.57978922 3.0171096 4.4265043e-39
0.28080007 -0.56955713 3.0190032 5.0697031e-39
0.27352744 -0.53006643 3.0432005 4.4250749e-39
0.27457869 -0.5197472 3.0451097 4.518344e-39
0.2756297 -0.50942791 3.0470192 4.518344e-39
0.27870142 -0.52751648 3.0363238 4.5186999e-39
0.27975237 -0.51719719 3.038233 4.5186999e-39
0.28080368 -0.50687796 3.0401425 4.7037974e-39
0.28185484 -0.4965587 3.0420518 4.4282993e-39
0.28290576 -0.4862394 3.0439613 4.242113e-39
0.2902638 -0.41400477 3.057327 3.1267397e-39
0.29131472 -0.40368548 3.0592365 2.5786092e-39
0.2849265 -0.51464731 3.0313563 4.7956427e-39
0.28597763 -0.50432807 3.0332658 4.7956427e-39
0.28702876 -0.49400869 3.0351751 4.703094e-39
0.28807989 -0.4836894 3.0370846 4.9771571e-39
0.28267071 -0.42231706 3.0658772 3.2218122e-39
0.28479141 -0.40149707 3.0697296 2.1176324e-39
0.28682992 -0.43015468 3.0570138 4.3328415e-39
0.28789023 -0.41974476 3.0589399 3.7757048e-39
0.28895047 -0.40933469 3.0608661 4.0497736e-39
0.29417011 -0.40676239 3.0539291 3.589866e-39
0.30683678 -0.39603576 3.0386062 3.1299627e-39
0.23821139 -1.1708242 2.8798518 4.5132699e-39
0.23645148 -1.1487875 2.8899176 4.6051012e-39
0.24469395 -1.1754795 2.8685875 3.9608164e-39
0.23918258 -1.1751776 2.876931 4.5132699e-39
0.23998658 -1.1700201 2.8774686 4.5132699e-39
0.24334982 -1.1636624 2.874584 4.0530106e-39
0.24972689 -0.98397851 2.9256642 4.4207211e-39
0.2401537 -1.1795311 2.8740101 4.5132699e-39
0.24095769 -1.1743736 2.8745477 4.6054655e-39
0.24176161 -1.1692162 2.8750854 4.6054655e-39
0.24256571 -1.1640586 2.875623 4.5132699e-39
0.24974294 -0.97852063 2.9274814 4.6054655e-39
0.25056085 -0.97327369 2.9280283 4.2366886e-39
0.25478625 -0.9658004 2.9242311 3.8686263e-39
0.24514481 -1.1580971 2.8737774 4.5132699e-39
0.25479245 -1.096207 2.8802292 5.1586393e-39
0.25559637 -1.0910494 2.8807669 5.1586393e-39
0.24862312 -1.0661262 2.8996022 5.0650045e-39
0.24943413 -1.0609239 2.9001443 5.0650045e-39
0.25105599 -1.0505195 2.9012291 4.9724501e-39
0.25186706 -1.0453172 2.9017713 4.9724501e-39
0.25267798 -1.0401151 2.9023137 5.1561211e-39
0.24909511 -0.99344367 2.9234159 4.6054655e-39
0.24991293 -0.98819673 2.9239628 5.0635724e-39
0.25073078 -0.98294973 2.92451 5.155768e-39
0.2515488 -0.97770274 2.9250569 4.8799014e-39
0.25236663 -0.9724558 2.9256039 4.6033131e-39
0.25318456 -0.96720886 2.9261508 4.2366886e-39
0.25400269 -0.96196198 2.926698 4.1441342e-39
0.2548205 -0.95671493 2.9272447 3.959743e-39
0.25656754 -1.095403 2.877846 5.0664436e-39
0.25737146 -1.0902455 2.8783836 5.0664436e-39
0.26219544 -1.0593002 2.8816094 5.0650045e-39
0.25122476 -1.060113 2.8977404 5.0650045e-39
0.2528466 -1.0497085 2.8988252 4.9724501e-39
0.25365761 -1.0445062 2.8993673 4.9724501e-39
0.25446853 -1.0393041 2.8999097 5.0635668e-39
0.25527945 -1.0341017 2.9004521 5.0635724e-39
0.25609043 -1.0288996 2.9009943 4.8802545e-39
0.26022404 -1.0208163 2.8975399 4.4207169e-39
0.25008315 -0.99787265 2.9204443 5.0635668e-39
0.25090089 -0.99262571 2.9209914 4.5132699e-39
0.25171882 -0.98737878 2.9215384 4.971018e-39
0.25253692 -0.98213184 2.9220853 5.0635724e-39
0.25335476 -0.97688478 2.9226322 4.8799014e-39
0.25417268 -0.97163785 2.9231791 4.8799014e-39
0.25499061 -0.96639097 2.9237261 4.697308e-39
0.25580853 -0.96114397 2.924273 4.2366886e-39
0.25662646 -0.95589697 2.9248202 3.959743e-39
0.27362579 -0.80147117 2.9514954 3.0406719e-39
0.27056977 -0.79688585 2.957612 3.408737e-39
0.27139461 -0.79159415 2.9581637 3.6856826e-39
0.27221948 -0.78630245 2.9587154 3.871513e-39
0.27304441 -0.78101069 2.9592671 4.0562546e-39
0.26785466 -0.741956 2.9802027 5.3448452e-39
0.2686868 -0.73661774 2.9807591 5.3448452e-39
0.26951894 -0.73127961 2.9813156 5.5292365e-39
0.27035111 -0.72594136 2.9818721 5.4370408e-39
0.27548262 -0.71781778 2.976939 4.793112e-39
0.27201539 -0.71526504 2.982985 5.4370408e-39
0.27284753 -0.70992678 2.9835415 5.6214349e-39
0.27904308 -0.70287043 2.9766574 4.886388e-39
0.26477456 -1.0533389 2.8797638 6.074832e-39
0.25463712 -1.0488976 2.8964212 5.0650045e-39
0.25544795 -1.0436952 2.8969636 5.0635668e-39
0.25625896 -1.0384932 2.897506 4.8802545e-39
0.25706995 -1.0332909 2.8980482 5.0635668e-39
0.25270689 -0.99180782 2.9185667 4.6054655e-39
0.26868251 -0.97870386 2.8990982 4.2366956e-39
0.26599035 -0.97606629 2.9040136 4.6051124e-39
0.26680115 -0.970864 2.9045558 4.8802545e-39
0.26761234 -0.96566176 2.9050982 4.8802545e-39
0.2684232 -0.96045965 2.9056406 4.8802545e-39
0.25761449 -0.96032614 2.9218488 4.236683e-39
0.2584323 -0.95507908 2.9223955 4.0522917e-39
0.27604321 -0.86927313 2.9250076 6.4321842e-40
0.27233699 -0.86588073 2.931694 1.7456031e-39
0.27315494 -0.86063385 2.9322412 1.2878704e-39
0.26991633 -0.81193596 2.9535122 3.593487e-39
0.27074125 -0.80664426 2.9540637 3.6871217e-39
0.27156609 -0.80135262 2.9546154 3.5034395e-39
0.27239105 -0.79606098 2.9551671 3.9637086e-39
0.27321598 -0.79076928 2.9557185 4.1488089e-39
0.27404082 -0.78547758 2.9562702 4.3328415e-39
0.27486569 -0.78018582 2.9568219 4.3328415e-39
0.28077328 -0.76903099 2.9517508 4.4239609e-39
0.2680276 -0.7518003 2.9766231 5.3448452e-39
0.26969182 -0.74112386 2.977736 5.4370408e-39
0.28228974 -0.73256069 2.9617865 5.4370408e-39
0.28311461 -0.72726899 2.9623382 5.9876965e-39
0.28898907 -0.72012168 2.9559648 5.4359632e-39
0.28476426 -0.71668559 2.9634414 5.8029521e-39
0.28558931 -0.71139401 2.9639931 5.712204e-39
0.28641418 -0.70610231 2.9645448 5.8040437e-39
0.27551687 -0.70375639 2.9816313 5.3462956e-39
0.27785945 -0.69638336 2.9806159 5.1608183e-39
0.25886047 -1.0324799 2.8956444 5.0635668e-39
0.26615894 -0.98565984 2.9005251 4.6054655e-39
0.26696986 -0.98045754 2.9010675 4.604762e-39
0.26778084 -0.97525537 2.9016097 4.6051124e-39
0.26859176 -0.97005314 2.9021521 4.8802545e-39
0.26940277 -0.96485084 2.9026945 4.7880589e-39
0.27021378 -0.95964873 2.9032366 4.8802545e-39
0.2710247 -0.95444643 2.903779 4.4210742e-39
0.27183554 -0.94924414 2.9043214 4.236683e-39
0.2618739 -0.94376719 2.9210651 3.3168917e-39
0.26432779 -0.92802644 2.9227059 2.6711551e-39
0.27332491 -0.87030983 2.9287226 8.2689361e-40
0.27414283 -0.86506283 2.9292696 2.0221886e-39
0.27496076 -0.8598159 2.9298165 1.3800674e-39
0.27173758 -0.81111109 2.951067 3.8697137e-39
0.27256253 -0.80581939 2.9516184 3.6871217e-39
0.27918524 -0.79884338 2.9440684 3.6871147e-39
0.27421221 -0.79523605 2.9527218 4.0559043e-39
0.27503717 -0.78994441 2.9532735 4.1488089e-39
0.2758621 -0.78465271 2.953825 4.3328415e-39
0.28209782 -0.77809316 2.9467132 4.2406486e-39
0.2835542 -0.76771796 2.9480355 4.7923833e-39
0.27916157 -0.76348591 2.9560316 5.2529999e-39
0.28501055 -0.75734264 2.9493577 4.976776e-39
0.28081146 -0.75290257 2.9571347 5.1622518e-39
0.28646705 -0.74696743 2.9506798 4.9760641e-39
0.28735414 -0.74029315 2.9516048 5.0693387e-39
0.28328609 -0.73702747 2.9587898 5.5292365e-39
0.28881028 -0.7299183 2.9529274 5.1611742e-39
0.28493586 -0.72644413 2.959893 6.0798921e-39
0.28576079 -0.72115242 2.9604447 5.9876965e-39
0.28658566 -0.71586072 2.9609964 5.9873434e-39
0.28741059 -0.71056908 2.9615479 5.712204e-39
0.28823543 -0.70527744 2.9620996 5.9887951e-39
0.28314298 -0.70095676 2.9711721 4.9782319e-39
0.27818629 -0.69758606 2.9797211 5.6214349e-39
0.28461102 -0.69049239 2.972507 5.3448536e-39
0.27985081 -0.68690974 2.9808342 5.7154228e-39
0.28271917 -0.68082809 2.9785964 5.0718583e-39
0.28151497 -0.67623335 2.9819469 5.8076184e-39
0.28419045 -0.67033827 2.9799349 5.3462886e-39
0.28317919 -0.66555697 2.9830601 5.7150697e-39
0.28566173 -0.65984827 2.9812737 5.162256e-39
0.28484356 -0.65488052 2.9841731 5.4388415e-39
0.28364268 -0.65011269 2.9875774 5.622151e-39
0.28453273 -0.64332598 2.9885356 5.2548104e-39
0.26470569 -1.0056579 2.895952 4.7880589e-39
0.26632762 -0.99525326 2.8970366 4.5132699e-39
0.26713854 -0.99005115 2.897579 4.5132699e-39
0.26794955 -0.98484886 2.8981211 4.5132699e-39
0.26876038 -0.97964656 2.8986635 4.6054655e-39
0.26957139 -0.97444439 2.8992057 4.6054655e-39
0.27200425 -0.95883775 2.9008329 4.6054655e-39
0.27281526 -0.95363545 2.9013751 4.5132699e-39
0.26367995 -0.9429493 2.9186404 3.4090873e-39
0.2653158 -0.93245536 2.9197345 3.1314298e-39
0.26613373 -0.92720848 2.9202814 2.6708048e-39
0.27513075 -0.86949188 2.9262981 1.6562969e-39
0.27594867 -0.86424488 2.9268451 1.7491988e-39
0.27676669 -0.85899794 2.927392 2.1179828e-39
0.27758452 -0.85375094 2.9279389 2.1179828e-39
0.26943445 -0.83674461 2.9458635 3.4090873e-39
0.27025938 -0.83145297 2.9464149 3.2264939e-39
0.2824921 -0.82226926 2.9312208 3.5034395e-39
0.28331012 -0.8170222 2.9317677 3.4105349e-39
0.28412789 -0.81177533 2.9323149 3.4105349e-39
0.27900705 -0.80864012 2.94103 3.5027305e-39
0.27438381 -0.80499446 2.9491732 3.871513e-39
0.27520865 -0.79970276 2.9497249 3.9637086e-39
0.27603367 -0.79441112 2.9502764 4.0559043e-39
0.27685845 -0.78911948 2.9508281 4.0559043e-39
0.27768338 -0.78382778 2.9513798 4.6994758e-39
0.27850822 -0.77853602 2.9519315 4.9764214e-39
0.27933323 -0.77324438 2.9524829 5.1608029e-39
0.2801581 -0.76795268 2.9530346 5.1604526e-39
0.28098294 -0.76266098 2.9535863 5.3451955e-39
0.28779829 -0.75602645 2.9456332 5.1608141e-39
0.28263274 -0.75207764 2.9546895 5.6217908e-39
0.28925377 -0.74565202 2.9469564 5.2537272e-39
0.28428242 -0.7414943 2.9557929 5.898019e-39
0.29070947 -0.73527759 2.9482794 5.4377527e-39
0.2859323 -0.7309109 2.9568961 5.805822e-39
0.29216492 -0.72490317 2.9496028 5.4377527e-39
0.29305294 -0.71822351 2.9505284 5.2544404e-39
0.28840694 -0.71503586 2.9585509 5.6221412e-39
0.29113668 -0.70872629 2.9565976 5.2537272e-39
0.29005674 -0.70445251 2.9596543 5.805822e-39
0.29088166 -0.69916081 2.9602058 5.805822e-39
0.28002375 -0.69675392 2.9772544 5.6214349e-39
0.2808558 -0.69141579 2.9778109 5.805822e-39
0.28168795 -0.68607754 2.9783673 6.0816942e-39
0.28889599 -0.67869544 2.9700792 5.4388387e-39
0.28335235 -0.67540115 2.9794803 5.807624e-39
0.2903631 -0.6682319 2.971415 5.4388429e-39
0.28501654 -0.66472483 2.9805932 5.9891482e-39
0.2858488 -0.65938658 2.9811497 5.8980218e-39
0.28668085 -0.65404838 2.9817061 5.9894986e-39
0.28994581 -0.64802539 2.9788558 5.622151e-39
0.28834507 -0.643372 2.9828193 5.8076184e-39
0.28792757 -0.63826078 2.9851677 5.2551705e-39
0.2888189 -0.631468 2.9861267 5.5303197e-39
0.26974002 -0.98403794 2.8957174 4.5132699e-39
0.27703854 -0.93721783 2.900598 3.4090873e-39
0.27784947 -0.93201554 2.9011405 3.3168917e-39
0.27866039 -0.9268133 2.9016829 3.0392342e-39
0.2794714 -0.92161107 2.902225 2.947033e-39
0.28109321 -0.91120654 2.9033096 2.5789595e-39
0.27202925 -0.90015572 2.9205916 1.7484898e-39
0.28433698 -0.89039767 2.905479 2.1179828e-39
0.28595901 -0.87999314 2.9065635 2.1179828e-39
0.27775466 -0.86342698 2.9244206 2.6711551e-39
0.2785725 -0.85818005 2.9249675 2.6711551e-39
0.2851586 -0.84916806 2.9181592 2.4871268e-39
0.28020835 -0.84768617 2.9260614 2.7630018e-39
0.28102627 -0.84243912 2.9266083 2.8580701e-39
0.28184429 -0.83719218 2.9271553 3.2246947e-39
0.28266206 -0.83194524 2.9277024 3.5938373e-39
0.28534424 -0.82606345 2.9256759 3.2264967e-39
0.284298 -0.82145131 2.9287963 3.6874721e-39
0.28679091 -0.81575108 2.9269912 3.5020116e-39
0.28593385 -0.81095743 2.9298902 3.6871217e-39
0.28675169 -0.80571043 2.9304373 3.7793174e-39
0.28756961 -0.80046344 2.9309843 3.9637086e-39
0.28838763 -0.7952165 2.9315312 4.0559043e-39
0.28920546 -0.78996956 2.9320781 4.3324912e-39
0.29165936 -0.77422863 2.9337189 4.9764214e-39
0.28362912 -0.75654447 2.9516928 5.6217908e-39
0.28445387 -0.75125277 2.9522443 5.6217908e-39
0.29730153 -0.7065264 2.9481211 5.529598e-39
0.29187804 -0.70362765 2.9572091 5.898019e-39
0.29875585 -0.69615328 2.9494457 5.4374066e-39
0.29352784 -0.69304425 2.9583123 5.6214349e-39
0.29684362 -0.68660337 2.9555268 5.437408e-39
0.29517764 -0.68246084 2.9594157 6.0816942e-39
0.29600236 -0.67716908 2.9599671 5.8998141e-39
0.28518954 -0.67456907 2.9770136 5.807624e-39
0.28602177 -0.66923088 2.9775701 5.807624e-39
0.28685385 -0.66389269 2.9781265 6.0813439e-39
0.29930192 -0.65600234 2.9621737 6.0824131e-39
0.30012697 -0.65071076 2.9627254 5.9894986e-39
0.28935027 -0.64787805 2.9797962 6.0827662e-39
0.29018235 -0.64253986 2.9803526 5.9923684e-39
0.29101449 -0.63720173 2.9809091 5.8998197e-39
0.29184672 -0.63186347 2.9814656 5.807624e-39
0.29570523 -0.62571186 2.9777708 5.8069052e-39
0.29351094 -0.62118703 2.9825785 5.807624e-39
0.29369175 -0.6158911 2.9840946 5.7143466e-39
0.29517531 -0.61051053 2.9836915 6.0824131e-39
0.29516467 -0.60537595 2.9854393 5.7150641e-39
0.28045097 -0.92600232 2.8992789 3.3168917e-39
0.28126189 -0.92080009 2.899821 3.3168917e-39
0.28037849 -0.85736209 2.9225428 3.0410167e-39
0.28119653 -0.85211515 2.92309 3.4094404e-39
0.28283221 -0.84162122 2.9241838 3.3186895e-39
0.28365022 -0.83637422 2.9247308 3.3186895e-39
0.28446805 -0.83112729 2.9252777 3.5027305e-39
0.2861039 -0.82063341 2.9263716 4.146302e-39
0.28773975 -0.81013948 2.9274657 3.871513e-39
0.28937563 -0.79964554 2.9285595 4.0559043e-39
0.29101148 -0.78915161 2.9296534 4.4246868e-39
0.29182932 -0.78390467 2.9302006 4.5172327e-39
0.29264724 -0.77865762 2.9307475 4.8838671e-39
0.29346526 -0.77341068 2.9312944 4.9764214e-39
0.29428309 -0.76816374 2.9318414 5.8036556e-39
0.29510102 -0.7629168 2.9323883 5.8036556e-39
0.29369935 -0.70280272 2.9547639 6.0827606e-39
0.29452428 -0.69751102 2.9553154 6.0827606e-39
0.29534912 -0.69221932 2.9558671 6.449025e-39
0.29617405 -0.68692762 2.9564188 6.5405143e-39
0.29699892 -0.68163598 2.9569705 6.0820599e-39
0.29864869 -0.67105258 2.9580736 6.1746087e-39
0.30255505 -0.66447955 2.9544497 5.8058248e-39
0.30029857 -0.66046923 2.9591768 6.0824131e-39
0.30194825 -0.64988583 2.9602802 6.0827662e-39
0.29201981 -0.64170772 2.9778857 6.2671546e-39
0.29285187 -0.63636959 2.9784422 5.8998169e-39
0.29368401 -0.63103133 2.9789987 6.2657225e-39
0.3018795 -0.6237095 2.9692135 5.8980232e-39
0.29534838 -0.62035489 2.9801116 6.3575678e-39
0.29618037 -0.61501664 2.9806683 6.3582769e-39
0.2970126 -0.60967839 2.9812248 6.2671602e-39
0.30146933 -0.60339713 2.9766793 5.8072639e-39
0.29867682 -0.59900206 2.9823377 5.9923656e-39
0.30293831 -0.5929094 2.9780207 5.9909377e-39
0.30034119 -0.58832568 2.9834507 6.0842081e-39
0.30117324 -0.58298755 2.9840071 6.0842081e-39
0.29281732 -0.78833371 2.9272289 4.5168824e-39
0.29363525 -0.78308672 2.9277759 4.6094284e-39
0.2944532 -0.77783972 2.9283228 4.9764214e-39
0.29527104 -0.77259278 2.92887 5.2526496e-39
0.29608896 -0.76734585 2.9294169 5.8036556e-39
0.29634556 -0.69668615 2.9528704 6.2675106e-39
0.2988202 -0.68081105 2.9545252 6.450841e-39
0.30047008 -0.67022771 2.9556284 6.0824131e-39
0.30211985 -0.65964437 2.9567316 6.0824131e-39
0.29552135 -0.63019919 2.976532 6.3582769e-39
0.29635349 -0.624861 2.9770885 6.3582769e-39
0.29718566 -0.61952275 2.9776449 6.3575678e-39
0.30051416 -0.59816992 2.979871 6.0845612e-39
0.3013463 -0.59283173 2.9804275 6.0842081e-39
0.30217835 -0.5874936 2.980984 5.9920125e-39
0.30220997 -0.58242714 2.982646 5.7154298e-39
0.29816681 -0.69586128 2.9504251 6.2671546e-39
0.29899165 -0.69056958 2.9509766 6.4497508e-39
0.29981661 -0.68527788 2.9515283 6.1749618e-39
0.30064154 -0.67998618 2.95208 6.633782e-39
0.30146638 -0.67469448 2.9526317 6.2671546e-39
0.30229133 -0.66940278 2.9531832 6.1749618e-39
0.30311626 -0.66411114 2.9537349 6.1746087e-39
0.30394092 -0.65881944 2.9542866 6.2653722e-39
0.30401573 -0.58666146 2.9785173 6.0842081e-39
0.3048479 -0.58132327 2.9790738 6.4511914e-39
0.30593225 -0.57427275 2.9798307 5.8991022e-39
0.30163789 -0.68445295 2.9490831 6.1749618e-39
0.30246282 -0.67916131 2.9496348 6.633782e-39
0.30328774 -0.67386961 2.9501865 6.4515445e-39
0.30493754 -0.66328627 2.9512897 6.0824131e-39
0.30576229 -0.65799457 2.9518414 6.3575678e-39
0.30658734 -0.65270281 2.9523928 6.3582769e-39
0.30668527 -0.58049113 2.9766068 6.4511914e-39
0.30751735 -0.57515287 2.9771636 6.0842081e-39
0.31001377 -0.5591383 2.978833 6.4511914e-39
0.30428401 -0.67833632 2.9471893 6.7263307e-39
0.3075836 -0.6571697 2.9493961 6.2657253e-39
0.3140949 -0.56809694 2.969708 6.1746073e-39
0.31355849 -0.54762036 2.9774177 5.8980204e-39
0.31445289 -0.54080343 2.9783804 5.7147151e-39
0.31517953 -0.53695339 2.9785922 5.5339112e-39
0.31601179 -0.53161508 2.9791486 6.0842081e-39
0.2311615 -1.2064925 2.8783612 2.9473833e-39
0.23214476 -1.1968396 2.8801472 2.7633522e-39
0.26130107 -1.0357971 2.8908756 3.7753517e-39
0.25403327 -1.0021306 2.913101 3.7753517e-39
0.25703096 -0.97270089 2.9185464 3.0403132e-39
0.26394811 -0.95065707 2.9156396 2.6708048e-39
0.27086511 -0.92861325 2.9127324 8.2724394e-40
0.27186418 -0.91880333 2.9145477 9.1835496e-41
0.27286348 -0.90899342 2.9163628 9.1835496e-41
0.27386272 -0.89918351 2.9181778 0
0.26782978 -0.85414284 2.9423938 0
0.26883724 -0.84425277 2.9442236 0
0.27286682 -0.80469221 2.9515438 6.4285128e-40
0.27678287 -0.91637915 2.9080102 3.6734198e-40
0.27778214 -0.9065693 2.9098253 1.8367099e-40
0.27878135 -0.89675939 2.9116406 9.1835496e-41
0.27480349 -0.83191872 2.9394629 7.3504691e-40
0.2758109 -0.82202852 2.9412928 5.5317378e-40
0.27681828 -0.81213838 2.9431229 4.6026909e-40
0.27782574 -0.80224824 2.9449527 6.4501908e-40
0.27883312 -0.79235816 2.9467828 1.6562941e-39
0.28580678 -0.77013397 2.9438519 2.8580701e-39
0.28681418 -0.76024377 2.945682 2.8573625e-39
0.27648205 -0.75365824 2.9633539 3.2261436e-39
0.27749783 -0.74368429 2.9651992 2.9524336e-39
0.27851397 -0.73371041 2.9670448 3.1364647e-39
0.27952975 -0.72373664 2.9688904 3.136113e-39
0.26924047 -0.71673232 2.9866395 3.136113e-39
0.27026504 -0.7066747 2.9885004 3.6867686e-39
0.2712895 -0.69661713 2.9903615 3.6867686e-39
0.27231401 -0.68655956 2.9922223 3.2283086e-39
0.28656271 -0.70132428 2.9659345 3.5052542e-39
0.27633235 -0.69413185 2.983659 3.9633555e-39
0.27735683 -0.68407422 2.9855199 4.1481069e-39
0.27838114 -0.67401665 2.987381 3.7814824e-39
0.28239954 -0.68158895 2.9788175 3.9655261e-39
0.28342396 -0.67153138 2.9806786 3.9655261e-39
0.28444847 -0.66147381 2.9825394 4.4243337e-39
0.27590397 -0.63365346 3.0047016 4.4236274e-39
0.28711033 -0.61849511 2.9930577 4.242113e-39
0.28184238 -0.5593251 3.0208962 4.5190474e-39
0.29426345 -0.59569865 2.9900517 5.2522965e-39
0.29529679 -0.58555382 2.9919288 4.9768012e-39
0.29633018 -0.575409 2.9938059 4.242113e-39
0.28593031 -0.56702876 3.0121846 4.9775074e-39
0.28697243 -0.55679673 3.0140779 4.4268504e-39
0.28801483 -0.5465647 3.0159709 4.242113e-39
0.28905702 -0.53633279 3.0178642 5.1615484e-39
0.30141684 -0.5729022 2.9870453 5.0693527e-39
0.30245018 -0.56275737 2.9889224 4.9771571e-39
0.29210281 -0.55426842 3.0072591 4.5186971e-39
0.29314503 -0.54403639 3.0091524 5.0697031e-39
0.29418734 -0.53380436 3.0110455 5.0693527e-39
0.29522955 -0.52357239 3.0129387 4.7030884e-39
0.28913099 -0.47337019 3.0389941 4.242113e-39
0.29018214 -0.46305108 3.0409033 4.058428e-39
0.29543766 -0.4114548 3.0504503 5.3372656e-39
0.30877861 -0.39055598 3.0375509 3.5877164e-39
0.30753669 -0.56025052 2.982162 5.1615484e-39
0.29723319 -0.55173999 3.0004404 4.9768012e-39
0.29827532 -0.54150796 3.0023336 5.0697031e-39
0.29931757 -0.53127599 3.0042269 5.0697031e-39
0.30035987 -0.52104402 3.0061202 4.7030884e-39
0.301402 -0.51081198 3.0080135 5.0711478e-39
0.30244431 -0.50057989 3.0099065 5.1633504e-39
0.29220277 -0.49145883 3.0282984 5.0711534e-39
0.29325387 -0.48113957 3.0302079 5.2533909e-39
0.30557099 -0.46988377 3.0155864 4.518344e-39
0.29535615 -0.46050116 3.0340266 4.2421158e-39
0.29640725 -0.45018193 3.0359359 5.0693527e-39
0.29745826 -0.43986267 3.0378454 4.2428193e-39
0.31572324 -0.5273093 2.9810326 5.4370464e-39
0.30757436 -0.49805152 3.003088 5.6225237e-39
0.30861688 -0.48781949 3.0049813 5.7147193e-39
0.30965889 -0.47758743 3.0068746 5.0711506e-39
0.31070113 -0.46735546 3.0087678 5.0693527e-39
0.31174344 -0.45712349 3.0106611 4.7002199e-39
0.30158123 -0.44763201 3.0290592 4.4261483e-39
0.30263221 -0.43731275 3.0309687 5.0689996e-39
0.3036834 -0.42699355 3.0328779 5.3459396e-39
0.29310957 -0.41717237 3.0520029 4.3314023e-39
0.31374696 -0.48529103 2.9981627 5.806915e-39
0.31478918 -0.475059 3.0000558 5.6225237e-39
0.31583142 -0.46482703 3.0019493 5.1615484e-39
0.31687373 -0.45459509 3.0038424 4.7005758e-39
0.31791586 -0.44436303 3.0057356 4.0573686e-39
0.3078064 -0.43476287 3.0240917 4.7927729e-39
0.30885744 -0.4244436 3.0260012 5.4381423e-39
0.30990854 -0.41412437 3.0279105 5.0697003e-39
0.3109597 -0.40380505 3.02982 4.0504938e-39
0.31201074 -0.39348578 3.0317295 3.8679005e-39
0.3220039 -0.45206672 2.9970238 4.7934749e-39
0.32304606 -0.44183466 2.9989171 4.6083774e-39
0.31298009 -0.43221286 3.0172153 4.976804e-39
0.31403127 -0.42189366 3.0191247 4.7952896e-39
0.31508234 -0.41157442 3.021034 5.5292365e-39
0.31815419 -0.42966297 3.0103385 4.518344e-39
0.31920531 -0.41934377 3.0122478 4.703094e-39
0.23723927 -0.94029522 2.9590743 0
0.23204488 -0.90285975 2.9794705 6.3366492e-39
0.23286971 -0.89756805 2.9800222 5.8774718e-39
0.23369455 -0.89227641 2.9805739 5.8774718e-39
0.2345195 -0.88698465 2.9811256 5.7856363e-39
0.23534445 -0.88169295 2.9816771 6.2448165e-39
0.23986305 -0.93423027 2.9571967 5.0588444e-39
0.23139161 -0.91790986 2.9753704 5.7856363e-39
0.23221625 -0.91261822 2.9759221 5.7856363e-39
0.23304109 -0.90732646 2.9764736 5.7856363e-39
0.24558845 -0.89750153 2.9610255 6.0611427e-39
0.24640648 -0.89225459 2.9615724 5.7856363e-39
0.23551592 -0.89145148 2.9781287 5.7856363e-39
0.23634076 -0.88615978 2.9786804 5.7856363e-39
0.2371657 -0.88086808 2.9792318 5.7856363e-39
0.23073806 -0.93296003 2.9712703 6.3467078e-39
0.23117492 -0.92777234 2.9723673 4.6850494e-39
0.23238775 -0.92237663 2.9723735 5.051311e-39
0.23651226 -0.89591825 2.9751318 5.0509523e-39
0.2373372 -0.89062661 2.9756835 4.7754458e-39
0.23816204 -0.88533491 2.9762352 4.4999393e-39
0.23898698 -0.88004315 2.9767866 4.4999505e-39
0.23642726 -0.9089672 2.9708569 9.1835496e-40
0.2350774 -0.89605993 2.9772296 0
0.23655176 -0.88558894 2.9785573 4.5917748e-40
0.2351951 -0.88574195 2.9805343 3.6734198e-40
0.23741899 -1.0665272 2.9162211 4.513623e-39
0.23536816 -0.89558619 2.9769547 0
0.23620032 -0.89024806 2.9775112 0
0.23703246 -0.88490981 2.9780676 0
0.2366035 -1.1811391 2.8787766 3.9629645e-39
0.23501508 -1.1589738 2.8886292 4.4214274e-39
0.23471996 -1.1403795 2.8953433 4.6065389e-39
0.23270926 -1.1361883 2.8997638 4.8827614e-39
0.24019977 -1.1219128 2.8933787 4.6983758e-39
0.23514231 -1.1205815 2.9013906 5.1589896e-39
0.23059069 -1.0798489 2.9219379 4.5157866e-39
0.23304437 -1.0641079 2.923579 5.0653548e-39
0.2368519 -1.0573286 2.9201725 4.6969353e-39
0.23468022 -1.053614 2.9246728 4.9731592e-39
0.23549816 -1.048367 2.9252198 4.7884092e-39
0.23631598 -1.0431201 2.9257669 4.9731592e-39
0.23713401 -1.0378731 2.9263139 4.6980114e-39
0.24799119 -0.92014003 2.9497955 0
0.24887681 -0.91349047 2.9507143 3.6734198e-40
0.24678673 -0.90601909 2.9563603 2.7550649e-40
0.25091222 -0.89938122 2.9524305 1.8367099e-40
0.25179696 -0.89273298 2.9533503 1.8367099e-40
0.24926145 -0.89014405 2.9580152 0
0.25325713 -0.88235408 2.9546683 0
0.23886976 -0.88407767 2.975601 9.1835496e-41
0.23970181 -0.87873948 2.9761574 9.1835496e-41
0.24053407 -0.87340128 2.9767139 9.1835496e-41
0.23596667 -1.1958077 2.8747804 4.4199854e-39
0.23677057 -1.1906501 2.8753181 4.237392e-39
0.23125601 -1.1561862 2.8951907 4.6980114e-39
0.23206702 -1.1509839 2.8957329 4.7902071e-39
0.23531067 -1.130175 2.8979023 4.8827614e-39
0.23855464 -1.1093661 2.9000714 5.1589896e-39
0.23936555 -1.1041638 2.9006138 5.341583e-39
0.24017657 -1.0989616 2.9011559 5.2497363e-39
0.24098739 -1.0937593 2.9016984 5.4337786e-39
0.23321454 -1.0737839 2.9200606 4.7902071e-39
0.23403238 -1.0685369 2.9206073 4.7902071e-39
0.2348503 -1.06329 2.9211545 5.1568218e-39
0.23566812 -1.058043 2.9217014 5.0653548e-39
0.23648606 -1.0527961 2.9222484 4.9731592e-39
0.23730399 -1.0475491 2.9227953 4.9731592e-39
0.23812202 -1.0423023 2.9233422 4.9731592e-39
0.23893984 -1.0370553 2.9238894 4.9731592e-39
0.24200884 -0.94752765 2.9495022 2.3945682e-39
0.24283369 -0.94223601 2.9500537 1.7491988e-39
0.24613336 -0.92106926 2.9522603 3.6734198e-40
0.2469583 -0.91577756 2.952812 3.6734198e-40
0.24778304 -0.91048586 2.9533637 7.3468397e-40
0.24860789 -0.90519422 2.9539151 9.1835496e-40
0.25367412 -0.89807242 2.9487419 4.5917748e-40
0.25025767 -0.89461082 2.9550185 8.2651947e-40
0.25513402 -0.88769388 2.9500601 5.5101298e-40
0.25602019 -0.88103944 2.9509797 2.7550649e-40
0.25273249 -0.87873578 2.9566734 3.6734198e-40
0.24153917 -0.87790734 2.9736907 4.5917748e-40
0.24237122 -0.87256914 2.9742472 6.4284847e-40
0.24320348 -0.86723095 2.9748037 1.0112751e-39
0.24403562 -0.86189276 2.9753602 8.2724394e-40
0.24486777 -0.85655457 2.9759166 9.219563e-40
0.24196711 -1.0981506 2.898752 5.0657052e-39
0.24277791 -1.0929483 2.8992944 5.4337786e-39
0.24358894 -1.0877461 2.8998368 5.1589896e-39
0.24439985 -1.0825438 2.9003789 5.1589896e-39
0.24521087 -1.0773416 2.9009213 5.1589896e-39
0.23502031 -1.072966 2.9176359 4.7902071e-39
0.23583823 -1.067719 2.9181828 4.7902071e-39
0.23665628 -1.0624721 2.9187298 5.1568218e-39
0.2374742 -1.0572251 2.9192767 4.9731592e-39
0.23829192 -1.0519782 2.9198239 4.9731592e-39
0.23910986 -1.0467311 2.9203708 4.9731592e-39
0.23992789 -1.0414842 2.9209177 4.9731592e-39
0.24074581 -1.0362372 2.9214647 4.7884092e-39
0.24156374 -1.0309902 2.9220116 4.9731592e-39
0.24383022 -0.94670272 2.9470568 2.4867639e-39
0.24465497 -0.94141108 2.9476085 1.8413945e-39
0.24547991 -0.93611938 2.9481602 2.0221886e-39
0.24630485 -0.93082768 2.9487116 1.2856997e-39
0.2471298 -0.92553598 2.9492633 1.2856969e-39
0.24795453 -0.92024434 2.949815 3.6734198e-40
0.24877948 -0.91495264 2.9503667 4.5917748e-40
0.24960442 -0.90966094 2.9509182 8.2651947e-40
0.25042936 -0.90436929 2.9514699 9.1835496e-40
0.25125411 -0.89907759 2.9520216 9.1835496e-40
0.25207904 -0.89378589 2.9525731 9.1835496e-40
0.252904 -0.88849419 2.9531248 9.1835496e-40
0.25372884 -0.88320255 2.9536765 3.6734198e-40
0.25455371 -0.87791085 2.9542282 3.6734198e-40
0.2587643 -0.87007898 2.9505739 4.5917748e-40
0.25620356 -0.86732745 2.9553313 6.4284847e-40
0.24504074 -0.86639881 2.972337 1.1038294e-39
0.24587288 -0.86106056 2.9728935 1.1960251e-39
0.24670504 -0.85572243 2.9734499 9.219563e-40
0.24753718 -0.85038424 2.9740064 1.6566445e-39
0.24836944 -0.84504604 2.9745629 1.7491988e-39
0.24920148 -0.83970785 2.9751194 2.118689e-39
0.25003371 -0.8343696 2.9756758 2.1179828e-39
0.25419429 -0.80767864 2.9784584 2.5786092e-39
0.24664122 -1.0091845 2.9217751 4.7884092e-39
0.24745914 -1.0039376 2.922322 4.8806048e-39
0.2440016 -0.95646125 2.9435084 3.317242e-39
0.24482656 -0.95116955 2.9440601 2.9484623e-39
0.24565138 -0.94587785 2.9446118 2.8526695e-39
0.24647634 -0.94058621 2.9451632 2.1183387e-39
0.24730118 -0.93529451 2.945715 1.6566445e-39
0.24812602 -0.93000281 2.9462667 1.011631e-39
0.24895106 -0.92471111 2.9468181 1.0119841e-39
0.2497759 -0.91941941 2.9473698 1.2856969e-39
0.25060076 -0.91412777 2.9479215 1.3775366e-39
0.25142568 -0.90883607 2.948473 1.0101905e-39
0.25225061 -0.90354443 2.9490247 1.2856997e-39
0.25307548 -0.89825273 2.9495764 1.0101905e-39
0.25390053 -0.89296108 2.9501281 1.2856997e-39
0.25472528 -0.88766932 2.9506795 9.1835496e-40
0.25555012 -0.88237768 2.9512312 7.3504691e-40
0.25637504 -0.87708598 2.9517829 1.3775366e-39
0.25719997 -0.87179422 2.9523344 8.2759987e-40
0.25802484 -0.86650258 2.9528861 7.3504691e-40
0.25884968 -0.86121094 2.9534378 1.3804163e-39
0.25967461 -0.85591924 2.9539895 1.4726133e-39
0.26049957 -0.85062754 2.954541 1.7510079e-39
0.25020662 -0.8442139 2.9720962 2.3945682e-39
0.25103885 -0.83887571 2.9726527 2.4867639e-39
0.25187093 -0.83353746 2.9732091 2.3967332e-39
0.25270307 -0.82819933 2.9737656 2.4864135e-39
0.25353521 -0.82286114 2.9743221 2.6733201e-39
0.25519943 -0.81218475 2.9754353 2.7655158e-39
0.25852802 -0.79083192 2.9776611 3.6871217e-39
0.25936016 -0.78549367 2.9782176 3.8718633e-39
0.2484473 -1.0083666 2.9193504 4.8806048e-39
0.24926522 -1.0031197 2.9198973 4.9731592e-39
0.24582298 -0.95563632 2.9410632 3.4097964e-39
0.24664792 -0.95034462 2.9416149 3.0410167e-39
0.24829772 -0.93976128 2.942718 2.3945654e-39
0.24912255 -0.93446964 2.9432697 1.8413945e-39
0.2499475 -0.92917794 2.9438212 1.011631e-39
0.25077236 -0.92388624 2.9443729 8.279544e-40
0.2515972 -0.91859454 2.9449246 1.3775324e-39
0.25242212 -0.91330284 2.9454763 1.3775366e-39
0.25324708 -0.90801114 2.9460278 1.2856997e-39
0.25407192 -0.9027195 2.9465795 1.2856997e-39
0.25489676 -0.8974278 2.9471312 1.3775324e-39
0.25572178 -0.8921361 2.9476826 1.2856997e-39
0.25654665 -0.88684446 2.9482343 1.0101905e-39
0.2573714 -0.88155282 2.948786 7.3504691e-40
0.25819632 -0.87626106 2.9493377 1.4693749e-39
0.25902128 -0.87096936 2.9498892 1.011631e-39
0.25984621 -0.86567765 2.9504409 8.2724394e-40
0.26067105 -0.86038601 2.9509926 1.4726133e-39
0.26149592 -0.85509431 2.9515443 1.8413945e-39
0.26232085 -0.84980261 2.9520957 1.7510079e-39
0.26397052 -0.83921933 2.9531991 2.5789595e-39
0.25537261 -0.82202893 2.9718554 2.7655158e-39
0.25620466 -0.81669074 2.9724119 3.2246947e-39
0.25703689 -0.81135255 2.9729683 3.1342983e-39
0.26202971 -0.77932328 2.9763072 4.6076305e-39
0.2636939 -0.76864696 2.9774201 4.5168824e-39
0.26452616 -0.76330876 2.9779766 4.7941784e-39
0.26535821 -0.75797057 2.9785333 4.7012737e-39
0.26619035 -0.75263238 2.9790897 5.0704065e-39
0.26702258 -0.74729419 2.9796462 4.9778606e-39
0.24779943 -1.0232896 2.9152851 4.8806048e-39
0.24861735 -1.0180427 2.915832 4.8806048e-39
0.2494352 -1.0127957 2.916379 5.0646262e-39
0.25025302 -1.0075487 2.9169259 4.7887595e-39
0.25107104 -1.0023018 2.9174728 4.9731592e-39
0.25188887 -0.99705476 2.9180198 4.9731592e-39
0.24764425 -0.95481145 2.9386179 3.5938317e-39
0.24929403 -0.94422805 2.9397213 2.5796784e-39
0.25011897 -0.93893641 2.9402728 2.5800259e-39
0.25094384 -0.93364477 2.9408245 2.3945682e-39
0.25176868 -0.92835307 2.9413762 1.4726133e-39
0.25259361 -0.92306131 2.9419277 1.6541151e-39
0.25341856 -0.91776967 2.9424794 1.0112751e-39
0.2542434 -0.91247797 2.9430311 1.3775366e-39
0.25506833 -0.90718627 2.9435825 1.3775338e-39
0.25589326 -0.90189463 2.9441342 1.3775338e-39
0.25671813 -0.89660293 2.9446859 1.2856997e-39
0.25754297 -0.89131123 2.9452376 1.3775366e-39
0.25919276 -0.88072789 2.9463408 7.350441e-40
0.26249224 -0.85956115 2.9485474 1.3804163e-39
0.26331726 -0.85426944 2.9490991 1.8410441e-39
0.26719546 -0.75713843 2.9760666 5.0700562e-39
0.26885977 -0.74646205 2.9771795 5.2544475e-39
0.26291516 -1.0064689 2.898356 4.9724305e-39
0.25606468 -0.9116531 2.9405859 1.6534075e-39
0.2568894 -0.90636134 2.9411373 1.0101905e-39
0.25771445 -0.90106976 2.941689 1.0101905e-39
0.25853938 -0.89577806 2.9422407 1.3775366e-39
0.25936425 -0.89048636 2.9427924 1.5612118e-39
0.26018918 -0.88519466 2.9433441 8.2724394e-40
0.2263218 -1.2088778 2.8847938 2.7647773e-39
0.22636497 -1.090306 2.9247291 3.5938373e-39
0.22736412 -1.0804962 2.9265444 3.5016361e-39
0.23590566 -0.98260003 2.9467969 3.0406635e-39
0.24287935 -0.96037596 2.9438663 2.3938592e-39
0.23319113 -0.94551063 2.9633682 8.2651947e-40
0.2342072 -0.9355368 2.9652135 1.3775338e-39
0.23522301 -0.92556298 2.9670591 1.4693721e-39
0.2479163 -0.91092521 2.953016 1.9285454e-39
0.23275748 -0.83979219 2.9996808 0
0.24884558 -0.94804186 2.9391053 1.6566445e-39
0.24985296 -0.93815178 2.9409354 3.6734198e-40
0.25086027 -0.92826158 2.9427652 0
0.25186765 -0.91837138 2.9445953 0
0.25287521 -0.9084813 2.9464252 0
0.24530348 -0.87322909 2.9696398 9.1835496e-41
0.24631944 -0.8632552 2.9714854 0
0.24733536 -0.85328132 2.973331 0
0.24835144 -0.84330755 2.9751763 0
0.24936727 -0.83333361 2.9770219 0
0.23882474 -0.82724935 2.9948392 0
0.23984905 -0.81719178 2.9967003 0
0.26494732 -0.94084722 2.9174545 1.749196e-39
0.25581908 -0.92581767 2.9361746 0
0.25335214 -0.8408429 2.9685297 0
0.25436804 -0.83086902 2.9703753 0
0.25538409 -0.82089508 2.9722207 0
0.25639993 -0.81092125 2.9740663 9.1835496e-41
0.24591641 -0.80464894 2.991859 3.6734198e-40
0.23600453 -0.78821492 3.0122247 1.1031204e-39
0.23807126 -0.76792538 3.0159788 1.7506576e-39
0.23910455 -0.75778055 3.0178561 2.2119931e-39
0.24013789 -0.74763566 3.0197332 2.3963829e-39
0.24117129 -0.73749095 3.0216103 2.3963829e-39
0.24220473 -0.72734612 3.0234873 2.3956739e-39
0.23342377 -0.699808 3.0459077 3.0385251e-39
0.25835294 -0.83837837 2.9618831 9.1835496e-41
0.2593689 -0.82840443 2.9637287 1.4012985e-45
0.26038483 -0.81843054 2.9655743 3.6734198e-40
0.26343253 -0.78850901 2.9711106 5.5282345e-40
