# .PCD v0.7 - Point Cloud Data file format
VERSION 0.7
FIELDS x y z rgb
SIZE 4 4 4 4
TYPE F F F F
COUNT 1 1 1 1
WIDTH 825
HEIGHT 1
VIEWPOINT 0 0 0 1 0 0 0
POINTS 825
DATA ascii
-2.0019131 0.85767406 -0.13057362 2.0748003e-38
-2.0146739 0.85448194 -0.12570272 2.185254e-38
-2.0027623 0.85531229 -0.12570281 1.6417717e-38
-1.9491102 0.85383242 -0.11466035 4.5172622e-39
-2.02159 0.8529852 -0.12355655 2.3509886e-38
-1.9939603 0.85101151 -0.11530674 2.2404631e-38
-1.9531672 0.85056299 -0.10834248 1.7885996e-38
-1.9391383 0.85027987 -0.10567467 5.2551929e-39
-2.0133457 0.85032183 -0.11670659 2.3509886e-38
-1.9933379 0.847785 -0.10838973 2.3509886e-38
-1.9436767 0.84430617 -0.0937071 4.7012737e-39
-2.03265 0.8438282 -0.10581674 2.3509886e-38
-2.0150156 0.84371775 -0.10298261 2.3509886e-38
-1.9986871 0.8436659 -0.100465 2.3509886e-38
-1.9610541 0.84099752 -0.08927051 1.0696527e-38
-2.0378201 0.84069091 -0.099942394 2.3509886e-38
-2.0262308 0.8407588 -0.098377094 2.3509886e-38
-1.9910791 0.84030783 -0.092239283 2.3509886e-38
-2.0358069 0.83741301 -0.092711523 2.3509886e-38
-2.0165362 0.83753932 -0.090136915 2.3509886e-38
-2.0186675 0.83735716 -0.090065807 2.3509886e-38
-1.9657353 0.83614153 -0.079688512 1.2265644e-38
-1.9604555 0.83655697 -0.079788737 2.0258152e-39
-2.03495 0.83495212 -0.087379284 2.3509886e-38
-2.0330255 0.83408761 -0.085266709 2.3509886e-38
-2.0129635 0.83404082 -0.082209252 2.3509886e-38
-1.9921433 0.83366764 -0.078349486 2.3509886e-38
-1.9772384 0.83353186 -0.075864367 1.8344803e-38
-2.0493505 0.83324969 -0.085901581 2.3509886e-38
-2.0287108 0.83142465 -0.078997172 2.3509886e-38
-2.0189497 0.83091432 -0.076478258 2.3509886e-38
-1.9880714 0.83072197 -0.071517713 2.3509886e-38
-1.9693903 0.83067578 -0.068665214 1.8438092e-38
-2.0419977 0.829763 -0.077441491 2.3509886e-38
-2.0267918 0.82833922 -0.072187282 2.3509886e-38
-2.0201318 0.82771319 -0.069880918 2.3509886e-38
-1.9695139 0.82657194 -0.06000226 1.2637666e-38
-2.0479934 0.82671618 -0.071880408 2.3509886e-38
-2.0270715 0.82504451 -0.065258928 2.3509886e-38
-2.0165038 0.82446265 -0.062469594 2.3509886e-38
-1.9893055 0.82441711 -0.058362432 2.3509886e-38
-1.97914 0.82353884 -0.055005424 8.3098989e-39
-2.0719876 0.82345939 -0.068529323 2.3509886e-38
-2.0522912 0.82350498 -0.065721266 2.3509886e-38
-2.0471733 0.82286447 -0.063611627 2.3509886e-38
-2.0186291 0.82214403 -0.057878233 2.3509886e-38
-2.0068922 0.82220829 -0.056283228 2.3509886e-38
-1.9922429 0.82192171 -0.053516831 1.1440592e-38
-1.9739152 0.82064295 -0.048109036 5.9945741e-39
-2.077318 0.82000691 -0.062011894 2.3509886e-38
-2.0530837 0.82006639 -0.058564119 2.3509886e-38
-2.0325985 0.82033998 -0.056121815 2.3509886e-38
-2.0227351 0.81979144 -0.053506993 2.3509886e-38
-1.9956914 0.81965476 -0.049229857 2.3234379e-38
-1.9867669 0.81901276 -0.046555642 1.8719335e-38
-2.0794775 0.8167609 -0.055463828 2.3234379e-38
-2.0541995 0.81682903 -0.051880166 2.3326215e-38
-2.0388789 0.81697267 -0.049924914 2.341805e-38
-2.0207996 0.81710166 -0.047531534 2.341805e-38
-2.0055611 0.81724012 -0.045577306 2.3142185e-38
-1.9876188 0.81600761 -0.040324267 1.3459249e-38
-1.9815686 0.81643283 -0.040331557 5.623258e-39
-2.0795708 0.81349605 -0.04857108 2.3050349e-38
-2.0552957 0.81359094 -0.045192122 2.3234379e-38
-2.039969 0.81375581 -0.043280575 2.3142544e-38
-2.0214598 0.81285042 -0.038635932 2.3234379e-38
-2.0062189 0.81301683 -0.036740433 2.2865243e-38
-1.9884391 0.81300139 -0.034085661 1.1341926e-38
-1.9826375 0.81328875 -0.033838008 5.4370745e-39
-2.0657446 0.81039733 -0.039977103 2.2865961e-38
-2.0462234 0.81055433 -0.03743051 2.2865961e-38
-2.0365062 0.81075585 -0.036423903 2.157847e-38
-2.026613 0.80984265 -0.033033121 2.2681214e-38
-2.0075719 0.81000465 -0.030567911 1.3930553e-38
-2.08093 0.80822664 -0.037624627 2.0566127e-38
-2.069355 0.80791122 -0.035250455 2.2130201e-38
-2.0487385 0.80732286 -0.030965587 2.2865961e-38
-2.0300515 0.80753112 -0.028650314 2.2681214e-38
-2.0149891 0.80665928 -0.024584902 2.2219521e-38
-2.0720439 0.805664 -0.03089308 2.2129483e-38
-2.0702276 0.80479723 -0.028791755 2.2129483e-38
-2.0502713 0.8050527 -0.026389156 2.2405707e-38
-2.0268834 0.80359012 -0.019846387 2.2036213e-38
-2.0160954 0.80346751 -0.017996054 2.2312078e-38
-2.0688267 0.80199564 -0.022658657 2.2589737e-38
-2.0503635 0.80224884 -0.020471497 2.2865961e-38
-2.0308232 0.80224764 -0.017587509 2.1483765e-38
-2.0070822 0.80166072 -0.012844856 1.8811209e-38
-2.0856276 0.79846776 -0.01767341 2.222096e-38
-2.0626099 0.79874778 -0.014871406 2.258902e-38
-2.0441668 0.7990256 -0.012739215 2.2865961e-38
-2.024044 0.79929692 -0.010345769 2.2220243e-38
-2.0181208 0.79955047 -0.010008681 2.1204671e-38
-2.0028028 0.79980588 -0.0082901092 2.3045656e-39
-2.0793805 0.79520959 -0.0098597109 2.222096e-38
-2.0609007 0.79551572 -0.0077820518 2.2405349e-38
-2.0452144 0.79580176 -0.0060739988 2.2865961e-38
-2.0298977 0.79608464 -0.0044137491 2.2128766e-38
-2.0097349 0.7963804 -0.0020660933 1.7427899e-38
-2.0983181 0.7927742 -0.0075005917 2.1117499e-38
-2.0847278 0.79192525 -0.0037005506 2.2497543e-38
-2.066772 0.79254466 -0.0023629987 2.1577394e-38
-2.0516894 0.79235184 0.00026914239 2.2497543e-38
-2.0266237 0.79288954 0.0028279889 2.1578112e-38
-2.0204968 0.79291731 0.0036728524 2.1853977e-38
-2.0944636 0.79062814 -0.0023922974 1.4669637e-38
-2.0950387 0.79041225 -0.0020205206 2.1392647e-38
-2.0732982 0.78923625 0.0036732999 2.1300811e-38
-2.0494814 0.78934133 0.0069630845 2.2313154e-38
-2.029213 0.78970206 0.0091890385 2.121077e-38
-2.0105956 0.78980511 0.01171655 2.2405707e-38
-2.1177995 0.78769988 0.00036076509 5.645285e-39
-2.1104119 0.78753322 0.001802785 1.4483779e-38
-2.0925231 0.78767705 0.0041365451 2.2128407e-38
-2.0798724 0.78764224 0.0060757184 2.1392288e-38
-2.0477843 0.7881403 0.0097540664 2.1392288e-38
-2.0278568 0.78633499 0.016511763 2.203693e-38
-2.006418 0.78686816 0.018545382 9.5044344e-39
-2.1230934 0.78486085 0.0055858968 6.471087e-39
-2.1193254 0.78394592 0.0080769053 1.7246761e-38
-2.10197 0.78423989 0.010014419 2.0009375e-38
-2.0774343 0.78475761 0.012537437 2.2681572e-38
-2.061276 0.78513914 0.014113176 2.2128766e-38
-2.0357113 0.78354883 0.021247216 2.0932035e-38
-2.1180079 0.78155994 0.013318439 1.1806139e-38
-2.0893435 0.78116316 0.018384952 2.2128047e-38
-2.0784357 0.78149414 0.019293414 2.240499e-38
-2.0495017 0.78173172 0.023057524 1.7617347e-38
-2.0554695 0.78194243 0.021731883 2.1760706e-38
-2.0067487 0.78239471 0.027959814 1.3194792e-38
-2.1531689 0.77863204 0.014327099 3.4232096e-39
-2.1239738 0.77988946 0.015972536 1.650811e-38
-2.0955536 0.77781987 0.024541562 2.2035851e-38
-2.0804138 0.77867597 0.024963206 1.7984689e-38
-2.0731773 0.77826285 0.026904192 2.1944736e-38
-2.0547805 0.77870721 0.028677246 2.2405707e-38
-2.1420777 0.77566504 0.022239037 7.2093639e-39
-2.1193781 0.77449077 0.02807064 1.7798462e-38
-2.1119981 0.7761997 0.025543844 2.0930594e-38
-2.0903082 0.77457237 0.032184865 2.2128766e-38
-2.0741768 0.77500528 0.033647977 2.2129125e-38
-2.0584273 0.77543122 0.035069514 2.3509886e-38
-2.0172091 0.77642488 0.039045796 8.3938311e-39
-2.1462111 0.77300811 0.027250187 1.7895721e-38
-2.1287839 0.77255589 0.030776575 1.1635788e-38
-2.1046827 0.77313036 0.033115622 1.9092448e-38
-2.0923357 0.77154958 0.038280334 2.056541e-38
-2.0722888 0.77179766 0.040711764 2.3142185e-38
-2.0594001 0.77219427 0.041773405 2.3509886e-38
-2.0233853 0.77316475 0.045031503 7.5594083e-39
-2.1360962 0.76982629 0.035472512 2.2499695e-38
-2.1344652 0.7695272 0.036345765 2.3509886e-38
-2.1077781 0.77014995 0.038963862 2.3509886e-38
-2.0855246 0.77055293 0.041393153 2.3509886e-38
-2.0642543 0.77013087 0.045422666 2.3509886e-38
-2.0596247 0.76898527 0.048528723 2.3509886e-38
-2.0448675 0.76941782 0.049789906 2.3509886e-38
-2.1306002 0.7662617 0.043823626 2.3509886e-38
-2.1087422 0.76685119 0.045799945 2.3509886e-38
-2.0902872 0.76738542 0.04739131 2.3509886e-38
-2.073751 0.76789153 0.048759215 2.3509886e-38
-2.0538909 0.76725674 0.053030834 2.3509886e-38
-2.0608726 0.7662667 0.054095652 2.3509886e-38
-2.0294087 0.76707858 0.057017993 1.6873621e-38
-2.1531177 0.76232404 0.048832767 2.3509886e-38
-2.1259327 0.76303965 0.051327787 2.3509886e-38
-2.1096869 0.76355141 0.052641004 2.3509886e-38
-2.0940657 0.76404899 0.053892083 2.3509886e-38
-2.0747204 0.76463962 0.055495378 2.3509886e-38
-2.054065 0.7647655 0.058275133 2.3509886e-38
-2.0387299 0.76450658 0.0610843 2.1847878e-38
-2.1579125 0.75940299 0.054304861 2.3509886e-38
-2.1373954 0.75950772 0.057109021 2.3509886e-38
-2.1155138 0.76016229 0.058951061 2.3509886e-38
-2.0995271 0.76068896 0.060194489 2.3509886e-38
-2.0756705 0.76138657 0.062236793 2.3509886e-38
-2.0486009 0.76169747 0.065571062 2.3509886e-38
-2.0529463 0.76204097 0.06420356 2.3509886e-38
-2.0214722 0.7622745 0.068350986 6.5377426e-39
-2.151288 0.75787991 0.058503699 2.3509886e-38
-2.1431947 0.75811756 0.059194524 2.3509886e-38
-2.1185048 0.75696212 0.065279752 2.3509886e-38
-2.1038237 0.75713795 0.067072757 2.3509886e-38
-2.0876241 0.75769204 0.068289392 2.3509886e-38
-2.0671403 0.75832397 0.069973379 2.3509886e-38
-2.0516505 0.75920564 0.070392646 2.3509886e-38
-2.0298626 0.7594862 0.073012069 1.650019e-38
-2.1425555 0.75521463 0.065429695 2.3509886e-38
-2.1276655 0.75552112 0.066977039 2.3509886e-38
-2.1102762 0.75519305 0.070235416 2.3509886e-38
-2.0867484 0.75444263 0.075292364 2.3509886e-38
-2.0671773 0.75553936 0.075858526 2.3509886e-38
-2.0640149 0.75490367 0.077669553 2.3509886e-38
-2.1456809 0.75183856 0.072110519 2.3509886e-38
-2.124404 0.75253546 0.073774025 2.3509886e-38
-2.1083732 0.75311399 0.074914172 2.3509886e-38
-2.098773 0.75238907 0.077863403 2.3509886e-38
-2.0722291 0.75283611 0.080832027 2.3509886e-38
-2.065799 0.75186026 0.083844677 2.3509886e-38
-2.1532607 0.74830496 0.078467757 2.3509886e-38
-2.1294377 0.7490688 0.08036501 2.3509886e-38
-2.1177418 0.74932235 0.0815534 2.3509886e-38
-2.1031632 0.74992996 0.08241792 2.3509886e-38
-2.0871773 0.75052774 0.083510786 2.3509886e-38
-2.1510983 0.74609256 0.083466701 2.3509886e-38
-2.1492026 0.745049 0.085953772 2.3509886e-38
-2.1230748 0.74592751 0.087948449 2.3509886e-38
-2.1015682 0.74670321 0.089479022 2.3509886e-38
-2.0834451 0.74737221 0.090736434 2.3509886e-38
-2.0654395 0.7475307 0.093056418 2.2683007e-38
-2.0378842 0.74795091 0.096231006 2.3056278e-39
-2.1673818 0.74273413 0.088169873 2.3509886e-38
-2.1557794 0.74152577 0.092437044 2.3509886e-38
-2.1239655 0.74261057 0.094833769 2.3509886e-38
-2.0997446 0.74350286 0.096518084 2.3509886e-38
-2.0766053 0.74434352 0.098151922 2.3509886e-38
-2.0604367 0.74498725 0.099174559 2.3141826e-38
-2.0494211 0.74424386 0.10237148 1.733139e-38
-2.1814082 0.74011278 0.091646686 2.3509886e-38
-2.1799228 0.73974448 0.092644796 2.3509886e-38
-2.1557703 0.73994303 0.095786624 2.3509886e-38
-2.1300802 0.73912871 0.10129762 2.3509886e-38
-2.1058619 0.74005568 0.1029081 2.3509886e-38
-2.0774705 0.7410928 0.10490096 2.3509886e-38
-2.0656037 0.74197298 0.10478897 2.0008992e-38
-2.1773667 0.73671776 0.099424459 2.3326215e-38
-2.1602247 0.73743027 0.10044517 2.3326215e-38
-2.1309302 0.73580062 0.10821246 2.3142544e-38
-2.1144774 0.73652065 0.10911566 2.3049991e-38
-2.0783162 0.73784083 0.11165543 2.3049991e-38
-2.0464272 0.73921973 0.11344112 1.2267824e-38
-1.9830592 0.85732812 -0.1270615 1.9366515e-38
-1.9639459 0.85727113 -0.12412229 8.3066044e-39
-1.9865738 0.85370392 -0.11991302 2.3509886e-38
-1.9783711 0.8539266 -0.11917444 2.2127327e-38
-1.9653473 0.8539089 -0.11721646 2.0192687e-38
-1.9503224 0.85379446 -0.1147588 1.308178e-38
-1.9786119 0.85068077 -0.1123438 2.3509886e-38
-1.9504757 0.84602386 -0.09834335 2.6772788e-39
-2.1329114 0.78818446 -0.0028927382 3.8067996e-39
-2.1742847 0.7334798 0.10672867 2.3509886e-38
-2.1605043 0.73407823 0.10749491 2.3509886e-38
-2.1958563 0.72880334 0.11344007 2.3509886e-38
-2.1781998 0.72970569 0.11413498 2.3509886e-38
-2.1605899 0.73060232 0.11483518 2.3509886e-38
-2.1369998 0.73168194 0.1160301 2.3509886e-38
-2.1137879 0.73276377 0.11716466 2.3509886e-38
-2.0789795 0.73385799 0.119983 2.3233662e-38
-2.1606665 0.72712702 0.12217563 2.3509886e-38
-2.1420903 0.7277503 0.12359653 2.3509886e-38
-2.1269882 0.72890329 0.12338454 2.3509886e-38
-2.0908644 0.73043495 0.12547149 2.1118217e-38
-2.0624523 0.73043901 0.12965272 6.0877982e-39
-2.1941111 0.7218864 0.12832963 2.3509886e-38
-2.1529448 0.72399932 0.12993053 2.3509886e-38
-2.1436367 0.72457486 0.1300858 2.3509886e-38
-2.1205425 0.72569788 0.13111578 2.3509886e-38
-2.1040175 0.72658962 0.13166624 2.0748722e-38
-2.194212 0.71836281 0.13576867 2.3509886e-38
-2.1765659 0.71933776 0.13630837 2.3509886e-38
-2.1387923 0.72106373 0.13822761 2.3509886e-38
-2.1288087 0.72172582 0.1382993 2.3509886e-38
-2.1122606 0.72264409 0.13879715 2.0195557e-38
-2.0826647 0.72404939 0.14018866 2.3509886e-38
-2.2013884 0.71454692 0.14278246 2.3509886e-38
-2.1766572 0.71583849 0.14369719 2.3509886e-38
-2.1454308 0.717372 0.14505823 2.3509886e-38
-2.1222839 0.71856785 0.14594193 2.3509886e-38
-2.0992024 0.71975416 0.14683612 2.0011168e-38
-2.0892525 0.72044241 0.14684747 2.3509886e-38
-2.212079 0.71028805 0.15021525 2.3509886e-38
-2.1943758 0.71129823 0.15068887 2.3509886e-38
-2.1696739 0.71262264 0.15152992 2.3509886e-38
-2.1520858 0.71363759 0.15197651 2.3509886e-38
-2.1132171 0.71511281 0.15458785 2.3509886e-38
-2.1058092 0.7161119 0.15356679 1.9641313e-38
-2.2192128 0.70642644 0.15733197 2.3509886e-38
-2.1944127 0.70777738 0.15813145 2.3509886e-38
-2.1697283 0.70913666 0.15889619 2.3509886e-38
-2.1361923 0.71052718 0.16090007 2.3509886e-38
-2.1072266 0.7121129 0.16181719 2.3509886e-38
-2.0913913 0.71315753 0.16194251 2.1207541e-38
-2.2263842 0.70255762 0.16445865 2.3509886e-38
-2.1945224 0.70427251 0.16552949 2.3509886e-38
-2.1627541 0.70597583 0.16661122 2.3509886e-38
-2.1377583 0.70713729 0.16784023 2.3509886e-38
-2.1224468 0.70831406 0.16760874 2.3509886e-38
-2.1059086 0.70932126 0.16791694 2.028811e-38
-2.0763218 0.71090233 0.1689354 2.1022076e-38
-2.219414 0.6993255 0.17232372 2.3509886e-38
-2.1945767 0.70075095 0.17297103 2.3509886e-38
-2.1628082 0.70250148 0.17395285 2.3509886e-38
-2.1392233 0.70362246 0.17505947 2.3509886e-38
-2.1291049 0.70460242 0.17447853 2.3509886e-38
-2.1190598 0.70532298 0.1744356 1.9094607e-38
-2.2194769 0.69576782 0.17984046 2.3509886e-38
-2.1876259 0.69757652 0.18071125 2.3509886e-38
-2.1563339 0.69935054 0.18157311 2.3509886e-38
-2.1274922 0.70076126 0.18284206 2.3509886e-38
-2.1240509 0.70096618 0.18291599 2.3509886e-38
-2.1124599 0.7022115 0.18199097 2.2315307e-38
-2.1284792 0.69706351 0.19051872 2.3509886e-38
-2.1323893 0.69706374 0.18994159 2.3509886e-38
-2.1289477 0.69726872 0.19001552 2.3509886e-38
-2.121371 0.69780988 0.18998803 2.3509886e-38
-2.1059902 0.69913894 0.18944472 2.3509886e-38
-2.1380682 0.69367015 0.196283 2.3509886e-38
-2.121896 0.69477993 0.19632025 2.3509886e-38
-2.1230192 0.69447565 0.19679831 2.3509886e-38
-2.1059992 0.69574577 0.19662133 2.3141109e-38
-2.1485465 0.68935716 0.20386158 2.3509886e-38
-2.1286368 0.69031781 0.20476544 2.3509886e-38
-2.1225369 0.69123399 0.20372689 2.3509886e-38
-2.1500115 0.68584234 0.21108083 2.3509886e-38
-2.1465483 0.68604857 0.21115519 2.3509886e-38
-2.143085 0.6862548 0.21122959 2.3509886e-38
-2.1480134 0.6825338 0.21837434 2.3509886e-38
-2.0948939 0.67541224 0.2412727 1.5768799e-38
-1.9896141 0.86031592 -0.1343486 2.3142544e-38
-1.9621867 0.85407972 -0.11711177 1.0325262e-38
-2.0368946 0.8490271 -0.11744038 2.3509886e-38
-2.0222514 0.84932417 -0.11590941 2.3509886e-38
-1.9578376 0.85161412 -0.11125463 1.0875885e-38
-1.9403299 0.8524515 -0.11044426 1.0413691e-38
-2.0085883 0.84588742 -0.10662454 2.3509886e-38
-1.9940097 0.846192 -0.10511881 2.3509886e-38
-1.9908681 0.84678459 -0.10590922 2.3509886e-38
-1.9858389 0.8344385 -0.079050526 2.3509886e-38
-2.0158207 0.78415471 0.022898706 1.8352806e-41
-2.145081 0.72830915 0.12197322 2.3509886e-38
-2.1534185 0.70689726 0.16603859 2.3509886e-38
-2.1520383 0.70350945 0.17340876 2.3509886e-38
-2.1375365 0.70073026 0.18142642 2.3509886e-38
-2.1341102 0.70137668 0.18056428 2.3509886e-38
-2.1984637 0.69338131 0.18798769 2.3509886e-38
-2.1492784 0.69673365 0.1881493 2.3509886e-38
-2.1279368 0.67716438 0.23269349 2.3509886e-38
-2.1551733 0.72788602 0.12138011 2.3509886e-38
-2.1407161 0.72913849 0.12086256 2.3509886e-38
-2.1934721 0.72244394 0.12724444 2.3509886e-38
-2.1671603 0.72410071 0.12761995 2.3509886e-38
-2.1516204 0.72541058 0.12714052 2.3509886e-38
-2.1489508 0.72632349 0.12560311 2.3509886e-38
-2.1345286 0.72758478 0.12506171 2.3509886e-38
-2.0977283 0.72949129 0.12645547 2.3509886e-38
-2.0043747 0.73772323 0.12280817 8.666392e-39
-2.2027221 0.71950734 0.13209246 2.3509886e-38
-2.1753631 0.72123206 0.13247867 2.3509886e-38
-2.148067 0.7229352 0.13290106 2.3509886e-38
-2.1336496 0.72421563 0.13231842 2.3509886e-38
-2.0942533 0.72707057 0.13208869 2.3509886e-38
-2.0035427 0.73453337 0.1296788 6.5473415e-39
-2.0010295 0.73539275 0.12823145 8.3912499e-39
-1.9960032 0.73711157 0.12533671 6.7331677e-39
-2.199085 0.71697342 0.13798903 2.3509886e-38
-2.1717677 0.71872735 0.13830721 2.3509886e-38
-2.1445136 0.72045976 0.13866155 2.3509886e-38
-2.1301167 0.72175431 0.13804622 2.3509886e-38
-2.0907786 0.72464985 0.13772206 2.3509886e-38
-2.0001974 0.73220289 0.13510197 8.2969004e-39
-1.9976844 0.73306227 0.13365459 8.2990542e-39
-1.9951712 0.73392171 0.13220721 8.1143042e-39
-2.2227859 0.7126348 0.14367191 2.3509886e-38
-2.1954479 0.71443957 0.14388563 2.3509886e-38
-2.1681728 0.7162227 0.14413565 2.3509886e-38
-2.1409607 0.71798432 0.14442199 2.3509886e-38
-2.1265836 0.71929282 0.14377423 2.3509886e-38
-2.1132994 0.72055542 0.14306217 2.3509886e-38
-2.0873039 0.72222906 0.14335527 2.3509886e-38
-2.009913 0.72868615 0.14110851 4.1567543e-39
-2.007386 0.7295503 0.1396533 8.9422698e-39
-2.004859 0.73041439 0.13819796 7.9317136e-39
-2.0023322 0.73127848 0.13674273 8.3890961e-39
-2.2347031 0.70865148 0.15034087 2.3509886e-38
-2.2191069 0.71007168 0.14963642 2.3509886e-38
-2.1918108 0.71190566 0.14978221 2.3509886e-38
-2.1645775 0.71371806 0.14996426 2.3509886e-38
-2.1374073 0.71550894 0.15018247 2.3509886e-38
-2.1230502 0.71683139 0.1495022 2.3509886e-38
-2.0981119 0.71851116 0.14962631 2.3509886e-38
-2.0196187 0.72513473 0.14719009 1.882484e-38
-2.0170782 0.72600347 0.14572695 6.2725496e-39
-2.0145376 0.72687221 0.14426376 8.4834469e-39
-2.0014956 0.72807115 0.14365086 7.7480427e-39
-1.9989687 0.72893524 0.14219557 7.100511e-39
-2.2310023 0.70607311 0.15634087 2.3509886e-38
-2.2154276 0.70750856 0.15560116 2.3509886e-38
-2.1881733 0.70937181 0.15567876 2.3509886e-38
-2.1609821 0.71121341 0.15579276 2.3509886e-38
-2.1465988 0.71256578 0.15505299 2.3509886e-38
-2.1195171 0.71437001 0.15523008 2.3509886e-38
-2.1062696 0.71565807 0.1544589 2.3509886e-38
-2.0424223 0.7203086 0.15403654 1.7720662e-38
-2.0162373 0.72277874 0.15267248 1.144675e-38
-2.0136967 0.72364753 0.15120934 8.1143042e-39
-2.0111561 0.72451633 0.14974618 8.6660389e-39
-1.9981321 0.72572798 0.14910355 8.2064999e-39
-2.0060749 0.72625387 0.14681982 6.6402504e-39
-2.2428868 0.7020328 0.16313528 2.3509886e-38
-2.2400897 0.70298922 0.16152449 2.3509886e-38
-2.2117484 0.70494539 0.16156581 2.3509886e-38
-2.1845362 0.70683789 0.16157536 2.3509886e-38
-2.157387 0.70870876 0.16162123 2.3509886e-38
-2.1430235 0.71007514 0.16084899 2.3509886e-38
-2.1276314 0.71147096 0.16016608 2.3509886e-38
-2.1027548 0.71320933 0.16015716 2.3509886e-38
-2.0284703 0.71830624 0.16032964 1.8355977e-38
-2.0128558 0.72042286 0.15815477 4.8017762e-39
-2.0103152 0.72129166 0.15669161 9.0348214e-39
-2.0077746 0.72216046 0.15522851 8.2990542e-39
-2.2419608 0.69848269 0.17078166 2.3509886e-38
-2.2391639 0.69943917 0.16917086 2.3509886e-38
-2.236367 0.70039558 0.16756007 2.3509886e-38
-2.2208195 0.70186716 0.16673988 2.3509886e-38
-2.1808991 0.70430398 0.16747195 2.3509886e-38
-2.1537919 0.70620412 0.1674498 2.3509886e-38
-2.1394484 0.7075845 0.16664498 2.3509886e-38
-2.1124508 0.70944709 0.16668597 2.3509886e-38
-2.0094738 0.71806699 0.16363718 5.901263e-39
-2.0069332 0.71893579 0.16217402 8.9422698e-39
-2.0043926 0.71980453 0.16071084 8.2065027e-39
-2.0018523 0.72067332 0.15924771 7.1023103e-39
-1.9993118 0.72154212 0.15778449 1.2071934e-39
-2.2226796 0.6973871 0.1759427 2.3509886e-38
-2.2198989 0.69833797 0.17434134 2.3509886e-38
-2.20439 0.69981909 0.1734951 2.3509886e-38
-2.1899738 0.70124531 0.17260395 2.3509886e-38
-2.161834 0.70322365 0.17256878 2.3509886e-38
-2.1358733 0.70509386 0.17244096 2.3509886e-38
-2.1089175 0.70698565 0.17241399 2.3509886e-38
-2.0191164 0.71444255 0.16988243 1.5680189e-38
-2.016562 0.715316 0.16841136 7.4689376e-39
-2.0140078 0.71618944 0.16694032 8.942267e-39
-2.0114536 0.71706295 0.16546921 8.3908939e-39
-2.0088992 0.7179364 0.16399823 5.9963313e-39
-2.2189784 0.69480872 0.18194278 2.3509886e-38
-2.216198 0.69575959 0.18034142 2.3509886e-38
-2.200711 0.69725597 0.17945971 2.3509886e-38
-2.1863146 0.6986962 0.1785361 2.3509886e-38
-2.1582186 0.70070505 0.17842986 2.3509886e-38
-2.1196411 0.70313191 0.17898484 2.3509886e-38
-2.1053843 0.70452434 0.17814179 2.3509886e-38
-2.0418103 0.70948327 0.1770267 1.725431e-38
-2.0157163 0.71207392 0.1753944 5.5411685e-39
-2.0131619 0.71294737 0.17392339 8.6660389e-39
-2.0210457 0.71341777 0.17176574 8.6660417e-39
-2.2025599 0.69280249 0.18860801 2.3509886e-38
-2.1881533 0.69426697 0.18763456 2.3509886e-38
-2.1854043 0.695207 0.18605137 2.3509886e-38
-2.1699874 0.69670236 0.18516168 2.3509886e-38
-2.1546032 0.6981864 0.18429095 2.3509886e-38
-2.1160877 0.70065653 0.18474531 2.3509886e-38
-2.0176275 0.71103638 0.17730741 8.3912499e-39
-2.0150595 0.71191454 0.17582844 7.8369817e-39
-2.1844945 0.69171786 0.19356653 2.3509886e-38
-2.1817455 0.69265789 0.19198336 2.3509886e-38
-2.1663504 0.69416845 0.19105823 2.3509886e-38
-2.1125348 0.69818109 0.19050588 2.3509886e-38
-2.029774 0.70646083 0.18519528 7.1905529e-39
-2.0271924 0.7073437 0.18370843 9.1266611e-39
-2.0246108 0.7082265 0.18222158 8.2986983e-39
-2.1358159 0.69368088 0.19659244 2.3509886e-38
-2.0421143 0.70159239 0.19367419 8.6660389e-39
-2.0465589 0.68532288 0.22743544 1.3188071e-38
-2.0439334 0.68622071 0.22592334 7.8380803e-39
-2.0559022 0.68107939 0.23503436 8.3004976e-39
-2.0594532 0.67252576 0.25260502 2.3509886e-38
-2.0456419 0.67067832 0.25854999 1.5856247e-38
-2.1837358 0.87661916 -0.1974631 1.6320071e-38
-2.1713057 0.87610215 -0.19453646 1.5862706e-38
-2.1965063 0.87408751 -0.19399077 1.9917539e-38
-2.1796753 0.8738457 -0.19099736 2.0469614e-38
-2.1697102 0.87385148 -0.18953992 1.6507366e-38
-2.1368062 0.87123311 -0.17914879 2.2588301e-38
-2.1772599 0.87060851 -0.18379314 2.3050349e-38
-2.163841 0.87049013 -0.18156384 2.2681214e-38
-2.1564839 0.87058824 -0.18068635 2.2312793e-38
-2.1383827 0.86748952 -0.17146207 2.2128397e-38
-2.1734364 0.86732507 -0.17628355 2.2867037e-38
-2.157115 0.866822 -0.17281245 2.2958155e-38
-2.1536059 0.86649811 -0.17160983 2.1026022e-38
-2.1751282 0.86309934 -0.16759378 2.3142544e-38
-2.1612849 0.86364174 -0.16669969 2.3142544e-38
-2.1350565 0.86255378 -0.16053049 2.2867037e-38
-2.0223932 0.85795301 -0.13418381 2.1207171e-38
-2.1909206 0.86025035 -0.16389583 2.3509886e-38
-2.1758416 0.8603822 -0.1619512 2.3050708e-38
-2.163852 0.86018413 -0.15976411 2.3326215e-38
-2.2018347 0.85734868 -0.15936717 2.3509886e-38
-2.178431 0.85690814 -0.15498392 2.2958873e-38
-2.1536746 0.8562386 -0.14991681 2.2958873e-38
-2.1594863 0.85650402 -0.15133531 2.3234379e-38
-2.0336821 0.85309255 -0.12556683 2.1391929e-38
-2.1928015 0.85476315 -0.15256561 2.3509886e-38
-2.183166 0.85379237 -0.14909106 2.2775202e-38
-2.1710515 0.85305893 -0.14575315 2.3142544e-38
-2.0372572 0.85060197 -0.12082541 2.3509886e-38
-2.2117817 0.85222781 -0.15000123 2.3509886e-38
-2.1798568 0.85001552 -0.14061356 2.2867037e-38
-2.1723382 0.84963524 -0.13870034 2.3326215e-38
-2.2147791 0.84862113 -0.14281374 2.3509886e-38
-2.1978328 0.8481406 -0.13929814 2.2499695e-38
-2.1789465 0.84610891 -0.13221529 2.3234379e-38
-2.1954105 0.84523261 -0.13278934 2.3142544e-38
-2.0601332 0.84081578 -0.10349706 2.3509886e-38
-2.1956806 0.84164983 -0.12525021 2.2958873e-38
-2.1851773 0.84081948 -0.12194473 2.3234379e-38
-2.0578177 0.83750129 -0.096144035 2.3509886e-38
-2.1930666 0.83809441 -0.1173436 2.2958514e-38
-2.0742595 0.83564222 -0.094636045 2.3509886e-38
-2.0776668 0.83340645 -0.090408891 2.3509886e-38
-2.0748413 0.83005965 -0.082912378 2.3509886e-38
-2.0791936 0.82681274 -0.076685689 2.3509886e-38
-2.2225857 0.8253442 -0.094724759 2.3050708e-38
-2.0994768 0.82345527 -0.072574437 2.341805e-38
-2.1180282 0.82005572 -0.068118595 2.2958514e-38
-2.1005905 0.82014811 -0.06574256 2.3050708e-38
-2.2305505 0.81995273 -0.084494062 2.3142185e-38
-2.1082745 0.81670278 -0.059587449 2.2865961e-38
-2.1135898 0.81341803 -0.05342279 2.268229e-38
-2.1310942 0.81245315 -0.053962957 2.2774125e-38
-2.120959 0.81168926 -0.050852366 2.0289904e-38
-2.0906177 0.81091565 -0.044741664 2.2314231e-38
-2.137836 0.80912513 -0.047917034 2.2589737e-38
-2.1171017 0.80929846 -0.045226112 2.2589737e-38
-2.0858746 0.80892497 -0.039831035 2.2221678e-38
-2.1437197 0.80580354 -0.041758161 2.0104439e-38
-2.1396937 0.80574155 -0.041033309 2.2497184e-38
-2.0925033 0.80620968 -0.0350646 2.2497543e-38
-2.1558378 0.8025105 -0.036578998 2.1761065e-38
-2.1306596 0.80237585 -0.032581292 2.2313154e-38
-2.110826 0.80263215 -0.030198768 2.240499e-38
-2.0922763 0.80288142 -0.027990442 2.0840917e-38
-2.1567311 0.79928398 -0.029885475 2.0932393e-38
-2.1252513 0.79955703 -0.025820833 2.0471781e-38
-2.1024466 0.79932463 -0.021966217 2.1760706e-38
-2.1265569 0.79573113 -0.0179199 1.8078677e-38
-2.1045427 0.79604626 -0.015340273 2.1761424e-38
-2.1186359 0.79329544 -0.011599336 1.9089944e-38
-2.1249046 0.79052627 -0.0066659986 1.2279022e-38
-2.14381 0.77902228 0.014881752 7.995809e-42
-2.1691892 0.77346027 0.022905042 1.4670349e-38
-2.1567836 0.76949704 0.03311839 2.1393723e-38
-2.217422 0.76547617 0.032681938 2.3142544e-38
-2.1940649 0.76671624 0.033503205 2.194653e-38
-2.1675606 0.76670593 0.037433434 2.3509886e-38
-2.2444642 0.76197487 0.036100838 2.2590454e-38
-2.2168226 0.76276851 0.038498137 2.2590813e-38
-2.1948166 0.7634415 0.040319622 2.2407142e-38
-2.2514789 0.7596578 0.039967865 1.9276843e-38
-2.2399547 0.75874645 0.04359531 2.2037648e-38
-2.2271869 0.7598052 0.043238368 2.2958155e-38
-2.2035999 0.76047969 0.045289751 2.3234379e-38
-2.2588212 0.75695419 0.044604383 2.2037648e-38
-2.2439201 0.75648075 0.047803372 2.2129483e-38
-2.2356465 0.75665665 0.04865139 2.2406066e-38
-2.2624288 0.75364602 0.051070508 2.1393364e-38
-2.2594416 0.75359929 0.051609907 2.1945095e-38
-2.2511873 0.75286973 0.054370534 2.2129125e-38
-2.2363865 0.75378823 0.054610055 2.2957796e-38
-2.1754172 0.75429118 0.062537067 2.3509886e-38
-2.2663925 0.75052917 0.057079434 2.1393364e-38
-2.2633698 0.75030708 0.057994835 1.9183573e-38
-2.2552507 0.74968356 0.060511246 2.2589378e-38
-2.2373598 0.75031555 0.061812602 2.2681931e-38
-2.2131991 0.74980313 0.066459507 2.3234379e-38
-2.176394 0.75089824 0.069570579 2.3509886e-38
-2.2567437 0.74778783 0.064301215 2.1116064e-38
-2.2673335 0.74719024 0.064003862 1.9551632e-38
-2.2656777 0.74561656 0.067576967 2.2129842e-38
-2.2413516 0.74676627 0.068732157 2.2681931e-38
-2.2108903 0.74703681 0.072651826 2.2958873e-38
-2.1801093 0.74742597 0.076367937 2.3509886e-38
-2.2606831 0.74469 0.070273556 2.0932035e-38
-2.2859628 0.74364686 0.068752378 1.955235e-38
-2.2682745 0.74385124 0.070928372 1.955235e-38
-2.2466509 0.74407536 0.073643036 2.2129483e-38
-2.2203016 0.74499929 0.075574197 2.2682649e-38
-2.1810291 0.74402714 0.083422102 2.3509886e-38
-2.2839019 0.74113142 0.074377425 2.1024946e-38
-2.2668643 0.74178159 0.07551457 2.2497184e-38
-2.2420049 0.74134785 0.080098018 1.9552708e-38
-2.2159793 0.74223578 0.082057513 2.286632e-38
-2.1963713 0.74213833 0.085155375 2.3509886e-38
-2.2864885 0.73749971 0.08167845 2.2681572e-38
-2.262006 0.73842049 0.083341032 2.2497184e-38
-2.2495162 0.73899192 0.083974078 2.2589378e-38
-2.2112412 0.73895597 0.089694366 2.2865602e-38
-2.284421 0.73406082 0.089258075 2.2681214e-38
-2.2664931 0.73495507 0.090010121 1.8815513e-38
-2.2514775 0.73465323 0.092862912 2.1944736e-38
-2.2286396 0.73452097 0.096510582 2.2129483e-38
-2.2029357 0.73574555 0.097710565 2.3142544e-38
-2.2851005 0.73055393 0.096576333 2.2681214e-38
-2.1190455 0.87438285 -0.18319272 8.4978803e-39
-2.2298 0.86848325 -0.18704523 1.5855853e-38
-2.2012515 0.86724555 -0.18021712 2.3509886e-38
-2.175175 0.86695051 -0.17574748 2.3509886e-38
-2.2166474 0.8643102 -0.17627802 2.0192288e-38
-2.2129695 0.86452925 -0.17619902 2.3509886e-38
-2.1754508 0.86342072 -0.16832137 2.3509886e-38
-2.0156245 0.86247575 -0.1427532 2.1669588e-38
-2.2182028 0.86057776 -0.16861174 2.139155e-38
-2.2275374 0.83818293 -0.12261418 2.3509886e-38
-2.2120759 0.83457077 -0.1126928 2.3509886e-38
-2.2306488 0.8307181 -0.10728177 2.3509886e-38
-2.2271814 0.82762814 -0.10023388 2.3509886e-38
-2.1401763 0.79157537 -0.011137189 8.5994814e-39
-2.2148719 0.7692163 0.025146101 2.3509886e-38
-2.2451918 0.76009804 0.039963834 2.3509886e-38
-2.251935 0.75246632 0.055113494 2.3509886e-38
-2.2685525 0.74838477 0.061297115 2.3509886e-38
-2.2542109 0.73514861 0.091411918 2.3509886e-38
-2.3145955 0.72900105 0.095511794 2.3509886e-38
-2.2535863 0.7298274 0.10276062 2.3509886e-38
-2.2353213 0.73073679 0.10353032 2.3509886e-38
-2.19577 0.73232722 0.1059984 2.3509886e-38
-2.2994874 0.72581458 0.10448033 2.3509886e-38
-2.2806387 0.72676599 0.10524729 2.3509886e-38
-2.253654 0.72621936 0.11038303 2.3509886e-38
-2.2353899 0.72715354 0.11110019 2.3509886e-38
-2.3072543 0.72186828 0.11168303 2.3509886e-38
-2.2883928 0.72284603 0.11239623 2.3509886e-38
-2.2763627 0.7218197 0.11634136 2.3509886e-38
-2.2499595 0.72307783 0.11757359 2.3509886e-38
-2.2090645 0.7250725 0.11938462 2.3509886e-38
-2.2081432 0.72491485 0.11985396 2.3509886e-38
-2.3148479 0.7179293 0.11889577 2.3509886e-38
-2.2961559 0.71794719 0.12161437 2.3509886e-38
-2.2621884 0.7193206 0.12371817 2.3509886e-38
-2.2434285 0.7201131 0.12480824 2.3509886e-38
-2.2259698 0.7204079 0.12675916 2.3509886e-38
-2.3242984 0.71361911 0.12661992 2.3509886e-38
-2.3053989 0.71465486 0.12721606 2.3509886e-38
-2.2713826 0.71625978 0.12883718 2.3509886e-38
-2.2526076 0.71728009 0.12944756 2.3509886e-38
-2.2260716 0.71683699 0.13429806 2.3509886e-38
-2.3381035 0.70868731 0.13501693 2.0011512e-38
-2.3324873 0.70958006 0.13395658 2.3509886e-38
-2.2979069 0.71126509 0.13549154 2.3509886e-38
-2.2783453 0.71054816 0.13989276 2.3509886e-38
-2.2519813 0.71192092 0.14087671 2.3509886e-38
-2.2190676 0.71355987 0.14226346 2.3509886e-38
-2.3396916 0.70487702 0.14284305 2.3509886e-38
-2.324451 0.70621359 0.14226304 2.3509886e-38
-2.3055508 0.70730048 0.14275107 2.3509886e-38
-2.2783918 0.70690435 0.14759412 2.3509886e-38
-2.2520461 0.70831436 0.14849648 2.3509886e-38
-2.3412797 0.70106673 0.15066929 2.3509886e-38
-2.3213489 0.70201397 0.15160455 2.3509886e-38
-2.3056118 0.70362407 0.15051913 2.3509886e-38
-2.2784286 0.70326108 0.15529573 2.3509886e-38
-2.2521021 0.70470828 0.1561166 2.3509886e-38
-2.2521484 0.70110273 0.163737 2.3509886e-38
-2.1884649 0.87657666 -0.19807059 1.318578e-38
-2.2175927 0.87355322 -0.1959701 1.9913941e-38
-2.1891446 0.86924386 -0.18265896 2.3509886e-38
-2.1546788 0.8590486 -0.15600917 2.3509886e-38
-2.1836939 0.85586286 -0.15354881 2.3509886e-38
-2.1843734 0.84853005 -0.13813719 2.3509886e-38
-2.222374 0.83183157 -0.10841696 2.3509886e-38
-2.2642877 0.81032175 -0.069095798 2.3509886e-38
-2.1492052 0.79501814 -0.019751564 2.3509886e-38
-2.145822 0.79565632 -0.020602731 2.3509886e-38
-2.1478512 0.79169422 -0.012520396 1.7995092e-38
-2.2273285 0.77354103 0.014160505 5.1907893e-39
-2.3197806 0.72163481 0.11032978 2.3509886e-38
-2.3335636 0.71750176 0.11704017 2.3509886e-38
-2.2624276 0.71855116 0.12531064 2.3509886e-38
-2.246727 0.71991587 0.12473897 2.3509886e-38
-2.2615016 0.71500105 0.13295712 2.3509886e-38
-2.2458067 0.71638668 0.13234037 2.3509886e-38
-2.243026 0.71733755 0.13073902 2.3509886e-38
-2.2577786 0.71240735 0.13899279 2.3509886e-38
-2.2421052 0.71380824 0.13834064 2.3509886e-38
-2.2393248 0.71475911 0.1367393 2.3509886e-38
-2.2568526 0.7088573 0.14663918 2.3509886e-38
-2.2540555 0.70981377 0.14502838 2.3509886e-38
-2.2384043 0.71122986 0.14434069 2.3509886e-38
-2.267067 0.70573688 0.15173388 2.3509886e-38
-2.2503326 0.70722008 0.15106405 2.3509886e-38
-2.2633202 0.70312673 0.15780795 2.3509886e-38
-2.2466097 0.70462638 0.15709969 2.3509886e-38
-2.2595737 0.70051658 0.16388199 2.3509886e-38
-2.0966964 0.87097812 -0.17269446 1.2908522e-38
-2.0745015 0.87041932 -0.16823937 8.9342488e-39
-2.1084805 0.87063026 -0.17369644 1.5215921e-38
-2.1005187 0.86697733 -0.16479486 2.0561442e-38
-2.0888863 0.86838144 -0.16604973 2.0467447e-38
-2.0695395 0.86723101 -0.16076317 8.4077908e-45
-2.1220493 0.8660658 -0.16604161 2.1852901e-38
-2.0904264 0.86330891 -0.15554644 2.22206e-38
-2.0792334 0.86319369 -0.15365207 2.1299007e-38
-2.0632722 0.8632409 -0.15139811 2.0467814e-38
-2.0579197 0.86293691 -0.14996591 1.9269996e-38
-2.0372827 0.86262542 -0.14626361 1.6508102e-38
-2.1291511 0.86285037 -0.16028707 2.3050349e-38
-2.10291 0.86227703 -0.15520449 2.2037289e-38
-2.0872326 0.859833 -0.14772248 2.258902e-38
-2.0709839 0.85967946 -0.14500144 2.22206e-38
-2.0427217 0.85822237 -0.13775149 2.1943654e-38
-2.129246 0.85912979 -0.15243044 2.3326215e-38
-2.13046 0.85948068 -0.15335171 2.3234379e-38
-2.1046588 0.85909456 -0.14873019 2.2958873e-38
-2.0748141 0.85692322 -0.13973579 2.2498978e-38
-2.0635684 0.85614908 -0.13643977 2.2590096e-38
-2.049516 0.85568553 -0.13338698 2.1668871e-38
-2.1278589 0.85602283 -0.14565355 2.3509886e-38
-2.1016304 0.8546508 -0.13888322 2.3509886e-38
-2.0817528 0.85443467 -0.1354946 2.3509886e-38
-2.0542779 0.85351163 -0.12949051 2.3509886e-38
-2.1461294 0.85276586 -0.14145784 2.3142544e-38
-2.1149857 0.8522107 -0.13569081 2.3509886e-38
-2.1077812 0.85201198 -0.1342081 2.3509886e-38
-2.0870423 0.85178334 -0.13066611 2.3509886e-38
-2.1304097 0.8492943 -0.13179608 2.3234379e-38
-2.117492 0.8488251 -0.12889862 2.3509886e-38
-2.098999 0.84866852 -0.12584019 2.3509886e-38
-2.0616772 0.84783208 -0.11856717 2.3509886e-38
-2.0536518 0.84777158 -0.11725564 2.3509886e-38
-2.1579368 0.84598374 -0.1288522 2.3234379e-38
-2.127836 0.84565812 -0.12372458 2.3509886e-38
-2.1055927 0.84549057 -0.12008981 2.3509886e-38
-2.0853236 0.84534234 -0.11678716 2.3509886e-38
-2.0557115 0.84499735 -0.11169074 2.3509886e-38
-2.1741531 0.84325701 -0.12547545 2.2867037e-38
-2.1513407 0.84313202 -0.12184693 2.2867037e-38
-2.1235366 0.84219897 -0.11577301 2.3509886e-38
-2.1028888 0.84107244 -0.11034501 2.3509886e-38
-2.0849106 0.8410123 -0.10756652 2.3509886e-38
-2.1499839 0.840469 -0.11601352 2.3234379e-38
-2.115762 0.8395195 -0.10895818 2.3142544e-38
-2.1001325 0.8376689 -0.10273863 2.3509886e-38
-2.0828927 0.8376649 -0.10018788 2.3509886e-38
-2.1826487 0.83732826 -0.1141866 2.3050349e-38
-2.1512003 0.83708137 -0.10902663 2.3142544e-38
-2.1210771 0.836869 -0.10413528 2.3234379e-38
-2.1176457 0.83657247 -0.10300197 2.3509886e-38
-2.1018419 0.83618361 -0.099848785 2.3509886e-38
-2.1744425 0.83376485 -0.10543836 2.3050349e-38
-2.1529939 0.83372313 -0.10218711 2.3142544e-38
-2.1374261 0.83386618 -0.10019396 2.240786e-38
-2.1223135 0.83350098 -0.097192787 2.3509886e-38
-2.0947607 0.83304286 -0.092160545 2.3509886e-38
-2.1927724 0.83287805 -0.10626545 2.3234379e-38
-2.1771021 0.83095026 -0.099876545 2.2774484e-38
-2.1598666 0.83082402 -0.097067803 2.2867037e-38
-2.1347864 0.83059329 -0.09288118 2.2958873e-38
-2.1254764 0.83041477 -0.091130666 2.3326215e-38
-2.102757 0.83014148 -0.087202236 2.3509886e-38
-2.2027888 0.82805026 -0.097529829 2.3050349e-38
-2.1773787 0.82802403 -0.093727171 2.2958155e-38
-2.1623621 0.82739592 -0.090183944 2.286632e-38
-2.1438003 0.82858104 -0.089953683 2.2590096e-38
-2.1247094 0.82681143 -0.083395042 2.3234379e-38
-2.1039131 0.82682568 -0.080358468 2.3509886e-38
-2.1976185 0.8253516 -0.091058567 2.2774484e-38
-2.1777861 0.82455069 -0.086439691 2.3050349e-38
-2.1523495 0.82346952 -0.080401562 2.3050349e-38
-2.1202967 0.82341218 -0.075553566 2.3050708e-38
-2.2154443 0.82250077 -0.087656699 2.3142185e-38
-2.1985762 0.82206863 -0.084254958 2.249826e-38
-2.1834161 0.82050389 -0.078709319 2.2774484e-38
-2.1610131 0.82041711 -0.075222038 2.2590454e-38
-2.2028227 0.81910843 -0.078619182 2.2957796e-38
-2.1768239 0.8189137 -0.074373268 2.2406066e-38
-2.1571236 0.81837678 -0.070332386 2.0565769e-38
-2.1339681 0.81881237 -0.067839064 2.2314589e-38
-2.2361021 0.81536657 -0.075611196 2.3050349e-38
-2.2101345 0.81661278 -0.074418209 2.2774125e-38
-2.1863592 0.81560624 -0.068782814 2.2865961e-38
-2.1658275 0.8157568 -0.066073485 2.2865961e-38
-2.1299312 0.81579536 -0.060861621 2.268229e-38
-2.209698 0.81202734 -0.064653598 2.2865961e-38
-2.1920555 0.81221282 -0.062444385 2.2865961e-38
-2.1670082 0.81236011 -0.059062254 2.2774125e-38
-2.2099738 0.80888504 -0.058047116 2.2405707e-38
-2.195605 0.8087939 -0.05573542 2.2958155e-38
-2.1704252 0.80897683 -0.05240912 2.2681572e-38
-2.2365274 0.80658919 -0.057106189 2.1947247e-38
-2.2193024 0.80637944 -0.054122351 2.0933828e-38
-2.1922042 0.80533725 -0.047921602 2.2865961e-38
-2.1715841 0.8055737 -0.045381065 2.2681572e-38
-2.2405677 0.80341226 -0.050981514 2.2223112e-38
-2.2306688 0.80399746 -0.050759599 2.2313872e-38
-2.192965 0.80307239 -0.043242801 2.0934546e-38
-2.1636996 0.80292457 -0.038614407 2.0566127e-38
-2.2446074 0.80023533 -0.044856731 2.1944736e-38
-2.2273302 0.80006647 -0.041951824 2.0475368e-38
-2.2242694 0.79984164 -0.041024741 2.0567204e-38
-2.1684639 0.80095702 -0.035154756 2.2406066e-38
-2.2242224 0.79742956 -0.03591536 1.9736238e-39
-2.1021779 0.84851885 -0.12599242 2.3509886e-38
-2.2289586 0.82374805 -0.092288025 2.3509886e-38
-2.2273664 0.81145412 -0.066046648 2.3509886e-38
-2.2210002 0.80783826 -0.057458892 2.3509886e-38
-2.0902061 0.87025535 -0.17020847 2.1662049e-38
-2.1105649 0.85525644 -0.14148186 2.3509886e-38
-2.0915143 0.8561368 -0.14053498 2.3509886e-38
-2.1681614 0.84155333 -0.12098787 2.3509886e-38
-2.193763 0.83875912 -0.11885242 2.3509886e-38
-2.1923914 0.83539265 -0.11152859 2.3509886e-38
-2.2484441 0.80677736 -0.059261601 2.3509886e-38
-2.2474928 0.76471889 0.029849419 2.1669588e-38
-2.259877 0.76314777 0.031346809 2.2406425e-38
-2.2551017 0.76018572 0.038316954 2.3049632e-38
-2.2630951 0.75633699 0.045279846 2.3049632e-38
-2.285099 0.77069956 0.011652229 2.3326215e-38
-2.2607741 0.76704711 0.022965822 2.3509886e-38
-2.2720909 0.76702023 0.021353809 2.3509886e-38
-2.2623298 0.7633146 0.030632062 2.3509886e-38
-2.280077 0.74497586 0.066808857 2.3509886e-38
-2.2783203 0.77171361 0.010506676 2.0111972e-38
-2.2594669 0.77256 0.01149654 1.1586286e-39
-2.2804732 0.76751018 0.019081207 2.3509886e-38
-2.2580404 0.76905799 0.01911507 1.2087487e-38
-2.2979445 0.7630747 0.025887661 2.3509886e-38
-2.2637427 0.76421118 0.028527223 2.3509886e-38
-2.2811894 0.75978035 0.035327356 2.3509886e-38
-2.2783165 0.75272763 0.050670419 2.3509886e-38
-2.27688 0.7492013 0.058341894 2.3509886e-38
-2.3096206 0.74428087 0.063922413 2.3509886e-38
-2.3081644 0.74070579 0.071699865 2.3509886e-38
-2.3067079 0.73713076 0.079477295 2.3509886e-38
-2.3052516 0.73355567 0.087254807 2.3509886e-38
