# .PCD v0.7 - Point Cloud Data file format
VERSION 0.7
FIELDS x y z rgb
SIZE 4 4 4 4
TYPE F F F F
COUNT 1 1 1 1
WIDTH 1164
HEIGHT 1
VIEWPOINT 0 0 0 1 0 0 0
POINTS 1164
DATA ascii
1.1352949 -0.23328635 2.6782863 1.2907388e-39
1.1448246 -0.21768253 2.6649013 2.0261963e-39
1.1414222 -0.12060091 2.7022767 2.7647773e-39
1.1442027 -0.10313358 2.7024722 1.8413945e-39
1.1545985 -0.13069414 2.6737142 2.3909515e-39
1.1549517 -0.12106784 2.6760912 1.7463094e-39
1.1488683 -0.10005547 2.6944709 1.8410441e-39
1.1741153 -0.15177585 2.6294601 5.3249342e-44
1.1790551 -0.13920014 2.6239464 3.7835059e-43
1.1836448 -0.13617197 2.616075 0
1.1839955 -0.12662444 2.6184325 1.6577025e-39
1.1931357 -0.17248294 2.5862803 0
1.1934832 -0.16301067 2.588619 1.4012985e-45
1.1976893 -0.16947867 2.5784709 9.18397e-41
1.1984652 -0.098444946 2.5995333 1.1045371e-39
1.2085342 -0.11610883 2.5745468 0
1.2134355 -0.10363237 2.5690761 0
1.2223028 -0.15878741 2.5344968 3.8700641e-39
1.2275079 -0.13702115 2.5313914 0
1.2316791 -0.14343536 2.5213275 3.9236357e-44
1.2320242 -0.13404192 2.5236471 0
1.2512362 -0.12657236 2.4890451 3.6734899e-40
1.2649877 0.0098432908 2.505898 0
1.2632205 0.11569228 2.5429103 0
1.270153 0.031443052 2.5028162 0
1.2673912 0.10927808 2.5328467 0
1.2677363 0.11867151 2.535166 0
1.2651937 0.21704543 2.5712972 0
1.2746339 0.034399606 2.4951315 8.279544e-40
1.2719072 0.11225733 2.5251021 7.3576017e-40
1.2722521 0.12165081 2.5274215 7.3576017e-40
1.269052 0.20110507 2.55881 8.279544e-40
1.2661561 0.28160474 2.5899448 1.2885682e-39
1.2619878 0.33467236 2.6148181 8.2724394e-40
1.2644956 0.27996778 2.5926206 2.1143856e-39
1.2648491 0.28959405 2.5949974 2.4835269e-39
1.2652023 0.29922035 2.5973742 2.1150919e-39
1.2655556 0.30884665 2.5997512 1.4726133e-39
1.2659087 0.31847295 2.602128 1.2885682e-39
1.2603768 0.33337539 2.6175065 1.6544739e-39
1.2596232 0.48568875 2.6673226 0
1.2603416 0.50526297 2.6721556 1.9618179e-44
1.2845192 -0.092022322 2.4359636 3.6734675e-39
1.2848585 -0.082776032 2.4382467 1.0101989e-39
1.2705364 0.32152602 2.5941918 7.361189e-40
1.2671791 0.39468363 2.6238832 7.3504691e-40
1.2643279 0.48879287 2.6592541 9.1859318e-41
1.2849987 -0.040625621 2.4513614 2.6686118e-39
1.2658004 0.40381232 2.6294353 8.2724394e-40
1.2483004 0.63129294 2.7353482 9.5082305e-41
1.2655869 0.4426012 2.6421628 2.1150919e-39
1.2722019 0.3413004 2.5972657 0
1.3047384 0.60369372 2.6179705 4.6097815e-40
1.3092645 0.60681659 2.6102517 0
1.3089956 0.60832983 2.6112497 7.3468397e-40
1.3087481 0.61678427 2.6144106 0
1.30665 0.67154998 2.635839 0
1.1031411 -0.24390349 2.7367947 2.759755e-39
1.1136446 -0.24266066 2.7169752 2.3938592e-39
1.1147906 -0.24202444 2.7149715 2.3938592e-39
1.1159366 -0.24138822 2.7129681 2.3938592e-39
1.1249107 -0.24078602 2.6958888 2.3938592e-39
1.1208377 -0.23344409 2.7060587 1.5655377e-39
1.1266663 -0.19301741 2.7076786 0
1.1274258 -0.18581942 2.7085028 0
1.1232544 -0.23189029 2.701901 1.4729777e-39
1.1329341 -0.1768624 2.7007468 0
1.1335263 -0.15898411 2.7052839 0
1.1322354 -0.20065312 2.6945369 4.2038954e-45
1.1292425 -0.19402982 2.7023995 1.8367239e-40
1.1334976 -0.19093546 2.6951931 1.4012985e-45
1.1341289 -0.1860766 2.6955211 0
1.1307241 -0.18129493 2.7035921 0
1.1353915 -0.176359 2.696177 0
1.136023 -0.17150024 2.6965051 0
1.1336999 -0.16523632 2.7029645 0
1.1365286 -0.17572775 2.6941891 0
1.1371598 -0.17086892 2.6945169 0
1.1377914 -0.16601019 2.694845 0
1.1384225 -0.16115136 2.695173 0
1.1390538 -0.15629257 2.6955011 0
1.1386111 -0.21966803 2.6762288 6.4285968e-40
1.1392374 -0.21484731 2.6765544 6.4285128e-40
1.133247 -0.20910814 2.6899049 6.4285128e-40
1.1382972 -0.17023768 2.692529 0
1.1389283 -0.16537888 2.692857 0
1.1352783 -0.1596833 2.7016902 0
1.140191 -0.15566128 2.6935129 0
1.1397392 -0.21904169 2.6742563 6.4285968e-40
1.1409918 -0.20940024 2.6749072 3.6734198e-40
1.136712 -0.19662102 2.687202 1.8367099e-40
1.1428708 -0.19493806 2.6758835 9.1835496e-41
1.1434973 -0.19011736 2.676209 1.4012985e-45
1.1401424 -0.17991772 2.6859043 0
1.1388028 -0.17446519 2.6902132 0
1.1400654 -0.16474764 2.6908691 0
1.1406968 -0.15988883 2.6911972 0
1.1413281 -0.15503004 2.6915252 0
1.144514 -0.13634217 2.691328 1.3793429e-39
1.1389884 -0.23287757 2.6713078 1.0109275e-39
1.1408676 -0.21841542 2.6722841 7.0064923e-45
1.1414936 -0.21359468 2.6726096 1.8367099e-40
1.1421201 -0.20877396 2.672935 3.6734198e-40
1.1427462 -0.20395321 2.6732605 1.8367099e-40
1.1433728 -0.19913253 2.6735859 0
1.1439991 -0.1943118 2.6739113 0
1.1446252 -0.18949103 2.6742368 0
1.1452515 -0.18467022 2.6745622 0
1.1458781 -0.17984954 2.6748877 0
1.1465044 -0.17502882 2.6752131 0
1.1405714 -0.16897514 2.6885531 0
1.1412024 -0.16411635 2.6888812 0
1.1424651 -0.15439877 2.6895373 0
1.1436695 -0.14864178 2.6890476 0
1.1456794 -0.14659089 2.6858311 0
1.1449901 -0.13496356 2.6908493 2.667558e-39
1.1401168 -0.23225126 2.6693354 6.4286249e-40
1.1413692 -0.22260977 2.6699862 3.6734899e-40
1.142622 -0.21296836 2.6706371 1.8367099e-40
1.1432486 -0.20814764 2.6709626 9.1835496e-41
1.1438746 -0.2033269 2.671288 1.8367099e-40
1.144501 -0.19850619 2.6716135 9.1835496e-41
1.1451273 -0.19368546 2.6719389 0
1.1457536 -0.18886472 2.6722643 0
1.1463799 -0.18404391 2.6725898 0
1.1470063 -0.17922319 2.6729152 0
1.1476324 -0.17440245 2.6732407 0
1.1441705 -0.16836497 2.6818209 0
1.1488853 -0.16476102 2.6738915 0
1.1448605 -0.15716864 2.6840482 7.3540143e-40
1.1501378 -0.15511955 2.6745424 0
1.1507641 -0.15029883 2.6748679 0
1.1463292 -0.14451577 2.6852391 4.6025368e-40
1.1520168 -0.1406574 2.6755188 0
1.1490325 -0.13542546 2.6829236 1.3789786e-39
1.1462556 -0.19305915 2.6699665 0
1.1468819 -0.18823841 2.6702919 0
1.147508 -0.18341757 2.6706173 9.8090893e-45
1.1493871 -0.16895543 2.6715937 1.4012985e-45
1.1500134 -0.16413471 2.6719191 0
1.1506398 -0.15931398 2.6722448 0
1.1482942 -0.15131648 2.6792984 0
1.1488112 -0.14464782 2.6804209 0
1.1531451 -0.14003108 2.6735466 0
1.1478958 -0.12884225 2.6872013 2.0257857e-39
1.1550241 -0.1255689 2.6745229 2.0250809e-39
1.1473838 -0.19243281 2.667994 0
1.1480101 -0.18761207 2.6683195 0
1.149033 -0.12821098 2.6852133 1.6566445e-39
1.1497647 -0.18216497 2.6666727 2.6733201e-39
1.1528732 -0.11531112 2.6819191 2.1176324e-39
1.1612914 -0.11761656 2.6649861 1.6562941e-39
1.1721903 -0.21415929 2.6133554 2.3822074e-44
1.1720687 -0.22296762 2.6107924 1.3800674e-39
1.1726805 -0.21825747 2.6111104 7.3469798e-40
1.1731712 -0.22235568 2.6088653 1.6562941e-39
1.1737829 -0.21764554 2.6091833 1.0109247e-39
1.1811612 -0.11238825 2.6284077 1.6562941e-39
1.1748855 -0.21703359 2.6072559 1.1031204e-39
1.1754973 -0.21232344 2.607574 4.5918869e-40
1.1810386 -0.12126437 2.6258249 8.2689361e-40
1.1868809 -0.14044744 2.6084895 0
1.1881049 -0.13102718 2.6091254 0
1.1887168 -0.12631702 2.6094434 0
1.1893288 -0.12160691 2.6097615 0
1.1855356 -0.15867606 2.6052904 3.4097908e-39
1.1861477 -0.15396594 2.6056085 2.6718614e-39
1.1873714 -0.14454564 2.6062443 1.3804163e-39
1.1879833 -0.13983551 2.6065624 0
1.1885953 -0.13512538 2.6068804 0
1.1892072 -0.13041523 2.6071982 0
1.1898191 -0.12570509 2.6075163 0
1.1904311 -0.12099497 2.6078343 0
1.1912079 -0.16864592 2.5912082 1.821688e-44
1.1918154 -0.16397023 2.5915239 2.6624671e-44
1.1903096 -0.1298033 2.6052713 0
1.1909218 -0.12509318 2.6055892 0
1.1915337 -0.12038303 2.6059072 0
1.1929096 -0.16336274 2.5896108 1.821688e-44
1.1941246 -0.15401138 2.5902421 2.5223372e-44
1.1933963 -0.16743098 2.5873823 0
1.2019011 -0.1019713 2.5918012 1.6562941e-39
1.2029958 -0.10136385 2.5898883 1.6562941e-39
1.202875 -0.1101078 2.5873437 0
1.2040899 -0.10075637 2.587975 2.0257857e-39
1.2045767 -0.10482457 2.5857463 0
1.2051842 -0.10014889 2.586062 1.3804163e-39
1.2097447 -0.17138629 2.5546649 0
1.2096255 -0.18000135 2.5521579 0
1.2102244 -0.17539454 2.5524688 0
1.2108228 -0.17078774 2.5527799 0
1.2114215 -0.16618095 2.5530908 0
1.2117217 -0.1185711 2.5676305 0
1.2123247 -0.11392988 2.5679438 0
1.210704 -0.17940287 2.5502729 0
1.2124996 -0.16558242 2.5512059 0
1.2169147 -0.18447967 2.5367081 1.8367099e-40
1.2175087 -0.17990732 2.5370169 0
1.2181028 -0.17533492 2.5373256 0
1.2186968 -0.17076258 2.5376344 0
1.2201613 -0.11430915 2.5527422 0
1.22076 -0.10970238 2.5530531 0
1.217985 -0.18388565 2.5348372 8.2724394e-40
1.2185788 -0.17931327 2.535146 0
1.219173 -0.17474087 2.5354548 0
1.219767 -0.17016853 2.5357635 0
1.2203609 -0.16559614 2.536072 0
1.2188452 -0.13213779 2.5496132 0
1.2194439 -0.12753101 2.5499244 0
1.2200426 -0.12292424 2.5502353 0
1.2206409 -0.1183174 2.5505462 0
1.2212393 -0.11371061 2.5508573 0
1.2218381 -0.10910384 2.5511682 0
1.2190549 -0.18329161 2.5329666 1.6566445e-39
1.2196491 -0.17871927 2.5332754 4.6026909e-40
1.2202431 -0.17414685 2.5335841 0
1.220837 -0.16957448 2.5338929 0
1.2214313 -0.16500215 2.5342014 0
1.2220252 -0.16042981 2.5345101 0
1.2211207 -0.1223257 2.5483503 0
1.2217191 -0.11771891 2.5486615 0
1.2223177 -0.11311211 2.5489724 0
1.2229161 -0.1085053 2.5492833 0
1.2195312 -0.18726991 2.530787 1.7510079e-39
1.2201252 -0.18269756 2.5310957 2.1179828e-39
1.2213131 -0.17355277 2.5317132 9.18397e-41
1.2219073 -0.16898043 2.532022 0
1.2278478 -0.12325697 2.5351086 0
1.2211951 -0.18210348 2.5292251 2.3030929e-39
1.2286628 -0.1695762 2.5188317 0
1.2292523 -0.16503826 2.5191379 0
1.2241652 -0.15924168 2.5307684 0
1.2277296 -0.1318076 2.5326207 0
1.2283236 -0.12723523 2.5329292 0
1.228918 -0.12266292 2.5332379 0
1.2295117 -0.11809055 2.5335467 0
1.2297249 -0.1689866 2.5169749 9.18397e-41
1.2303145 -0.16444869 2.5172813 0
1.2287997 -0.13121355 2.5307498 0
1.2293937 -0.12664118 2.5310583 0
1.2299881 -0.12206887 2.5313671 0
1.2305819 -0.1174965 2.5316758 0
1.230787 -0.16839704 2.5151181 9.18397e-41
1.2310579 -0.12147479 2.5294964 0
1.231652 -0.11690246 2.5298049 0
1.231849 -0.16780749 2.5132618 4.5918589e-40
1.2324387 -0.16326959 2.5135679 8.4077908e-45
1.23391 -0.10716373 2.5285518 1.836766e-40
1.2404585 -0.11671142 2.512918 1.4012985e-45
1.2469306 -0.1092082 2.502845 1.4693946e-39
1.2409309 -0.12065974 2.5107548 0
1.2415204 -0.11612182 2.5110614 9.1835496e-40
1.2473993 -0.1131281 2.5006976 1.6534075e-39
1.2437716 -0.14858501 2.4964211 0
1.2443565 -0.14407969 2.4967253 0
1.2490393 -0.10803755 2.4991586 1.0101905e-39
1.2442402 -0.15250491 2.4942739 0
1.2448257 -0.14799967 2.4945779 0
1.2454112 -0.14349441 2.4948821 0
1.2489229 -0.11646276 2.496707 2.0211334e-39
1.2495084 -0.11195753 2.4970112 2.2959084e-39
1.2500937 -0.10745224 2.4973154 1.0101905e-39
1.2505997 -0.1531828 2.4818199 4.2038954e-45
1.2464656 -0.14290904 2.4930387 0
1.2470506 -0.13840373 2.4933429 0
1.2476363 -0.13389851 2.4936469 0
1.2493919 -0.12038264 2.4945595 4.591971e-40
1.2505628 -0.11137215 2.4951677 2.6636161e-39
1.2511481 -0.10686687 2.4954717 1.0101905e-39
1.2516465 -0.15260172 2.47999 1.1210388e-44
1.2522277 -0.14812906 2.4802918 0
1.2522024 -0.10628153 2.4936285 1.3775324e-39
1.2509499 -0.1654385 2.4772542 3.597803e-39
1.2521119 -0.1564932 2.4778581 1.7484898e-39
1.2526932 -0.15202062 2.4781599 1.5414283e-44
1.2532743 -0.14754796 2.478462 0
1.2587795 -0.1059177 2.481086 1.4697267e-39
1.2519966 -0.1648574 2.4754243 3.5023816e-39
1.253159 -0.15591216 2.4760282 1.6562941e-39
1.25374 -0.15143952 2.47633 6.4285968e-40
1.2542057 -0.15533108 2.4741983 1.8410441e-39
1.255949 -0.14191319 2.4751041 0
1.2565299 -0.13744052 2.4754059 0
1.2648473 -0.12039772 2.4648116 8.2724394e-40
1.2601159 -0.16423875 2.4599955 2.1197988e-39
1.260693 -0.15979694 2.4602954 2.3938592e-39
1.2612702 -0.15535513 2.4605951 2.0254368e-39
1.261847 -0.15091328 2.4608951 1.3804163e-39
1.2624243 -0.14647152 2.461195 3.6734198e-40
1.2630012 -0.14202966 2.4614949 0
1.2686644 -0.12443101 2.4561846 1.286427e-39
1.2611556 -0.1636617 2.4581783 2.0276032e-39
1.2617325 -0.15921985 2.4584782 2.6718754e-39
1.2628868 -0.15033624 2.4590778 2.1143856e-39
1.2634639 -0.14589444 2.4593778 1.469382e-39
1.264618 -0.13701081 2.4599774 0
1.265195 -0.13256897 2.4602773 5.6051939e-45
1.2663492 -0.12368536 2.4608769 1.0112751e-39
1.2639264 -0.14975914 2.4572604 2.2987769e-39
1.2656574 -0.13643369 2.4581599 0
1.2720344 -0.12901039 2.4482453 9.18397e-41
1.2726071 -0.12460121 2.4485431 1.6566445e-39
1.2730663 -0.12843756 2.4464414 9.1857917e-41
1.273639 -0.12402837 2.4467392 2.2080484e-39
1.2802434 0.00022511129 2.4734845 0
1.2808248 0.0046977745 2.4737866 0
1.2816343 -0.12373585 2.4314451 1.7491988e-39
1.2822031 -0.11935747 2.4317408 1.7484898e-39
1.2826589 -0.12316699 2.4296539 1.472263e-39
1.2832279 -0.11878864 2.4299493 1.1038266e-39
1.2836837 -0.12259816 2.4278624 1.1031204e-39
1.2848214 -0.11384144 2.4284534 0
1.2938807 -0.10494753 2.4138432 6.5415737e-39
1.1071814 -0.22193117 2.735996 2.0257857e-39
1.1081171 -0.21162599 2.7374673 1.8413945e-39
1.1110336 -0.2195264 2.7293463 1.6562941e-39
1.1119694 -0.20922124 2.7308178 9.219563e-40
1.1158214 -0.20681651 2.7241683 0
1.1167572 -0.1965113 2.7256393 0
1.1176929 -0.18620624 2.7271109 5.6051939e-45
1.266021 -0.0032312027 2.4997578 4.2038954e-45
1.2696558 -0.00096206798 2.4934833 0
1.275982 0.0062355986 2.4835942 0
1.2786033 -0.12968187 2.43539 1.8371009e-39
1.2795889 0.0084873345 2.4773679 1.8367099e-40
1.1300814 -0.19559804 2.7002873 0
1.1304289 -0.18612571 2.7026262 0
1.2660269 -0.0049759829 2.499192 3.6734198e-40
1.2667058 0.013516609 2.5037582 3.6734198e-40
1.2718294 0.034941878 2.5007012 0
1.2635654 0.12508577 2.5452297 0
1.2639101 0.13447927 2.547549 0
1.2642547 0.1438728 2.5498686 0
1.2725477 0.096694291 2.5189278 0
1.2687703 0.14685206 2.5421243 0
1.2830334 0.014224166 2.4725604 0
1.2819867 0.013643072 2.4743903 0
1.2663666 0.0042702532 2.5014751 3.6734198e-40
1.2653297 0.01916492 2.5081997 0
1.2698109 0.022121362 2.5005145 0
1.2777057 0.049927011 2.4941509 7.3504691e-40
1.2704951 0.040764667 2.5051179 0
1.2708372 0.050086297 2.5074196 0
1.270873 0.084076814 2.5181439 8.279544e-40
1.26704 0.065773025 2.5197082 0
1.2673824 0.075094603 2.5220096 0
1.2715213 0.06872946 2.512023 0
1.2718636 0.078051046 2.5143244 0
1.2722057 0.087372668 2.5166261 0
1.2711792 0.059407838 2.5097213 0
1.266698 0.056451395 2.5174062 0
1.2617524 0.73897707 2.7436545 1.1239923e-38
1.2668228 0.38497862 2.6214871 6.4320721e-40
1.1150955 -0.2373746 2.7158616 2.486059e-39
1.1413805 -0.1257609 2.7007179 3.1296236e-39
1.1310881 -0.21480241 2.6922514 7.0064923e-45
1.1383016 -0.21081068 2.6796372 1.4012985e-45
1.1389328 -0.20595185 2.679965 1.4012985e-45
1.1395639 -0.20109303 2.6802931 8.4077908e-45
1.1420892 -0.18165779 2.6816051 1.6815582e-44
1.1427203 -0.176799 2.6819332 5.6051939e-45
1.1433514 -0.17194018 2.6822612 1.5414283e-44
1.1439829 -0.16708137 2.6825891 5.6051939e-45
1.1380864 -0.16093676 2.6958878 1.8367099e-40
1.1387228 -0.15603991 2.6962185 0
1.1393589 -0.15114301 2.6965489 1.8367099e-40
1.1399951 -0.14624614 2.6968796 1.8367099e-40
1.1406312 -0.14134927 2.6972101 1.8367099e-40
1.1478522 -0.13549973 2.6851711 8.26881e-40
1.1484016 -0.13306977 2.6848853 1.2882179e-39
1.1430297 -0.20422201 2.6726301 1.3807975e-39
1.1413323 -0.19560298 2.6786332 1.7560904e-39
1.148512 -0.1918065 2.6660218 3.6871596e-39
1.1491381 -0.18698573 2.6663473 2.6744342e-39
1.1444886 -0.1713089 2.6802733 1.1095944e-39
1.1457512 -0.16159134 2.6809294 2.7658689e-40
1.1463826 -0.15673254 2.6812572 8.2724394e-40
1.1471175 -0.15146996 2.6815138 8.2759706e-40
1.1476451 -0.14701492 2.6819134 7.3504691e-40
1.1480207 -0.14181946 2.6828401 7.3540143e-40
1.1489075 -0.13729732 2.6825693 7.3504691e-40
1.1473533 -0.13161452 2.6873648 2.0225431e-39
1.1501701 -0.1275797 2.6832254 1.6566445e-39
1.1484723 -0.12163936 2.688379 2.210177e-39
1.1418386 -0.19983058 2.6763172 1.0156359e-39
1.1424694 -0.19497174 2.6766453 2.5858511e-39
1.1496402 -0.1911802 2.6640494 4.7935071e-39
1.1502665 -0.18635947 2.6643748 4.0573686e-39
1.1472471 -0.18192534 2.6715932 2.0272375e-39
1.1495186 -0.16122566 2.6737952 9.2230662e-40
1.1475197 -0.1561013 2.6792696 8.2724394e-40
1.1481508 -0.15124246 2.6795974 7.3504691e-40
1.1487821 -0.14638367 2.6799254 7.3504691e-40
1.1494135 -0.14152491 2.6802535 7.3576017e-40
1.1509058 -0.13730332 2.6787219 9.1943396e-40
1.1514261 -0.13058589 2.6798537 1.5626496e-39
1.1513073 -0.12694849 2.6812375 1.4726133e-39
1.1519384 -0.12208968 2.6815655 1.8413945e-39
1.1525698 -0.11723089 2.6818936 1.7484898e-39
1.145758 -0.22911969 2.6594734 1.2900382e-39
1.1417128 -0.20891684 2.6736732 1.3804163e-39
1.1423442 -0.20405804 2.674001 2.298079e-39
1.1429753 -0.19919923 2.674329 1.2868138e-39
1.1436067 -0.19434045 2.6746571 2.764462e-39
1.1513947 -0.18573312 2.6624024 4.697308e-39
1.1523492 -0.18077943 2.6621389 3.3183154e-39
1.1473943 -0.16518757 2.6766253 1.1027728e-39
1.1480256 -0.16032881 2.6769533 1.1038294e-39
1.1486567 -0.15546998 2.6772814 1.3804163e-39
1.1492883 -0.15061122 2.6776094 7.3576017e-40
1.1499194 -0.14575239 2.6779373 7.3576017e-40
1.1505505 -0.14089359 2.6782653 6.4356594e-40
1.1511819 -0.13603479 2.6785934 1.3775324e-39
1.1503129 -0.12984674 2.6822305 1.3793303e-39
1.1524444 -0.12631717 2.6792493 1.2882207e-39
1.153707 -0.11659962 2.6799054 1.9332398e-39
1.1468861 -0.22849335 2.657501 1.5666265e-39
1.1441128 -0.19856806 2.6723413 1.3790108e-39
1.1518967 -0.18992755 2.6601045 3.0406635e-39
1.1525232 -0.18510684 2.66043 3.8675473e-39
1.1531492 -0.18028601 2.6607554 2.9491685e-39
1.1556545 -0.16100311 2.6620572 7.3504691e-40
1.1545221 -0.15285078 2.6668253 1.0116296e-39
1.1510565 -0.14512114 2.6759493 4.5917748e-40
1.1529869 -0.14015979 2.6738098 7.3576017e-40
1.152319 -0.13540354 2.6766055 1.3775324e-39
1.15295 -0.13054472 2.6769335 6.4284847e-40
1.1535815 -0.12568593 2.6772614 8.2724394e-40
1.1542128 -0.12082715 2.6775894 1.7495464e-39
1.1523986 -0.19412197 2.6578066 7.3721471e-40
1.1555735 -0.19001874 2.6529996 2.2116497e-39
1.152449 -0.18289872 2.661274 3.6771893e-40
1.1570148 -0.1736396 2.6554267 1.1949741e-39
1.1561568 -0.16519755 2.6597593 5.6051939e-45
1.1567829 -0.1603768 2.6600847 9.8090893e-45
1.1574092 -0.15555607 2.6604102 7.0064923e-45
1.1580355 -0.15073535 2.6607356 0
1.1521937 -0.14448987 2.6739614 4.5917748e-40
1.1528248 -0.13963108 2.6742895 4.5917748e-40
1.1547978 -0.13496189 2.6719749 1.2867731e-39
1.1605407 -0.13145243 2.6620376 1.2856997e-39
1.161167 -0.12663171 2.6623631 1.3775366e-39
1.1553501 -0.1201959 2.6756015 1.1960251e-39
1.1624199 -0.11699029 2.6630139 1.2878704e-39
1.1580715 -0.18845467 2.648689 2.7625899e-40
1.1547796 -0.18385421 2.6564853 8.4077908e-45
1.1572845 -0.16457118 2.6577871 4.2038954e-45
1.1598144 -0.15809353 2.6549759 2.8025969e-45
1.1585371 -0.15492974 2.658438 0
1.1526994 -0.14871737 2.6716454 0
1.1545856 -0.14423381 2.6694396 3.6734479e-40
1.153962 -0.13899982 2.6723015 6.4320721e-40
1.1610427 -0.13564686 2.6597397 1.5619209e-39
1.1616688 -0.1308261 2.6600652 1.3775366e-39
1.1622953 -0.1260054 2.6603906 1.3775366e-39
1.156487 -0.11956459 2.6736135 8.2724394e-40
1.1571186 -0.11470585 2.6739416 1.1031204e-39
1.1540285 -0.19769004 2.6535366 1.7503073e-39
1.1599388 -0.17188208 2.6503582 5.5173324e-40
1.1590393 -0.1591242 2.6561401 0
1.1596656 -0.15430346 2.6564655 0
1.1621709 -0.13502057 2.6577673 1.2882207e-39
1.1627972 -0.13019982 2.6580927 8.2759987e-40
1.1634234 -0.12537909 2.6584182 7.3504691e-40
1.1640497 -0.12055837 2.6587436 7.3504691e-40
1.1646761 -0.11573764 2.6590691 1.1031204e-39
1.1539043 -0.2067052 2.6509132 3.0828566e-44
1.1557832 -0.19224302 2.6518896 1.7546106e-39
1.1638299 -0.17889795 2.6406415 4.5992157e-40
1.1608034 -0.17384031 2.648072 4.6062362e-40
1.1650732 -0.16932903 2.6412873 5.6051939e-45
1.1601675 -0.15849786 2.6541677 0
1.1607938 -0.15367712 2.6544931 0
1.1620466 -0.1440357 2.655144 0
1.1626729 -0.13921496 2.6554694 9.1835496e-41
1.163299 -0.13439423 2.6557949 1.3804163e-39
1.1639253 -0.12957348 2.6561205 1.2882179e-39
1.1645519 -0.12475278 2.656446 7.3504691e-40
1.1651779 -0.11993203 2.6567714 7.3504691e-40
1.1606697 -0.16269229 2.6518698 0
1.1612958 -0.15787154 2.6521952 0
1.1619221 -0.15305081 2.6525207 0
1.1625483 -0.14823008 2.6528461 0
1.1631749 -0.14340939 2.6531715 0
1.1638012 -0.13858865 2.653497 0
1.1644273 -0.13376792 2.6538224 0
1.1650538 -0.1289472 2.6541479 4.6240607e-40
1.1656799 -0.12412644 2.6544733 7.350441e-40
1.1601759 -0.19934247 2.6411815 1.5414283e-44
1.1635829 -0.19679268 2.6354344 5.0446745e-44
1.1642047 -0.19200824 2.6357574 4.5923774e-40
1.1648264 -0.18722379 2.6360803 1.9361685e-39
1.1630892 -0.18142964 2.6412632 2.8595317e-39
1.1666911 -0.17287031 2.6370494 2.2152189e-39
1.1693196 -0.15947405 2.6362448 2.9499042e-39
1.1685559 -0.15851688 2.6380184 9.18397e-41
1.1630504 -0.1524245 2.6505482 0
1.1636767 -0.14760377 2.6508737 0
1.1643028 -0.14278302 2.6511991 0
1.1649292 -0.13796228 2.6515245 0
1.1655557 -0.13314161 2.65185 0
1.1661818 -0.12832083 2.6521754 3.5873241e-43
1.1668084 -0.12350014 2.6525009 6.4284847e-40
1.1647028 -0.19617106 2.6334767 1.4012985e-44
1.1628675 -0.1906191 2.6387718 3.2229865e-44
1.1665677 -0.1818177 2.6344457 1.660655e-39
1.1671892 -0.17703313 2.6347687 2.2134728e-39
1.1678109 -0.17224871 2.6350918 2.7666354e-39
1.1684324 -0.16746421 2.6354148 3.5016837e-39
1.1690539 -0.16267973 2.6357379 3.3161882e-39
1.1696758 -0.15789531 2.6360607 1.5662341e-39
1.1702973 -0.15311083 2.6363838 7.3504691e-40
1.1709188 -0.14832634 2.6367068 0
1.1715403 -0.14354186 2.6370299 0
1.1721621 -0.13875739 2.6373527 0
1.1727835 -0.13397293 2.6376758 0
1.1734053 -0.12918846 2.6379988 0
1.1752702 -0.11483508 2.6389678 1.0109247e-39
1.1758916 -0.11005059 2.6392908 1.6566445e-39
1.1710492 -0.20608287 2.6181154 9.185091e-41
1.1722829 -0.1965901 2.6187561 1.2611686e-44
1.1728994 -0.19184369 2.6190765 9.8090893e-45
1.1676872 -0.18119608 2.6324883 4.6242849e-44
1.1689306 -0.17162713 2.6331344 3.1350592e-39
1.1701739 -0.16205819 2.6337802 5.3444921e-39
1.1707953 -0.15727371 2.6341033 2.9491685e-39
1.1714166 -0.15248919 2.6344261 1.8413945e-39
1.1732818 -0.13813582 2.6353953 0
1.1770116 -0.10942905 2.6373332 1.6566445e-39
1.1696681 -0.20549501 2.6209607 9.1908224e-40
1.1689812 -0.19879071 2.6244113 1.8367099e-40
1.1733935 -0.1959734 2.6168141 5.6051939e-45
1.1740103 -0.19122702 2.6171346 4.2038954e-45
1.1702167 -0.18647823 2.6259432 2.8025969e-45
1.1740643 -0.17492405 2.6222072 2.3822074e-44
1.17005 -0.17100546 2.6311767 1.4737456e-39
1.1706719 -0.16622102 2.6314995 4.6987569e-39
1.1777103 -0.16274861 2.6190572 5.2501315e-39
1.1783271 -0.15800223 2.6193776 3.8707675e-39
1.1789438 -0.15325582 2.619698 2.118689e-39
1.1781312 -0.10880741 2.6353755 1.0141743e-39
1.1769711 -0.1763711 2.616154 3.7835059e-44
1.1807127 -0.16599977 2.6122463 2.0265256e-39
1.1849238 -0.1633862 2.6049724 4.5125664e-39
1.1849878 -0.11466801 2.6203194 0
1.1856045 -0.10992161 2.6206398 1.6815582e-44
1.1862209 -0.10517512 2.6209602 9.2484297e-40
1.1799066 -0.20987567 2.5998657 1.1031204e-39
1.1800395 -0.1949376 2.6043532 9.8090893e-45
1.1796377 -0.18556984 2.6081011 0
1.1804987 -0.17612796 2.6094425 4.2038954e-45
1.1860985 -0.1140513 2.6183774 0
1.1867151 -0.1093049 2.6186979 0
1.1873318 -0.10455845 2.6190183 1.1024225e-39
1.1803973 -0.21397386 2.5976202 1.8413945e-39
1.1810091 -0.20926373 2.5979383 1.2878704e-39
1.1816212 -0.2045536 2.5982563 6.4285968e-40
1.1822329 -0.19984344 2.5985744 9.185091e-41
1.1794142 -0.19465171 2.6056473 1.836794e-40
1.1895764 -0.14332177 2.6023901 6.4501908e-40
1.1908001 -0.13390148 2.6030262 1.0109247e-39
1.1878258 -0.10868823 2.616756 0
1.1884425 -0.10394178 2.6170764 3.6736861e-40
1.181499 -0.21336186 2.5956931 1.7491988e-39
1.1827234 -0.20394167 2.5963292 7.3469798e-40
1.1833353 -0.19923152 2.5966473 9.18397e-41
1.1829379 -0.19320482 2.5993259 1.4012985e-45
1.1845592 -0.18981127 2.5972831 0
1.1840209 -0.18350153 2.6003227 2.8025969e-45
1.1873831 -0.17207195 2.597481 2.8025969e-45
1.1885545 -0.15786898 2.5997374 2.8025969e-45
1.1906786 -0.14270984 2.6004632 5.6051939e-45
1.1912906 -0.13799971 2.600781 7.3504691e-40
1.1919025 -0.13328958 2.601099 1.1038294e-39
1.1898681 -0.11828452 2.6097786 0
1.1895535 -0.10332517 2.6151345 4.5917748e-40
1.1844374 -0.19861951 2.5947199 1.836766e-40
1.182574 -0.19267982 2.6001928 1.4012985e-45
1.1856616 -0.1891993 2.595356 0
1.1834314 -0.18323775 2.601541 0
1.1868851 -0.17977896 2.5959918 0
1.1874974 -0.17506881 2.5963099 0
1.188109 -0.17035864 2.5966277 4.2038954e-45
1.1887209 -0.16564848 2.5969458 0
1.1893332 -0.1609384 2.5972638 0
1.1899449 -0.15622823 2.5975816 0
1.1879555 -0.14001088 2.6065605 2.8025969e-45
1.1923926 -0.13738766 2.5988536 3.6734198e-40
1.1930046 -0.13267756 2.5991716 3.6734198e-40
1.1893772 -0.12768961 2.6077368 4.5917748e-40
1.1942284 -0.12325726 2.5998075 0
1.1948404 -0.11854716 2.6001256 0
1.1954523 -0.11383701 2.6004436 0
1.1960647 -0.10912693 2.6007617 0
1.1907254 -0.20362163 2.5810308 1.0112751e-39
1.1861519 -0.19329746 2.5931108 1.4012985e-45
1.1861764 -0.1888923 2.5944629 2.7551209e-40
1.1904175 -0.17977695 2.5891953 0
1.1911612 -0.17266622 2.5900218 2.8025969e-45
1.1905236 -0.17010503 2.5920625 2.8025969e-45
1.18768 -0.1627291 2.5998769 2.8025969e-45
1.1904354 -0.16032644 2.5953367 4.2038954e-45
1.1934952 -0.13677578 2.5969267 1.4012985e-45
1.1941071 -0.13206562 2.5972447 1.4012985e-45
1.1947191 -0.1273555 2.5975626 0
1.195331 -0.12264536 2.5978806 0
1.1959429 -0.11793521 2.5981987 0
1.1965549 -0.11322511 2.5985165 0
1.1977789 -0.10380477 2.5991526 0
1.1866424 -0.19739567 2.5908659 6.4286249e-40
1.1872543 -0.19268553 2.5911837 0
1.1973547 -0.13715917 2.5893772 0
1.195613 -0.12637682 2.596153 0
1.1991761 -0.12037603 2.5912013 0
1.1935214 -0.19773099 2.5775204 7.3469798e-40
1.191897 -0.190263 2.5830178 5.5210739e-40
1.1947364 -0.18837962 2.5781517 1.4012985e-45
1.1953437 -0.18370393 2.5784674 0
1.1928314 -0.17752905 2.5852633 0
1.1933275 -0.17082098 2.5864391 0
1.1945261 -0.15872356 2.5879736 0
1.2062783 -0.099541403 2.5841491 1.3797115e-39
1.1946156 -0.19712353 2.5756073 1.0109247e-39
1.1952231 -0.19244784 2.575923 1.5414283e-44
1.1958308 -0.18777218 2.5762386 4.2038954e-45
1.1994754 -0.15971795 2.5781326 0
1.2000831 -0.15504232 2.5784483 0
1.2006904 -0.15036659 2.578764 0
1.2012976 -0.14569086 2.5790796 0
1.2019054 -0.1410152 2.5793953 0
1.2025126 -0.1363395 2.579711 0
1.2031204 -0.13166383 2.5800264 0
1.2037281 -0.12698819 2.5803423 0
1.2043353 -0.12231246 2.5806577 0
1.2023993 -0.11609112 2.5863595 0
1.2055503 -0.11296109 2.5812891 0
1.2061579 -0.10828542 2.581605 0
1.2073727 -0.098933958 2.5822361 6.4286249e-40
1.1957103 -0.19651608 2.5736942 1.1031204e-39
1.1963176 -0.19184035 2.5740099 6.4285968e-40
1.2015945 -0.15505186 2.5755365 0
1.1985388 -0.14732952 2.5838692 0
1.2023921 -0.14508337 2.5771666 0
1.2029996 -0.1404077 2.577482 0
1.2008352 -0.13509594 2.5833342 0
1.2048223 -0.12638065 2.578429 0
1.2054297 -0.12170497 2.5787446 0
1.2072521 -0.10767791 2.5796916 0
1.2031058 -0.10163042 2.5895913 0
1.2084669 -0.098326437 2.580323 6.4284847e-40
1.1987225 -0.18783291 2.5706542 9.1908924e-40
1.2019311 -0.15443109 2.5750854 0
1.2028788 -0.14915159 2.5749378 0
1.2040942 -0.13980027 2.5755689 0
1.2055792 -0.12589607 2.577126 0
1.2039734 -0.14854418 2.5730247 0
1.2026559 -0.14303105 2.5773103 1.4012985e-45
1.2051884 -0.13919279 2.5736561 0
1.2068113 -0.13412601 2.5721414 0
1.2049383 -0.12246999 2.5794475 0
1.2086241 -0.11737053 2.5739734 0
1.2060091 -0.099883743 2.5845582 4.2038954e-45
1.2106555 -0.097111501 2.5764968 9.1845305e-41
1.2053325 -0.19102208 2.5569205 1.2871641e-39
1.2116631 -0.18741941 2.5458813 6.4501908e-40
1.2095534 -0.1585333 2.5591137 0
1.2044603 -0.15261239 2.570796 0
1.2050675 -0.14793667 2.5711117 0
1.2056752 -0.14326099 2.5714273 0
1.2087071 -0.13241367 2.5690367 0
1.2111421 -0.10117967 2.5742681 7.0064923e-45
1.2064185 -0.19041909 2.5550218 1.6562941e-39
1.2140291 -0.14952128 2.5533624 0
1.2124487 -0.14400664 2.5581551 0
1.2088221 -0.13879901 2.5667875 0
1.2136545 -0.13472411 2.5587816 0
1.2159796 -0.1313858 2.5553672 0
1.2178756 -0.10223538 2.5609748 1.5612217e-39
1.213221 -0.19082913 2.5418005 2.1176324e-39
1.2163491 -0.16023536 2.5454953 5.6051939e-45
1.2170168 -0.15330754 2.5464098 2.8025969e-45
1.2129319 -0.14804481 2.5559425 0
1.2121103 -0.14237382 2.5593245 0
1.2141378 -0.13876231 2.5565691 0
1.2147409 -0.13412109 2.5568826 0
1.2148975 -0.18562385 2.5402267 2.3967332e-39
1.2185392 -0.17265193 2.5373375 1.6584592e-39
1.2196894 -0.15060574 2.542125 0
1.2202845 -0.14416265 2.5430257 2.8025969e-45
1.2208829 -0.13955584 2.5433369 2.8025969e-45
1.2175698 -0.13219278 2.5520508 1.4012985e-45
1.2170405 -0.17034034 2.540956 2.7552471e-40
1.220154 -0.15720659 2.5391345 0
1.2201655 -0.15277767 2.5405188 0
1.2207642 -0.14817092 2.5408299 0
1.2213626 -0.14356411 2.5411408 0
1.2157831 -0.1372495 2.5538828 2.8025969e-45
1.2225596 -0.13435049 2.5417628 0
1.2239294 -0.17634304 2.5257921 2.3963829e-39
1.2189906 -0.16911434 2.5375929 1.8417784e-39
1.2230392 -0.13835877 2.539567 1.9618179e-44
1.2236378 -0.13375199 2.5398779 4.7644148e-44
1.2254977 -0.12523192 2.5390038 0
1.2266304 -0.11071803 2.5414329 0
1.2272289 -0.10611123 2.541744 9.18397e-41
1.2249995 -0.17574903 2.5239215 2.6729698e-39
1.2264545 -0.17011678 2.5229094 3.6842533e-39
1.2233026 -0.15521836 2.5337064 4.2038954e-45
1.2241186 -0.1459637 2.5350752 0
1.2271098 -0.11472629 2.5392373 0
1.2277085 -0.11011953 2.5395482 0
1.2260697 -0.17515495 2.5220506 3.4094811e-39
1.2266637 -0.17058253 2.5223594 2.8555688e-39
1.2278519 -0.16143784 2.5229766 8.4077908e-45
1.2283963 -0.15789998 2.5230527 1.6573689e-39
1.22904 -0.15229318 2.5235939 2.8025969e-45
1.2270247 -0.14175472 2.5308189 4.2038954e-45
1.2278389 -0.13249959 2.532191 9.1852312e-41
1.2320102 -0.12943144 2.5251374 1.836766e-40
1.2294664 -0.11398928 2.5349357 1.4012985e-45
1.2343863 -0.11114202 2.5263722 6.4284987e-40
1.2271398 -0.17456093 2.52018 4.5158286e-39
1.2277337 -0.16998848 2.5204885 3.4083839e-39
1.2283278 -0.16541617 2.5207973 1.8425029e-39
1.231892 -0.13798206 2.5226493 5.6051939e-45
1.2330803 -0.12883739 2.5232666 9.18397e-41
1.2354566 -0.11054801 2.5245013 1.0101989e-39
1.22821 -0.1739669 2.5183091 4.3324912e-39
1.228804 -0.16939448 2.5186179 3.3186895e-39
1.2312878 -0.14973959 2.5200787 1.2611686e-44
1.2292801 -0.17337283 2.5164382 3.7793174e-39
1.2298741 -0.16880043 2.516747 3.5034395e-39
1.2337644 -0.16599059 2.5101523 5.2533614e-39
1.2344936 -0.1589857 2.5109735 2.7637193e-39
1.2375968 -0.10935992 2.5207598 1.4693749e-39
1.2371593 -0.16485964 2.5039783 3.4105349e-39
1.2377486 -0.1603217 2.5042846 1.1974866e-39
1.2383384 -0.15578382 2.5045907 1.1949685e-39
1.23559 -0.12814012 2.5186586 8.4077908e-45
1.2360668 -0.12142443 2.5198727 1.836794e-40
1.2382213 -0.16427004 2.5021214 3.7793174e-39
1.2388108 -0.1597321 2.5024278 1.3818779e-39
1.2364438 -0.1527735 2.5091929 1.382238e-39
1.2391429 -0.11274417 2.5167096 2.298079e-39
1.2445931 -0.16485004 2.4896748 3.7818341e-39
1.2451785 -0.16034476 2.4899788 1.5666265e-39
1.2439997 -0.12737726 2.5027156 0
1.2445891 -0.12283933 2.503022 9.8090893e-45
1.2451791 -0.11830148 2.5033283 4.5917748e-40
1.2397556 -0.16762877 2.4981017 4.0559043e-39
1.2453631 -0.13505255 2.4976547 2.8025969e-45
1.2439308 -0.12251293 2.5043929 1.836794e-40
1.246241 -0.11771185 2.5014718 4.5917748e-40
1.2520863 -0.11470677 2.4911771 2.0225361e-39
1.2408175 -0.16703917 2.4962451 3.7789642e-39
1.2467135 -0.12166022 2.4993086 1.5414283e-44
1.2524389 -0.12705187 2.486578 4.2038954e-45
1.2524393 -0.12237692 2.4880614 6.4286249e-40
1.2536097 -0.11804134 2.4871862 7.3504691e-40
1.2547804 -0.10903084 2.4877944 8.2724394e-40
1.2540902 -0.16369522 2.4717643 2.396027e-39
1.2497941 -0.14397725 2.4862931 5.5245912e-40
1.2507755 -0.14076163 2.4854255 9.208815e-40
1.251807 -0.13140783 2.4864109 0
1.2534935 -0.12646656 2.4847343 4.2038954e-45
1.2562243 -0.12258109 2.4807124 5.5102279e-40
1.2558349 -0.1084455 2.4859509 7.350441e-40
1.2531718 -0.13317791 2.4832227 1.4012985e-45
1.2569882 -0.13077791 2.4766397 9.1838299e-41
1.2587379 -0.12343384 2.4756045 7.3470078e-40
1.2572306 -0.16195197 2.4662745 1.9354076e-39
1.2633492 -0.15420096 2.4569604 3.2214619e-39
1.2638116 -0.15806571 2.4548435 3.4083839e-39
1.2643886 -0.15362388 2.4551432 3.6813764e-39
1.2617638 -0.13453507 2.4662561 9.185091e-41
1.2599051 -0.15631713 2.4629164 3.5009382e-39
1.2604862 -0.15184447 2.4632185 3.128204e-39
1.2616487 -0.14289926 2.4638224 1.8367309e-39
1.2598635 -0.13778988 2.4688797 1.1963964e-39
1.2572724 -0.13485555 2.4747982 1.0105702e-39
1.2633917 -0.12948132 2.4647279 1.5414283e-44
1.2687454 -0.1199493 2.4574523 3.3143904e-39
1.2615329 -0.15126339 2.4613883 2.301316e-39
1.2621142 -0.1467908 2.4616902 1.7484898e-39
1.2626953 -0.14231816 2.4619923 1.1031204e-39
1.2632762 -0.1378455 2.4622941 1.8368781e-40
1.2638572 -0.13337286 2.4625962 5.6051939e-45
1.263742 -0.14173706 2.4601624 1.0109247e-39
1.2643229 -0.13726442 2.4604642 3.673602e-40
1.27097 -0.12524173 2.4514902 1.472263e-39
1.2653699 -0.13668334 2.4586341 5.51034e-40
1.2659508 -0.13221066 2.4589362 6.4285968e-40
1.2714323 -0.12910645 2.449373 8.2976067e-40
1.2669976 -0.1316296 2.4571064 8.2689361e-40
1.2724719 -0.12852938 2.4475558 1.751717e-39
1.277445 -0.12571865 2.4388778 1.8424987e-39
1.2735115 -0.12795229 2.4457386 3.0413642e-39
1.2792575 -0.12500046 2.4356174 2.5814776e-39
1.2745509 -0.12737517 2.4439211 3.2253953e-39
1.2802894 -0.12442759 2.4338133 3.0424558e-39
1.2755908 -0.12679812 2.4421036 3.3183392e-39
1.2808008 -0.12376194 2.4330413 4.3299646e-39
1.1225895 -0.21231209 2.7093976 1.1038294e-39
1.1161469 -0.20098105 2.7253942 7.3504691e-40
1.1189786 -0.16979985 2.7298462 0
1.1199225 -0.1594061 2.7313304 0
1.1208662 -0.14901228 2.7328143 9.1835496e-41
1.1228638 -0.16737442 2.7231395 0
1.1321653 -0.18689221 2.6990411 0
1.133101 -0.17658713 2.7005126 0
1.1360171 -0.18448743 2.6923919 3.6864155e-39
1.1369529 -0.17418236 2.6938632 2.1223198e-39
1.1426766 -0.15116726 2.6901565 2.3916788e-39
1.1436121 -0.14086208 2.6916277 2.0225361e-39
1.145593 -0.15906768 2.6820352 9.1849509e-41
1.1537092 -0.15024607 2.6692166 7.350441e-40
1.150272 -0.10754169 2.6893923 2.3938648e-39
1.1566005 -0.15807857 2.6611657 0
1.1672571 -0.15707339 2.6409767 5.5212e-40
1.1613474 -0.14547792 2.6560318 0
1.1622751 -0.13526131 2.6574905 0
1.1632025 -0.12504469 2.6589494 1.6573507e-39
1.1719642 -0.14457759 2.6358857 5.5173044e-40
1.1728841 -0.13444605 2.6373324 0
1.1670215 -0.12266061 2.6523571 4.2038954e-45
1.174831 -0.15234491 2.6279016 2.6733229e-39
1.1757512 -0.14221339 2.6293483 2.3027201e-39
1.1766711 -0.13208185 2.630795 3.6734198e-40
1.1717684 -0.11005995 2.6472235 0
1.1835358 -0.17151196 2.6050634 0
1.184448 -0.16146557 2.6064978 0
1.1786184 -0.14998065 2.6213639 0
1.1804583 -0.12971757 2.6242571 3.1299627e-39
1.1813782 -0.11958604 2.6257041 0
1.1822984 -0.1094544 2.6271505 0
1.1860856 -0.10709017 2.6206129 0
1.1974615 -0.16807669 2.5793543 0
1.1928712 -0.1467303 2.5949669 0
1.1898729 -0.10472596 2.6140754 0
1.2002814 -0.17571625 2.5715015 1.0109247e-39
1.2103679 -0.17460105 2.5524447 2.3935089e-39
1.2159806 -0.11891535 2.5593252 2.8025969e-44
1.2168856 -0.10895037 2.5607481 0
1.2250409 -0.12814805 2.5389569 7.3470919e-40
1.2259384 -0.11826458 2.5403681 5.5101438e-40
1.2364562 -0.10777272 2.5234582 2.023269e-39
1.2374502 -0.13490114 2.5129311 4.2038954e-45
1.2392311 -0.11529015 2.5157313 1.2857026e-39
1.2402253 -0.14241846 2.5052037 8.2654609e-40
1.2892535 -0.1230332 2.4170051 4.0515883e-39
1.1222264 -0.22327568 2.7066152 1.2882179e-39
1.1225585 -0.14243962 2.7316449 3.0381174e-39
1.1317563 -0.20767187 2.6932299 5.6051939e-45
1.1321067 -0.19812433 2.6955874 0
1.1268328 -0.14901283 2.7213318 0
1.1271861 -0.13938653 2.7237089 1.0109247e-39
1.1359959 -0.21419132 2.6830013 4.2038954e-45
1.136346 -0.20464373 2.6853585 0
1.1370468 -0.18554865 2.6900737 0
1.1318136 -0.13633339 2.7157724 0
1.1479479 -0.19305323 2.6667116 1.7481423e-39
1.1367944 -0.12365399 2.7102129 4.3270863e-39
1.1518061 -0.20899346 2.6542244 1.0206343e-39
1.1460497 -0.11754773 2.6943405 2.3020139e-39
1.150324 -0.12412095 2.6840274 1.7463094e-39
1.1506773 -0.11449464 2.6864045 2.3027201e-39
1.1610467 -0.14176516 2.6577892 0
1.1850716 -0.15007465 2.6089151 4.2038954e-45
1.1896248 -0.14707035 2.6011062 0
1.219511 -0.11479913 2.5538383 3.6734198e-40
1.2236818 -0.12121332 2.5437744 1.469424e-39
1.2243716 -0.10242642 2.548413 6.4284847e-40
1.0921327 -0.24320854 2.7582009 0
1.0952322 -0.24391422 2.7520113 2.2987769e-39
1.1247581 -0.23391414 2.698365 2.0254312e-39
1.1262534 -0.23357171 2.695596 1.6570032e-39
1.1300907 -0.23340216 2.6882648 1.3800674e-39
1.1340251 -0.17678155 2.6986728 0
1.1334774 -0.23207727 2.6821682 1.1956747e-39
1.1352884 -0.21286662 2.6847827 3.6770212e-40
1.136194 -0.20326127 2.68609 2.7586662e-40
1.1370944 -0.16816525 2.6955018 1.4012985e-45
1.1350646 -0.22208378 2.6822867 4.5918869e-40
1.1386535 -0.15758754 2.6958604 0
1.1378908 -0.21756826 2.6782818 2.8025969e-45
1.1412448 -0.23162492 2.6673629 1.9618179e-44
1.1352705 -0.22601831 2.6806412 1.8369341e-40
1.1359016 -0.22115949 2.680969 1.821688e-44
1.1365331 -0.21630073 2.6812971 4.2038954e-45
1.1371642 -0.21144193 2.6816251 5.6051939e-45
1.1443764 -0.20752127 2.6689901 1.4012985e-45
1.1450032 -0.20270063 2.6693156 9.8090893e-45
1.1456293 -0.19787988 2.669641 2.8025969e-45
1.1439482 -0.17758477 2.6793208 2.8025969e-45
1.1462471 -0.16972572 2.677392 5.6051939e-45
1.1447395 -0.15313627 2.6855612 0
1.1480676 -0.13422941 2.6851609 1.3793317e-39
1.1401953 -0.19623426 2.6806211 0
1.1496643 -0.12335221 2.6855414 2.0250809e-39
1.1507684 -0.19055386 2.662077 4.2392067e-39
1.1528653 -0.17411552 2.6632621 1.9375474e-39
1.1532738 -0.17127091 2.6633787 2.7556114e-40
1.1557356 -0.16963111 2.6591618 7.5810247e-43
1.1550282 -0.16582383 2.6617317 9.185091e-41
1.1569072 -0.15136164 2.662708 7.3576017e-40
1.1604707 -0.18076277 2.6465142 1.2871641e-39
1.1617141 -0.1711939 2.6471601 7.0064923e-45
1.1615902 -0.18014114 2.6445565 5.51034e-40
1.162212 -0.17535672 2.6448796 5.510424e-40
1.1628337 -0.17057225 2.6452024 7.0064923e-45
1.1627102 -0.17951955 2.6425991 1.6815582e-44
1.1639533 -0.16995065 2.643245 7.0064923e-45
1.1645751 -0.1651662 2.643568 0
1.1653731 -0.2180423 2.6252422 1.9618179e-44
1.1656948 -0.16454458 2.6416104 0
1.1671002 -0.21267921 2.6236207 1.821688e-44
1.1743948 -0.21293539 2.6095014 1.821688e-44
1.1742734 -0.22174372 2.6069381 1.6562941e-39
1.1804217 -0.1260107 2.6255045 9.1849509e-41
1.1759875 -0.21642163 2.605329 1.2878704e-39
1.1765995 -0.21171151 2.6056471 6.4286249e-40
1.1735163 -0.18709733 2.6193969 2.5223372e-44
1.1784494 -0.14912607 2.6219604 4.5917748e-40
1.1790661 -0.14437968 2.6222808 0
1.1802994 -0.13488689 2.6229217 0
1.1809161 -0.13014051 2.6232421 0
1.1815325 -0.12539408 2.6235626 4.2038954e-45
1.1821493 -0.1206477 2.623883 9.18397e-41
1.1764778 -0.22051981 2.6030838 1.6562941e-39
1.1770899 -0.21580969 2.6034017 1.2878704e-39
1.1813735 -0.18283874 2.6056278 1.6815582e-44
1.1856571 -0.14986773 2.6078534 1.841742e-39
1.1801771 -0.14376304 2.6203389 9.1835496e-41
1.1814101 -0.13427019 2.6209798 0
1.183877 -0.11528468 2.6222613 0
1.1781923 -0.21519774 2.6014748 1.6562941e-39
1.1788042 -0.2104876 2.6017928 1.0109247e-39
1.1794161 -0.20577745 2.6021106 3.6734899e-40
1.1800281 -0.20106734 2.6024287 1.4012985e-45
1.18064 -0.19635719 2.6027467 5.6051939e-45
1.1812519 -0.19164705 2.6030645 5.6051939e-45
1.1805195 -0.18557531 2.6064024 4.2038954e-45
1.1824758 -0.18222679 2.6037006 1.5414283e-44
1.1836997 -0.17280647 2.6043365 3.7835059e-44
1.1867596 -0.1492558 2.6059263 1.7495464e-39
1.1792947 -0.21458581 2.5995476 1.6566445e-39
1.1805185 -0.20516552 2.6001835 3.6734899e-40
1.1811305 -0.2004554 2.6005015 9.185091e-41
1.1823543 -0.19103512 2.6011374 0
1.1835783 -0.18161486 2.6017735 4.2038954e-45
1.1848022 -0.17219454 2.6024094 8.4077908e-45
1.186638 -0.15806413 2.6033633 9.1887344e-41
1.1872499 -0.15335397 2.6036813 1.4699621e-42
1.1890857 -0.13922356 2.6046352 1.2878704e-39
1.1896979 -0.13451345 2.6049533 0
1.1834568 -0.19042318 2.5992103 0
1.1840687 -0.18571304 2.5995283 0
1.1846807 -0.18100291 2.5998461 4.2038954e-45
1.1852926 -0.17629269 2.6001642 2.8025969e-45
1.1868982 -0.16848435 2.5995536 2.8025969e-45
1.1923023 -0.16803847 2.5892951 1.6815582e-44
1.1877403 -0.15745215 2.6014361 4.2038954e-44
1.1901882 -0.13861161 2.6027081 1.3800674e-39
1.1914122 -0.12919135 2.603344 0
1.1920242 -0.12448125 2.603662 0
1.1926359 -0.11977106 2.6039801 0
1.1932478 -0.11506092 2.6042979 0
1.1857829 -0.18039098 2.5979192 0
1.186395 -0.17568079 2.5982373 0
1.1940041 -0.16275533 2.5876977 4.2038954e-45
1.1952193 -0.153404 2.5883291 1.4012985e-45
1.1958265 -0.14872827 2.5886447 9.8090893e-45
1.1925144 -0.12857942 2.6014171 6.4320721e-40
1.1931264 -0.1238693 2.6017349 0
1.1943502 -0.11444902 2.602371 0
1.1949623 -0.1097389 2.6026888 0
1.1890237 -0.20890479 2.582628 2.0221886e-39
1.1896312 -0.2042291 2.5829437 6.4285968e-40
1.193058 -0.15111309 2.5932157 0
1.1969208 -0.14812075 2.5867317 4.2038954e-45
1.1966765 -0.10441671 2.6010797 0
1.190118 -0.20829731 2.5807152 1.3804163e-39
1.1913329 -0.19894594 2.5813465 4.5918869e-40
1.1968002 -0.1568647 2.5841873 0
1.1974078 -0.15218903 2.5845029 0
1.1980151 -0.1475133 2.5848186 0
1.1986226 -0.14283761 2.5851343 0
1.1942496 -0.1843114 2.5803804 0
1.1948569 -0.17963567 2.5806961 0
1.1954648 -0.17495997 2.5810115 4.2038954e-45
1.1960721 -0.17028427 2.5813272 4.2038954e-45
1.1966797 -0.1656086 2.5816429 5.6051939e-45
1.197287 -0.16093288 2.5819585 2.8025969e-45
1.1978947 -0.15625724 2.5822742 0
1.1985019 -0.15158153 2.5825899 0
1.1991092 -0.14690578 2.5829055 0
1.1997169 -0.14223014 2.5832212 0
1.2009319 -0.13287875 2.5838525 0
1.2027544 -0.1188517 2.5847995 0
1.2033617 -0.11417602 2.585115 0
1.2039695 -0.10950035 2.5854309 0
1.2029164 -0.1708308 2.567982 0
1.1977739 -0.16500112 2.57973 0
1.1989887 -0.15564974 2.5803614 0
1.1995962 -0.15097405 2.580677 0
1.2002035 -0.14629833 2.5809927 0
1.200811 -0.14162266 2.5813084 0
1.2014185 -0.13694698 2.581624 0
1.202026 -0.13227127 2.5819397 0
1.2026335 -0.12759559 2.5822551 0
1.203241 -0.1229199 2.5825708 0
1.2038487 -0.11824425 2.5828865 0
1.204456 -0.11356854 2.5832021 0
1.2050635 -0.10889284 2.5835178 0
1.205671 -0.10421708 2.5838335 0
1.2021936 -0.18415159 2.5651431 1.4012985e-45
1.2027967 -0.17951035 2.5654564 0
1.2033995 -0.17486902 2.5657697 0
1.2046055 -0.16558653 2.5663962 0
1.2067652 -0.10360964 2.5819204 0
1.2084287 -0.18921499 2.5515358 8.4077908e-45
1.2090272 -0.18460818 2.551847 1.4012985e-45
1.206295 -0.16034232 2.5648105 0
1.209913 -0.1324949 2.5666907 0
1.209507 -0.18861648 2.5496509 9.1845305e-41
1.2101053 -0.18400964 2.549962 5.6051939e-45
1.207381 -0.1597393 2.5629117 0
1.2103959 -0.13653308 2.5644784 0
1.210999 -0.13189186 2.5647917 0
1.2122049 -0.12260936 2.5654182 0
1.2128079 -0.11796811 2.5657315 0
1.2134112 -0.11332692 2.566045 0
1.2140141 -0.10868565 2.5663583 0
1.2146171 -0.10404436 2.5666716 4.2038954e-45
1.2097126 -0.16340531 2.5572608 0
1.2084674 -0.15913633 2.5610127 0
1.212085 -0.13128884 2.5628927 0
1.2138942 -0.11736516 2.5638328 0
1.216931 -0.15457325 2.5461733 0
1.220522 -0.12693247 2.5480394 0
1.2225013 -0.16440807 2.5323305 1.4012985e-45
1.2210017 -0.13094075 2.5458436 0
1.2216002 -0.12633394 2.5461545 0
1.2227972 -0.11712033 2.5467765 0
1.2233958 -0.11251357 2.5470877 0
1.2239943 -0.10790677 2.5473986 8.279544e-40
1.2217891 -0.17753114 2.5295339 1.6562941e-39
1.219686 -0.14876944 2.5427146 0
1.224474 -0.11191507 2.5452027 0
1.2250726 -0.1073083 2.5455136 1.1041783e-39
1.2222652 -0.18150944 2.5273542 2.8562667e-39
1.2228593 -0.17693709 2.527663 1.7484898e-39
1.2255522 -0.11131654 2.5433178 0
1.2261506 -0.10670973 2.5436287 7.3576017e-40
1.2263055 -0.15805358 2.5270269 0
1.2268996 -0.15348123 2.5273356 0
1.2274936 -0.1489089 2.5276442 0
1.2280878 -0.14433655 2.5279529 4.2038954e-45
1.22987 -0.13061953 2.5288789 9.1859318e-41
1.2279699 -0.15288725 2.525465 0
1.2291578 -0.14374253 2.5260823 4.2038954e-45
1.2297517 -0.13917015 2.526391 2.3822074e-44
1.230346 -0.13459784 2.5266995 1.8372845e-40
1.2309399 -0.13002549 2.5270083 4.5920551e-40
1.2315339 -0.12545313 2.527317 9.18397e-41
1.2321283 -0.12088081 2.5276256 1.4012985e-45
1.2294457 -0.14844798 2.5240343 0
1.2308221 -0.13857609 2.5245202 8.4077908e-45
1.2326043 -0.12485909 2.5254462 1.4012985e-45
1.2331984 -0.12028673 2.5257547 1.4012985e-45
1.2345626 -0.16209041 2.5098546 7.3470919e-40
1.2351521 -0.1575525 2.5101609 4.2038954e-45
1.2357416 -0.1530146 2.5104673 2.8025969e-45
1.2363315 -0.14847673 2.5107734 4.2038954e-45
1.2354584 -0.14079128 2.5148933 5.6051939e-45
1.2381004 -0.13486305 2.5116925 9.8090893e-45
1.2392793 -0.12578721 2.5123053 1.4012985e-45
1.2342682 -0.11969265 2.5238841 0
1.2350352 -0.16603875 2.5076914 2.7655158e-39
1.2362143 -0.15696293 2.5083041 8.2689361e-40
1.2373935 -0.14788714 2.5089169 4.2038954e-45
1.2379829 -0.14334923 2.5092232 0
1.2385726 -0.13881132 2.5095296 0
1.2391623 -0.13427347 2.509836 1.4012985e-45
1.2397516 -0.12973551 2.5101423 1.4012985e-45
1.2403412 -0.12519762 2.5104487 1.4012985e-45
1.2372763 -0.15637338 2.5064476 1.472263e-39
1.237866 -0.15183552 2.5067539 2.8025969e-45
1.2396346 -0.13822177 2.507673 0
1.2402241 -0.13368388 2.5079794 1.4012985e-45
1.2379373 -0.1283202 2.5140834 9.8090893e-45
1.2414035 -0.1246081 2.5085921 0
1.2419927 -0.12007014 2.5088985 0
1.2425822 -0.11553223 2.5092046 1.6541151e-39
1.2406967 -0.13763221 2.5058162 0
1.2412859 -0.1330943 2.5061226 0
1.243055 -0.11948062 2.5070417 9.185091e-41
1.2414987 -0.14614142 2.5015709 9.1843904e-41
1.2482214 -0.12939321 2.4939511 8.4077908e-45
1.2488067 -0.12488794 2.4942553 8.4077908e-45
1.2457638 -0.15583947 2.490283 1.2878704e-39
1.2475199 -0.14232369 2.4911954 0
1.2481052 -0.13781841 2.4914997 0
1.2486906 -0.13331316 2.4918036 0
1.2510318 -0.11529207 2.4930203 2.2072875e-39
1.2516173 -0.11078684 2.4933245 2.9423344e-39
1.2485744 -0.14173838 2.489352 0
1.249745 -0.13272782 2.4899604 0
1.2503304 -0.12822258 2.4902644 0
1.2526716 -0.11020149 2.4914811 3.2185626e-39
1.2543212 -0.14696692 2.4766321 1.4012985e-45
1.2496288 -0.14115304 2.4875088 0
1.2502141 -0.13664776 2.4878128 0
1.2507994 -0.13214248 2.488117 0
1.2513845 -0.12763719 2.4884212 1.4012985e-45
1.2525553 -0.11862665 2.4890294 6.4285128e-40
1.2531408 -0.11412142 2.4893336 1.1041783e-39
1.2537258 -0.10961612 2.4896379 1.1038294e-39
1.2543113 -0.10511088 2.4899418 1.4012985e-45
1.2530435 -0.16427635 2.4735944 2.5804239e-39
1.2547868 -0.15085846 2.4745002 8.2689361e-40
1.2553679 -0.14638582 2.474802 1.836766e-40
1.2518536 -0.13155714 2.4862738 0
1.254195 -0.11353608 2.4874904 1.1041783e-39
1.2546716 -0.15922262 2.4720662 2.3938592e-39
1.2558335 -0.15027733 2.4726701 1.1960251e-39
1.2575771 -0.13685946 2.4735761 0
1.259095 -0.14045924 2.469511 1.1971111e-39
1.2608325 -0.12675197 2.4705198 1.836766e-40
1.2627718 -0.15864272 2.4566607 3.2250478e-39
1.2645032 -0.14531732 2.4575603 1.7448912e-39
1.2650803 -0.14087549 2.4578602 0
1.2662346 -0.13199188 2.4584599 7.0064923e-45
1.2649659 -0.1491821 2.4554431 2.6668531e-39
1.2655427 -0.14474027 2.4557431 1.744894e-39
1.26612 -0.14029844 2.456043 3.6734899e-40
1.2655717 -0.13019232 2.4603074 4.591985e-40
1.2699304 -0.12581882 2.4533076 1.2878704e-39
1.2867578 -0.12089162 2.4224882 1.821688e-44
1.1139495 -0.2274269 2.7212255 1.472263e-39
1.1148854 -0.21712162 2.7226968 8.2976067e-40
1.1178015 -0.22502217 2.714576 1.4726133e-39
1.1187372 -0.21471687 2.7160475 1.2882207e-39
1.1196731 -0.20441173 2.7175188 7.3504691e-40
1.1283132 -0.18929698 2.7056909 9.1835496e-40
1.1320564 -0.14807636 2.7115765 0
1.1329921 -0.13777119 2.713048 1.1938629e-39
1.1983664 -0.15811178 2.5807772 0
1.2301198 -0.13947745 2.5255854 4.2038954e-45
1.2355658 -0.11757823 2.5220582 8.2651947e-40
1.117987 -0.21675628 2.7168438 2.7658689e-40
1.1183374 -0.20720872 2.7192013 7.1746481e-43
1.1225767 -0.21372811 2.7089727 4.6097815e-40
1.1282176 -0.18205726 2.7081738 0
1.1433941 -0.19605744 2.6745207 4.2038954e-45
1.2724136 0.10512661 2.5218637 1.4012985e-45
1.2754796 0.17287214 2.5374749 0
1.2752658 0.11943765 2.5209188 0
1.2747623 0.15965034 2.534657 0
1.2753607 0.16425708 2.5349679 0
1.2707125 0.17256655 2.5465522 0
1.2774962 0.020628702 2.4852507 0
1.2705388 0.0010419027 2.4924204 0
1.2762091 0.0031929798 2.4821908 0
