# .PCD v0.7 - Point Cloud Data file format
VERSION 0.7
FIELDS x y z rgb
SIZE 4 4 4 4
TYPE F F F F
COUNT 1 1 1 1
WIDTH 1041
HEIGHT 1
VIEWPOINT 0 0 0 1 0 0 0
POINTS 1041
DATA ascii
-2.2211626 0.56502628 -1.0063236 1.3898106e-39
-2.2216907 0.57147956 -1.0030997 1.8482678e-39
-2.2257521 0.57687736 -0.99425822 2.4921771e-39
-2.2238283 0.58491999 -0.99462372 1.2976136e-39
-2.2237899 0.59425122 -0.99132401 2.4010619e-39
-2.2259796 0.59852004 -0.98606807 1.4816293e-39
-2.2268789 0.60578263 -0.98192197 2.4932463e-39
-2.227246 0.61170894 -0.97916168 2.5847258e-39
-2.2271724 0.61904359 -0.97664237 2.7676836e-39
-2.2274857 0.62669611 -0.97335029 2.6762026e-39
-2.2291911 0.63573152 -0.96719754 2.3088564e-39
-2.2303805 0.63863713 -0.9641304 1.5741851e-39
-2.2314439 0.6442849 -0.96028835 2.7687598e-39
-2.2327974 0.65078199 -0.95564777 2.3088606e-39
-2.2333064 0.65863162 -0.95195293 2.8609554e-39
-2.2331362 0.66598004 -0.94959199 3.1353857e-39
-2.2330587 0.67338228 -0.94705468 3.1353857e-39
-2.2334788 0.68130362 -0.94348526 3.1361046e-39
-2.2345414 0.6878565 -0.93931848 2.6758397e-39
-2.2326541 0.69061589 -0.94152725 3.2293834e-39
-2.2355516 0.69682449 -0.9343695 3.414139e-39
-2.2354152 0.70410228 -0.9319768 3.4144935e-39
-2.2372718 0.7110616 -0.92631555 3.4130488e-39
-2.2379863 0.71888149 -0.9222827 2.2170363e-39
-2.239994 0.7263509 -0.91618061 3.0435544e-39
-2.2392542 0.73343861 -0.91488063 3.780395e-39
-2.2391756 0.74091166 -0.91231954 3.5970855e-39
-2.2385564 0.74764121 -0.91094339 3.688921e-39
-2.2419462 0.75361001 -0.90303653 2.7695039e-39
-2.2439735 0.76355618 -0.89600831 4.0580623e-39
-2.2454579 0.77018464 -0.89109832 4.4257644e-39
-2.2474918 0.78037119 -0.88397181 3.5974428e-39
-2.2457786 0.78047752 -0.88684279 4.6126864e-39
-2.2467039 0.78872812 -0.88229674 4.3339303e-39
-2.2480791 0.7976054 -0.87676048 3.964789e-39
-2.2469954 0.80468583 -0.87604755 4.426486e-39
-2.2484753 0.81248748 -0.8707217 4.1484614e-39
-2.2494202 0.81761146 -0.86727029 3.9698421e-39
-2.2519796 0.82561576 -0.86003864 4.2420948e-39
-2.252178 0.83305657 -0.85701877 4.3350051e-39
-2.2537777 0.84292275 -0.85074496 4.2420962e-39
-2.2530587 0.84457564 -0.8513695 4.9811018e-39
-2.2535756 0.85221916 -0.84773636 4.8867467e-39
-2.2534902 0.85989845 -0.84511161 4.7956259e-39
-2.25457 0.86777484 -0.84043789 4.6097969e-39
-2.255198 0.8731786 -0.83742404 5.2551733e-39
-2.2570202 0.8831591 -0.83073127 3.7883417e-39
-2.2575793 0.88998985 -0.82731897 3.6050225e-39
-2.258497 0.89598161 -0.82360041 2.4946924e-39
-2.2573712 0.90110046 -0.82366604 4.3382715e-39
-2.2588906 0.90585411 -0.81937206 1.7596483e-39
-2.2595313 0.91497362 -0.81499648 2.7684024e-39
-2.2599816 0.92527783 -0.81051552 3.8729591e-39
-2.2638061 0.93680912 -0.79986471 2.1651463e-41
-2.2643731 0.94373202 -0.79640663 2.9932576e-40
-2.2649395 0.9506548 -0.79294819 1.3080855e-39
-2.269892 0.9629935 -0.78009182 8.3966589e-39
-2.2739248 1.0332776 -0.74790084 1.806781e-38
-2.276206 1.0444139 -0.74001247 2.3509886e-38
-2.3164525 1.3779254 -0.55142391 7.8391523e-39
-2.208499 0.42321393 -1.0789587 1.1121279e-39
-2.2114446 0.42741531 -1.0724429 8.3302009e-40
-2.2115979 0.43441299 -1.0696591 7.4117759e-40
-2.2119677 0.44135088 -1.0665298 1.0166883e-39
-2.2118974 0.4484641 -1.0640839 9.2520871e-40
-2.2136948 0.45464045 -1.0588057 1.2003537e-39
-2.2136235 0.46177441 -1.0563537 1.2003551e-39
-2.213763 0.46886879 -1.0535593 1.3840261e-39
-2.2178299 0.47345987 -1.0449994 1.3851079e-39
-2.2180109 0.48049459 -1.0421556 1.3854666e-39
-2.2189429 0.48749813 -1.0380479 1.7528114e-39
-2.2194839 0.49455377 -1.0345849 1.7531687e-39
-2.2189152 0.50159907 -1.0330101 1.2943528e-39
-2.2182772 0.50471598 -1.0329692 1.5723858e-39
-2.2196107 0.5108397 -1.0284973 1.8453657e-39
-2.2194564 0.51786047 -1.026227 1.3865456e-39
-2.2198429 0.52384573 -1.0234128 1.7567771e-39
-2.2235687 0.53043514 -1.0147115 1.939718e-39
-2.2218938 0.53723866 -1.0151019 1.7564127e-39
-2.224278 0.54468387 -1.0083693 2.2163105e-39
-2.2240214 0.55232942 -1.0060483 2.5829336e-39
-2.225668 0.55882043 -1.0009127 2.400336e-39
-2.2250819 0.56287616 -1.0004443 2.1273546e-39
-2.2261548 0.56863487 -0.99654669 2.4007003e-39
-2.2261386 0.57578284 -0.99399692 2.0344556e-39
-2.2258492 0.5850516 -0.99114609 2.5847272e-39
-2.2286303 0.59110314 -0.98424214 2.4925372e-39
-2.2280667 0.59932107 -0.98223549 2.5847315e-39
-2.2293668 0.60223627 -0.9789775 2.2195517e-39
-2.2312973 0.60912526 -0.97321582 2.9542314e-39
-2.2304296 0.61522269 -0.97249007 2.1266512e-39
-2.2318304 0.624892 -0.96662539 2.6776417e-39
-2.2328064 0.6326983 -0.96215326 2.677283e-39
-2.2307346 0.63674086 -0.96421295 2.7694842e-39
-2.2336202 0.64277166 -0.95713985 3.1375465e-39
-2.2334809 0.64998955 -0.95477366 2.9538811e-39
-2.2368648 0.65550685 -0.94703895 3.1379024e-39
-2.2370543 0.66311783 -0.94397223 3.4126886e-39
-2.2373905 0.67093879 -0.94058168 3.504164e-39
-2.2373109 0.67834306 -0.93804693 3.4126943e-39
-2.2389843 0.68538165 -0.93266755 2.9517119e-39
-2.2396233 0.69330347 -0.92872679 3.5048899e-39
-2.2397671 0.70035529 -0.9259398 2.9517105e-39
-2.2395282 0.70175761 -0.92583972 3.6907217e-39
-2.2440832 0.70919842 -0.91542351 3.2282932e-39
-2.239248 0.71632057 -0.92106426 3.6907217e-39
-2.2453473 0.72491401 -0.90761089 3.0439061e-39
-2.2436249 0.73096597 -0.90835232 3.9655009e-39
-2.2435439 0.73844117 -0.90579444 3.873671e-39
-2.2434628 0.74591655 -0.90323663 4.0577007e-39
-2.2438319 0.75406462 -0.89967138 3.9658666e-39
-2.2498548 0.76056403 -0.88710362 3.6896385e-39
-2.2463253 0.76296771 -0.89222848 4.6123206e-39
-2.2502043 0.77489513 -0.88134193 3.3241196e-39
-2.2512202 0.77862012 -0.87827456 4.795263e-39
-2.2511375 0.78620815 -0.87567842 4.7945469e-39
-2.2526214 0.79506761 -0.86996442 4.3332128e-39
-2.25192 0.8011077 -0.86897725 4.2420962e-39
-2.2530158 0.80995327 -0.86392736 4.2424563e-39
-2.2532127 0.81739616 -0.86090881 4.2428165e-39
-2.2540686 0.82210898 -0.8577562 3.6039491e-39
-2.2559381 0.83096093 -0.85139066 4.0652775e-39
-2.2564938 0.83774871 -0.84799987 3.8819625e-39
-2.2573292 0.8421427 -0.84499675 4.4272147e-39
-2.2571762 0.84969264 -0.84253436 4.1527858e-39
-2.2570229 0.85724276 -0.84007215 4.2446199e-39
-2.2584655 0.8660844 -0.83443493 3.5063206e-39
-2.260262 0.87442422 -0.8283779 1.8525642e-39
-2.261169 0.88088328 -0.82450849 1.6793665e-39
-2.2602081 0.88855821 -0.8233723 2.218837e-39
-2.2622874 0.89454484 -0.81768394 2.4137072e-39
-2.2614939 0.89883894 -0.81748223 3.5157331e-39
-2.2634056 0.90820646 -0.81085938 5.6358669e-39
-2.2653451 0.91703433 -0.80438322 9.0362661e-39
-2.2674444 0.92758 -0.7970165 7.3011518e-39
-2.2680111 0.93450272 -0.7935583 6.7576862e-39
-2.2685776 0.9414255 -0.79009986 4.4697273e-39
-2.2706161 0.95134246 -0.78306353 9.8801295e-39
-2.2113571 0.4203524 -1.0751384 8.3337602e-40
-2.2149384 0.42535993 -1.067253 9.2521852e-40
-2.2155268 0.43215361 -1.0638044 8.3373335e-40
-2.2140839 0.44052488 -1.0632352 1.2032403e-39
-2.2154901 0.44628635 -1.0587703 1.0177659e-39
-2.2171969 0.45246273 -1.0536457 1.2932724e-39
-2.2171228 0.45956966 -1.0512085 1.3851051e-39
-2.2172799 0.46663105 -1.0483953 1.660257e-39
-2.2159169 0.4737407 -1.0481455 1.2947171e-39
-2.2219763 0.47813791 -1.0362736 1.2950716e-39
-2.2221553 0.48516202 -1.0334367 1.3872659e-39
-2.2226727 0.49217001 -1.0300313 1.4794601e-39
-2.220541 0.49622637 -1.0321876 1.9415256e-39
-2.2233937 0.5013603 -1.025493 2.0301101e-39
-2.2235758 0.50840873 -1.022642 2.029757e-39
-2.2236598 0.51531559 -1.0200093 1.7549694e-39
-2.2233455 0.52248645 -1.017957 1.6631339e-39
-2.223134 0.52790987 -1.0163599 1.7578729e-39
-2.2254021 0.53619337 -1.009523 2.0322821e-39
-2.2278502 0.54251665 -1.003087 2.6765726e-39
-2.2295878 0.5496127 -0.99757791 3.0453551e-39
-2.2305963 0.55667168 -0.99332023 2.770929e-39
-2.2260234 0.56359291 -0.99858743 2.4943435e-39
-2.2309203 0.56636941 -0.98927319 2.9549573e-39
-2.2301946 0.57534409 -0.9872694 3.1386241e-39
-2.2316749 0.58086389 -0.98276597 2.9535154e-39
-2.2326512 0.5884577 -0.97837019 3.0457124e-39
-2.2316425 0.59299278 -0.97844666 1.5781633e-39
-2.231787 0.59924334 -0.97594804 2.955323e-39
-2.2353423 0.60654896 -0.96727759 3.5995952e-39
-2.2352626 0.61387008 -0.96477282 3.5066821e-39
-2.2355955 0.62150174 -0.96145624 3.1382626e-39
-2.234947 0.62723505 -0.96048963 3.1371878e-39
-2.2356775 0.63322043 -0.95709109 3.3212161e-39
-2.237638 0.64009297 -0.95128429 3.5967254e-39
-2.2375569 0.64746231 -0.9487648 3.3212175e-39
-2.2416151 0.65346187 -0.93971223 3.7814726e-39
-2.2405217 0.66055954 -0.93900865 2.4932603e-39
-2.2417226 0.66849458 -0.9341085 3.6892769e-39
-2.2416408 0.67590094 -0.93157679 3.6892769e-39
-2.2426 0.68207151 -0.92772353 3.1357472e-39
-2.2408569 0.68594551 -0.92928576 3.9658764e-39
-2.2438099 0.69746894 -0.9201169 3.1357416e-39
-2.2443783 0.70026511 -0.91814411 4.2424563e-39
-2.2434983 0.70669663 -0.91731822 4.1513383e-39
-2.2487547 0.71402562 -0.90575242 3.4123285e-39
-2.2480788 0.72101539 -0.90437871 4.1502565e-39
-2.2479959 0.72849256 -0.90182388 4.3335659e-39
-2.2476478 0.73432082 -0.90031338 2.5847525e-39
-2.2477283 0.74337089 -0.89691311 4.3335702e-39
-2.2497146 0.75067431 -0.89090705 3.7811138e-39
-2.2474821 0.75413686 -0.89344907 4.8871111e-39
-2.2504661 0.76684165 -0.88380158 4.5186775e-39
-2.2561314 0.77470535 -0.87134868 3.2286631e-39
-2.2541792 0.77567226 -0.87431341 4.7034373e-39
-2.2545927 0.78434676 -0.87048393 4.5197803e-39
-2.2559574 0.79288256 -0.86508942 4.3379156e-39
-2.2565093 0.79962748 -0.86171997 3.7894165e-39
-2.2575586 0.80741763 -0.85712975 2.5868951e-39
-2.2577546 0.81486231 -0.85411191 2.2199132e-39
-2.2581654 0.81986183 -0.85161173 1.586445e-39
-2.2587247 0.83189493 -0.84632349 3.1393472e-39
-2.2593207 0.8388629 -0.84279895 1.7614588e-39
-2.2611721 0.84227514 -0.83842558 2.0474512e-39
-2.2617278 0.84906292 -0.83503467 4.070695e-39
-2.2612879 0.85481602 -0.83370709 8.30015e-39
-2.2628388 0.86263853 -0.82825291 7.9422024e-39
-2.2633944 0.86942637 -0.82486224 4.7362347e-39
-2.2653182 0.87860757 -0.81828582 6.943518e-39
-2.2673466 0.88804895 -0.81143743 9.3323297e-39
-2.2679095 0.89492565 -0.80800211 8.9664366e-39
-2.2690327 0.90453434 -0.80263084 1.0335294e-38
-2.2705162 0.91142792 -0.79762638 9.2426928e-39
-2.2737083 0.93508303 -0.78367746 1.8257296e-38
-2.2742784 0.94205189 -0.78019625 2.0932389e-38
-2.3157604 1.3027289 -0.57971501 9.0391346e-39
-1.7507951 1.0338322 -1.635792 5.435875e-39
-1.7554595 0.98494434 -1.6455023 5.6051939e-45
-1.755546 1.0697032 -1.6147915 4.2391493e-39
-1.7534795 1.1358554 -1.594445 7.4584251e-39
-1.7538775 1.1109362 -1.6027551 1.1027728e-39
-1.7539017 1.1345536 -1.5941978 5.0663834e-39
-1.766915 0.94559592 -1.6402436 0
-1.7715931 0.94295889 -1.6332524 0
-1.7716008 0.95060968 -1.6304803 5.6051939e-45
-1.7762638 0.93267125 -1.6290334 5.6051939e-45
-1.7762716 0.94032198 -1.6262614 0
-1.7762794 0.94797277 -1.6234893 5.6051939e-45
-1.7556568 1.3768502 -1.5038465 8.1044881e-39
-1.7809575 0.94533575 -1.616498 7.0064923e-45
-1.7790337 0.98707592 -1.604713 2.7658689e-40
-1.7770942 1.0138426 -1.5983535 2.7623797e-40
-1.7856358 0.94269884 -1.609507 1.8439126e-40
-1.8059933 0.88361907 -1.5962514 0
-1.8060087 0.89881766 -1.5907444 1.8439126e-40
-1.8060163 0.90641701 -1.5879909 1.8439126e-40
-1.7890177 1.4794168 -1.4102262 7.7335981e-39
-1.8152868 0.87838054 -1.5823629 1.8439126e-40
-1.8199338 0.87576133 -1.5754187 2.7658689e-40
-1.8245804 0.87314206 -1.5684745 4.6097815e-40
-1.8164736 1.0914069 -1.503531 7.3756504e-40
-1.8261424 0.95281255 -1.537094 1.1056385e-39
-1.8229718 1.0452607 -1.5091399 1.1985432e-39
-1.8213036 1.1044384 -1.4906325 1.2885682e-39
-1.8308618 0.95786214 -1.527261 1.2903885e-39
-1.8428276 0.75354314 -1.5806245 0
-1.8399533 0.82504129 -1.5597215 7.3504691e-40
-1.8385441 0.88808227 -1.5393815 1.1056385e-39
-1.8370889 0.9060412 -1.535376 1.2903885e-39
-1.8355656 0.94750088 -1.5230118 1.3829344e-39
-1.8340349 0.98174697 -1.5132613 1.3825841e-39
-1.8340429 0.98950684 -1.5104496 1.3829344e-39
-1.8325127 1.0242445 -1.5005211 1.1077741e-39
-1.8325367 1.0476882 -1.4920266 1.6566445e-39
-1.8431678 0.86266506 -1.5406977 8.2976067e-40
-1.8417517 0.88810283 -1.533929 1.1981929e-39
-1.8402694 0.93713981 -1.5187626 1.4747798e-39
-1.8402774 0.94484508 -1.5159707 1.751717e-39
-1.837323 1.0528096 -1.4820542 1.841742e-39
-1.835713 1.0648085 -1.4804609 1.6566445e-39
-1.8357209 1.0726811 -1.4776084 1.6566445e-39
-1.8519021 0.71863049 -1.5778083 1.4012985e-45
-1.8491764 0.81229037 -1.5486619 2.7658689e-40
-1.8492075 0.84248215 -1.5377227 7.3756504e-40
-1.8464301 0.88546586 -1.5269378 1.4747798e-39
-1.8464534 0.90841812 -1.5186214 1.5669768e-39
-1.8420618 1.011043 -1.4890707 1.4747798e-39
-1.8421016 1.0501161 -1.4749134 2.0257829e-39
-1.8421097 1.0579307 -1.4720819 1.8413945e-39
-1.840535 1.0699675 -1.4704146 1.8410441e-39
-1.856485 0.74584478 -1.5602146 1.4012985e-45
-1.8551308 0.77006471 -1.5537804 0
-1.8537921 0.80968887 -1.5417647 2.7658689e-40
-1.8538152 0.83233267 -1.5335603 6.4536941e-40
-1.8538227 0.83988059 -1.5308254 6.4536941e-40
-1.8524539 0.84982717 -1.5295628 9.219563e-40
-1.8524615 0.85742646 -1.5268093 1.1063476e-39
-1.8511082 0.88282883 -1.5199466 1.3825841e-39
-1.8511317 0.90578115 -1.5116303 1.5669768e-39
-1.8496852 0.92412287 -1.5074723 1.5666265e-39
-1.8482782 0.98148298 -1.4891766 1.751717e-39
-1.8453488 1.0672542 -1.4632208 1.8413945e-39
-1.8638357 0.93156606 -1.4807652 1.8428532e-39
-1.8611836 1.0080838 -1.4576755 1.6609479e-39
-1.8783561 0.94771123 -1.4502931 1.2907472e-39
-1.8755456 1.024282 -1.427453 1.2914577e-39
-1.8915538 0.5992102 -1.5535569 0
-1.8826613 0.95270634 -1.441183 1.5658866e-39
-1.8960083 0.58939773 -1.5495328 0
-1.8960158 0.59669501 -1.5468888 1.4012985e-45
-1.8949966 0.63409227 -1.535133 0
-1.9004704 0.58688253 -1.5428644 0
-1.9004779 0.59417981 -1.5402205 0
-1.9049324 0.58436733 -1.5361962 0
-1.9049401 0.59166467 -1.5335523 0
-1.9039803 0.62902886 -1.5217086 0
-1.9093949 0.58185238 -1.5295283 0
-1.9094019 0.58914953 -1.5268841 0
-1.9013705 0.93295264 -1.4165446 1.1992621e-39
-1.913857 0.57933712 -1.5228601 0
-1.9138645 0.5866344 -1.5202161 0
-1.908208 0.81079668 -1.4489857 1.2903885e-39
-1.9183264 0.58411926 -1.5135478 0
-1.9155757 0.68292272 -1.4825892 0
-1.9163314 0.68988127 -1.4787972 5.6051939e-45
-1.9156755 0.71993065 -1.4690748 1.8439126e-40
-1.9147516 0.72953349 -1.467181 1.8439406e-40
-1.9136186 0.80743754 -1.4410123 8.301222e-40
-1.9106748 0.96801847 -1.3881044 1.6588011e-39
-1.9227886 0.58160406 -1.5068796 0
-1.922796 0.5889014 -1.5042354 0
-1.9206276 0.68744355 -1.4723828 5.6051939e-45
-1.9187721 0.79619747 -1.4363161 8.301222e-40
-1.9179879 0.80495572 -1.4344895 8.2976207e-40
-1.9127508 1.0371389 -1.3596554 2.6711551e-39
-1.9123045 1.1028879 -1.3367039 1.8424651e-39
-1.9272432 0.57179165 -1.5028554 0
-1.9272585 0.57873148 -1.5003273 0
-1.926453 0.63106084 -1.4828243 0
-1.9256186 0.64673936 -1.4785877 0
-1.9165606 1.1015925 -1.3299452 1.7506254e-39
-1.9317052 0.56927651 -1.4961872 0
-1.9301165 0.65318036 -1.4686291 1.4012985e-45
-1.9250875 0.89704061 -1.389231 1.751717e-39
-1.9251189 0.92786211 -1.3780634 1.8439126e-39
-1.9233038 0.97306889 -1.3648435 2.3945654e-39
-1.921147 1.0989698 -1.3231057 1.7509771e-39
-1.9202572 1.1741358 -1.2975111 2.4867527e-39
-1.9361676 0.56676137 -1.489519 4.2038954e-45
-1.9361749 0.57405859 -1.4868749 0
-1.9354515 0.64068836 -1.464077 0
-1.9350626 0.65692705 -1.4588811 1.4012985e-45
-1.933058 0.72613978 -1.4373264 5.5317378e-40
-1.9341851 0.73290163 -1.4329746 4.6097955e-40
-1.930442 0.90067148 -1.3788314 1.1074294e-39
-1.9302725 0.90818512 -1.3764099 1.1074294e-39
-1.9301028 0.91569895 -1.3739883 1.1074294e-39
-1.9298307 0.9252063 -1.3710222 2.3020139e-39
-1.9291282 0.95266193 -1.3623147 1.5662481e-39
-1.9271842 1.0211265 -1.3409265 2.6718614e-39
-1.9254179 1.100503 -1.3153019 2.3030677e-39
-1.9406296 0.56424618 -1.4828508 0
-1.9406374 0.57154351 -1.4802068 0
-1.9396223 0.66210014 -1.4492755 2.8025969e-45
-1.9376649 0.74604547 -1.4223275 8.2976067e-40
-1.9360629 0.90486884 -1.3677759 1.1074294e-39
-1.9345425 0.92255062 -1.3639814 1.9357579e-39
-1.9336896 0.9333396 -1.3615384 1.9361082e-39
-1.9343452 0.94046754 -1.3578553 1.7492086e-39
-1.9331621 0.95868462 -1.3532946 1.7499219e-39
-1.9343742 0.96549004 -1.3487827 1.8421175e-39
-1.9326859 1.0745955 -1.3123062 2.3023544e-39
-1.945493 0.56131017 -1.4756535 1.4012985e-45
-1.9453386 0.56844634 -1.4733422 1.4012985e-45
-1.9400344 0.87098002 -1.3732537 2.1179828e-39
-1.9384346 0.93066496 -1.3544474 1.9361082e-39
-1.9384426 0.938425 -1.3516357 2.4867639e-39
-1.9384503 0.94618493 -1.3488239 2.4867639e-39
-1.9376314 0.95717382 -1.3462521 2.5786092e-39
-1.9388655 0.96293306 -1.3420801 1.7502778e-39
-1.9386894 0.97054511 -1.3396341 1.6588025e-39
-1.9385132 0.97815746 -1.3371881 1.6591612e-39
-1.9367877 0.99208224 -1.3350962 2.6708048e-39
-1.9324559 1.311603 -1.2272316 3.0399138e-39
-1.9497074 0.55891663 -1.4693618 1.4012985e-45
-1.9485886 0.64963681 -1.4385478 2.8025969e-45
-1.9447324 0.94108385 -1.3399987 1.6588025e-39
-1.9431772 0.96798855 -1.3329376 1.8421175e-39
-1.9430002 0.97559988 -1.3304933 1.9343104e-39
-1.9428233 0.98321116 -1.3280487 1.8424735e-39
-1.9406184 1.0889767 -1.2936536 2.3023586e-39
-1.9367528 1.2912343 -1.2272818 4.1433761e-39
-1.9358766 1.3054286 -1.2236508 4.0508302e-39
-1.9358852 1.3137156 -1.2206483 4.1433761e-39
-1.9549506 0.55592644 -1.461539 1.4012985e-45
-1.9533377 0.63042992 -1.4374114 2.8025969e-45
-1.9530121 0.63999963 -1.4345133 1.4012985e-45
-1.9515157 0.74578792 -1.3989069 6.4572814e-40
-1.9490863 0.89823496 -1.3480589 1.3829373e-39
-1.9477586 0.9909246 -1.3168894 2.026506e-39
-1.9409525 1.3108593 -1.2130758 4.1433761e-39
-1.9402244 1.4337401 -1.1700009 8.5633517e-39
-1.9591712 0.55352896 -1.4552385 1.4012985e-45
-1.9581859 0.62024111 -1.4328545 1.4012985e-45
-1.9572661 0.62890077 -1.4312937 0
-1.956618 0.66705537 -1.4186357 0
-1.9573003 0.67376375 -1.4150581 3.61535e-43
-1.9566331 0.68194556 -1.4132406 0
-1.9560033 0.73600531 -1.3948158 4.6169561e-40
-1.955323 0.74490714 -1.3927606 9.219563e-40
-1.9558814 0.75272602 -1.3889933 7.3756784e-40
-1.954046 0.84011686 -1.3605965 1.751717e-39
-1.9540538 0.84776765 -1.3578243 1.751717e-39
-1.9545096 0.90330553 -1.337023 1.199625e-39
-1.9534343 0.94358879 -1.3243229 1.8424735e-39
-1.9537451 0.95444024 -1.3198822 1.9343132e-39
-1.9531295 0.97076023 -1.3150426 2.0275766e-39
-1.9510684 1.0906589 -1.2753059 2.4863911e-39
-1.9470451 1.2496043 -1.2248214 3.8678766e-39
-1.945278 1.3807747 -1.1805209 4.4221238e-39
-1.9444776 1.4380653 -1.161221 8.9328545e-39
-1.9633892 0.55113274 -1.4489419 1.4012985e-45
-1.9632293 0.55827808 -1.4466367 1.4012985e-45
-1.9630696 0.56542343 -1.4443315 4.2038954e-45
-1.9629097 0.57256883 -1.442026 0
-1.9629776 0.58815688 -1.4362897 0
-1.9631552 0.60298479 -1.4306411 0
-1.9628118 0.61038518 -1.4285563 0
-1.9623936 0.61815232 -1.426465 0
-1.9617872 0.62635237 -1.4245374 0
-1.9611782 0.67193443 -1.4091349 0
-1.9623039 0.67859972 -1.40482 3.5873241e-43
-1.9621364 0.68588179 -1.4024786 1.8439406e-40
-1.9621907 0.69273019 -1.3999164 1.8439406e-40
-1.9605544 0.70314044 -1.3989412 2.7658689e-40
-1.9610372 0.71112442 -1.3952422 3.6878252e-40
-1.9605771 0.72562993 -1.3907925 7.3756504e-40
-1.960848 0.74173892 -1.3845237 5.5353952e-40
-1.9605055 0.75649238 -1.3797852 7.3721471e-40
-1.9603345 0.76386923 -1.3774155 8.2976347e-40
-1.9604136 0.7963956 -1.3655519 1.107072e-39
-1.9600141 0.80448335 -1.3633138 1.1074294e-39
-1.9594185 0.81329149 -1.3611485 1.1985474e-39
-1.959245 0.82074887 -1.3587544 1.1074294e-39
-1.9587163 0.8298291 -1.3563774 1.751717e-39
-1.9587241 0.83747983 -1.3536053 2.3020139e-39
-1.9587321 0.84513068 -1.3508333 1.8439126e-39
-1.9597042 0.85053939 -1.3472322 1.3825841e-39
-1.9587486 0.87640274 -1.3395286 1.6591654e-39
-1.9580772 0.88615537 -1.3371513 2.4867639e-39
-1.9589509 0.90078151 -1.3303937 1.5669656e-39
-1.9583269 0.91020006 -1.3280566 1.9343104e-39
-1.9581478 0.91777343 -1.3256303 1.5673257e-39
-1.9540213 1.1284682 -1.2566592 3.3150742e-39
-1.9510785 1.2968599 -1.2009331 3.8693074e-39
-1.9529383 1.2989005 -1.1970403 3.8678766e-39
-1.9672192 0.54897231 -1.4432192 3.5873241e-43
-1.9673682 0.5936324 -1.4268613 1.4012985e-45
-1.9666089 0.60149884 -1.4253142 1.4012985e-45
-1.9677944 0.61492079 -1.4184616 0
-1.9657229 0.66192317 -1.4050292 0
-1.9661943 0.67697412 -1.3988019 2.8025969e-45
-1.9660256 0.6842888 -1.3964503 1.8475279e-40
-1.9644027 0.72479022 -1.384601 4.6097955e-40
-1.9649659 0.7329362 -1.3807071 4.6133968e-40
-1.963447 0.85048574 -1.3408977 1.1992649e-39
-1.9627652 0.86038351 -1.338486 1.9357579e-39
-1.9629093 0.86810976 -1.3354554 1.3829344e-39
-1.962781 0.87579417 -1.3329022 2.5789595e-39
-1.963148 0.89251477 -1.3262494 1.9343132e-39
-1.9616119 0.96632099 -1.3022429 1.75171e-39
-1.9598736 1.0396038 -1.2787684 2.3942011e-39
-1.9611738 1.0465161 -1.2740687 2.4856709e-39
-1.9607965 1.0620784 -1.2690972 2.4867513e-39
-1.9727412 0.54582095 -1.4349811 1.4012985e-45
-1.9715991 0.59123164 -1.4205446 0
-1.9703386 0.68183559 -1.3900131 1.8475279e-40
-1.9689335 0.79209542 -1.3526386 1.1070706e-39
-1.9683791 0.80083835 -1.3504274 1.3825785e-39
-1.9682347 0.83291674 -1.3391057 1.1996222e-39
-1.9680557 0.84043878 -1.3366967 1.199625e-39
-1.9678769 0.84796077 -1.3342875 1.199632e-39
-1.9681882 0.88066477 -1.3219665 1.659164e-39
-1.9659426 0.96640265 -1.2948613 1.7524288e-39
-1.9769764 0.54341406 -1.4286588 0
-1.9753278 0.59652609 -1.4123054 5.6051939e-45
-1.9738346 0.77221984 -1.3514854 8.2941034e-40
-1.9727201 0.7913152 -1.3464923 1.8435623e-39
-1.9726636 0.83039492 -1.3324962 1.6591654e-39
-1.972173 0.83966118 -1.3299875 2.2123448e-39
-1.9730062 0.86977851 -1.3177122 1.751717e-39
-1.970777 1.0025332 -1.2736257 2.1190533e-39
-1.971302 1.0205622 -1.2662336 2.4863967e-39
-1.9650103 1.3844061 -1.145713 7.3691287e-39
-1.9657136 1.3859615 -1.1439581 8.4747532e-39
-1.9815326 0.54080915 -1.4218636 2.8025969e-45
-1.9801681 0.64666718 -1.3860074 2.8025969e-45
-1.9770896 0.82787424 -1.3258908 1.3836631e-39
-1.9706186 1.3983916 -1.1311488 8.8417533e-39
-1.9857426 0.53841627 -1.4155791 3.5873241e-43
-1.9844474 0.64423835 -1.3796186 8.4077908e-45
-1.9801961 0.98199946 -1.2650394 2.0268661e-39
-1.9788911 1.0952357 -1.2264228 2.9470049e-39
-1.9769676 1.2438745 -1.1760892 5.1578728e-39
-1.9752983 1.378607 -1.1303388 4.696194e-39
-1.9757091 1.398374 -1.1225138 1.0136448e-38
-1.989782 0.53612036 -1.4095495 2.8025969e-45
-1.9866556 0.84532642 -1.3033581 1.6606031e-39
-1.9864712 0.85286015 -1.3009543 1.6606031e-39
-1.9818633 1.3056716 -1.1454945 4.8805922e-39
-1.9941756 0.53406429 -1.4028325 0
-1.9908991 0.8503356 -1.2943478 1.9357523e-39
-1.9907138 0.85786849 -1.2919458 1.9361082e-39
-1.9905989 0.87020409 -1.2876929 2.6733201e-39
-1.9880117 1.2638087 -1.150152 5.1568218e-39
-1.9863086 1.3594292 -1.1185631 4.3299408e-39
-1.9855456 1.3742495 -1.1145139 4.6976499e-39
-1.9871507 1.3854374 -1.1077548 4.513623e-39
-1.9983571 0.53124535 -1.39675 1.4012985e-45
-1.9924819 1.1808869 -1.1724648 4.9738627e-39
-1.992986 1.2529706 -1.1456153 4.9724165e-39
-1.9925671 1.2691973 -1.1404755 5.1568078e-39
-1.9906119 1.4227571 -1.0884211 7.0036519e-39
-2.0024135 0.63497227 -1.3524599 9.2557165e-41
-2.0008836 0.85282344 -1.2765001 1.6606045e-39
-2.0001523 0.92693472 -1.2510175 2.8562667e-39
-1.9995917 1.0208066 -1.2181189 2.5789483e-39
-1.9986411 1.0432508 -1.21164 3.3143553e-39
-1.9989079 1.1218899 -1.1828294 3.9604338e-39
-1.9974744 1.1780727 -1.1650038 5.1578728e-39
-1.9973283 1.2664732 -1.1333746 4.6983604e-39
-1.9962817 1.3102616 -1.1193613 6.6287079e-39
-1.99596 1.4511321 -1.0691103 1.15165e-38
-2.007144 0.59267682 -1.3596809 3.5873241e-43
-2.0060923 0.71629018 -1.3168912 1.1063476e-39
-2.0058405 0.8343721 -1.2747388 1.6609605e-39
-2.0048418 0.8699401 -1.2636081 2.6733201e-39
-2.0041895 0.96196717 -1.2315308 2.7647773e-39
-2.0038469 0.98105985 -1.2252284 2.7633522e-39
-2.0037742 1.111294 -1.1783892 3.9597191e-39
-2.0024672 1.1752585 -1.1575428 5.8911218e-39
-2.0020874 1.2637497 -1.1262779 4.7909133e-39
-2.0014637 1.2774388 -1.1223999 5.3412088e-39
-2.0029306 1.2846143 -1.1173222 5.525233e-39
-2.0012066 1.4494146 -1.0608227 5.9033986e-39
-2.0115118 0.59092659 -1.3528973 0
-2.0107079 0.71368861 -1.3099939 1.1063476e-39
-2.0096583 0.93710548 -1.231212 2.8569729e-39
-2.0090196 0.97499871 -1.2186321 2.7647773e-39
-2.0077727 1.1187578 -1.1689098 4.7894686e-39
-2.0068274 1.2737279 -1.1146322 6.4453774e-39
-2.0157931 0.62625104 -1.3328907 1.8439126e-40
-2.015801 0.63369614 -1.3301934 2.7658689e-40
-2.0155542 0.6646381 -1.3194544 7.3756504e-40
-2.0146248 0.96933955 -1.2111577 2.4863967e-39
-2.0151038 1.0027511 -1.1982958 2.5785924e-39
-2.012728 1.1159648 -1.1615045 4.696194e-39
-2.0118864 1.2625846 -1.1100624 5.7114277e-39
-2.0124698 1.4511033 -1.0410926 7.7401365e-39
-2.0209484 0.51897341 -1.3628234 0
-2.0203533 0.63112998 -1.3233899 2.7658689e-40
-2.0203607 0.63857508 -1.3206924 4.6097815e-40
-2.0203686 0.64602017 -1.3179948 4.6097815e-40
-2.0199463 0.71603346 -1.2934648 1.1985432e-39
-2.0195224 0.95694083 -1.2073138 2.1201323e-39
-2.0191538 0.96675414 -1.204401 2.3945556e-39
-2.0174532 1.1749808 -1.1322014 6.1677311e-39
-2.0171201 1.4566189 -1.0312096 8.4826832e-39
-2.0254104 0.51645821 -1.356155 0
-2.0250747 0.5832814 -1.3326284 0
-2.0251126 0.62024981 -1.3192337 2.7658689e-40
-2.0249059 0.62856394 -1.3165867 2.7658689e-40
-2.0249133 0.63600904 -1.313889 4.6097815e-40
-2.0247142 0.6519739 -1.30847 6.4501908e-40
-2.024554 0.70588404 -1.2893023 1.1981929e-39
-2.0245695 0.72097975 -1.2838327 1.1985432e-39
-2.024379 0.74531519 -1.2753806 1.8435623e-39
-2.0243869 0.75291467 -1.2726274 1.9361082e-39
-2.0240092 0.81815255 -1.2497436 2.7647773e-39
-2.0240169 0.825858 -1.2469516 2.9484623e-39
-2.023572 0.96539962 -1.197389 2.3041635e-39
-2.0242021 1.1018213 -1.147126 3.961517e-39
-2.0228977 1.1137871 -1.145025 4.8813083e-39
-2.0224543 1.1803315 -1.1217821 5.4344821e-39
-2.0305631 0.51288295 -1.3486971 2.8025969e-45
-2.0297227 0.53610295 -1.3417504 0
-2.0296261 0.61030763 -1.3151562 0
-2.0293212 0.67187965 -1.2934712 9.219563e-40
-2.0291927 0.72592628 -1.2742006 1.751717e-39
-2.0290182 0.73509681 -1.27119 1.5669768e-39
-2.0294814 0.81496346 -1.2416037 1.6606045e-39
-2.028918 0.83701319 -1.2346089 1.8439154e-39
-2.028434 0.95302022 -1.1935986 2.3041635e-39
-2.0276105 1.1237929 -1.1334165 4.9738627e-39
-2.0272675 1.2155224 -1.1009216 6.4446767e-39
-2.0267482 1.4537258 -1.0159075 3.0413768e-39
-2.034575 0.51061535 -1.3427039 2.8025969e-45
-2.0342143 0.53357112 -1.3350381 0
-2.0341322 0.59297204 -1.3137579 0
-2.034147 0.60775924 -1.3084 1.8439126e-40
-2.0339129 0.67679232 -1.2839049 1.1056385e-39
-2.0338235 0.73842055 -1.2618337 1.7510079e-39
-2.0338314 0.74596852 -1.259099 1.9357579e-39
-2.033464 0.8436625 -1.2244937 2.7658689e-39
-2.0332408 0.94237763 -1.1892761 2.9491685e-39
-2.032742 1.1162856 -1.1274121 4.8813083e-39
-2.0324063 1.1420436 -1.1186937 5.0657052e-39
-2.0324564 1.1910328 -1.1009436 6.1677311e-39
-2.0337057 1.1996081 -1.0957307 5.4344723e-39
-2.0332694 1.2157482 -1.0906506 5.6174286e-39
-2.0387726 0.50822681 -1.3364391 2.8025969e-45
-2.0388117 0.52350736 -1.3308624 0
-2.0387061 0.53103942 -1.3283259 0
-2.0387135 0.53838485 -1.3256644 0
-2.038497 0.67420846 -1.2770545 1.2907388e-39
-2.0383246 0.7607708 -1.2461325 1.6595213e-39
-2.0378788 0.93510103 -1.1840268 3.2253981e-39
-2.0377181 1.0372034 -1.1474812 3.5923701e-39
-2.0376599 1.1135135 -1.1200626 4.8813083e-39
-2.0373774 1.1192001 -1.1184919 4.2373878e-39
-2.0375376 1.1344143 -1.1127336 5.1568218e-39
-2.0443504 0.50503606 -1.3281206 2.8025969e-45
-2.0432665 0.51369494 -1.3268384 0
-2.0432053 0.53585315 -1.3189521 0
-2.0432045 0.61744982 -1.2895296 5.5317378e-40
-2.0425344 0.66371268 -1.2739849 8.2976067e-40
-2.0430312 0.71057367 -1.2562438 1.8439126e-39
-2.0427263 0.75826311 -1.2395645 1.751717e-39
-2.0437658 0.9965632 -1.1518692 3.039209e-39
-2.0435541 1.0043701 -1.1494135 3.1310501e-39
-2.0426006 1.0344512 -1.1401845 3.5923701e-39
-2.0438666 1.1093622 -1.1110234 4.3292233e-39
-2.0424931 1.1316211 -1.1053284 5.706753e-39
-2.0422323 1.292714 -1.0476815 7.0914839e-39
-2.0422409 1.3010619 -1.0446566 6.9077975e-39
-2.0427463 1.4004049 -1.0079756 3.7764083e-39
-2.0485566 0.50264204 -1.3218434 2.8025969e-45
-2.0479305 0.51977468 -1.3167281 2.8025969e-45
-2.0477343 0.57004875 -1.2989323 1.8439126e-40
-2.0481918 0.71673673 -1.2452604 1.1989117e-39
-2.0482154 0.77175552 -1.2253807 1.8435567e-39
-2.0476978 0.84352088 -1.2003807 2.3034586e-39
-2.0482101 0.88318551 -1.1852083 2.3963647e-39
-2.0475602 0.91866809 -1.1735163 3.4097908e-39
-2.0474057 1.0289092 -1.1340262 3.1317563e-39
-2.0475078 1.0556538 -1.1242086 3.8686011e-39
-2.0474958 1.1079694 -1.1053637 4.8813083e-39
-2.0482578 1.117457 -1.1006494 4.4210588e-39
-2.0480392 1.1254306 -1.0981449 4.4221336e-39
-2.0478213 1.133404 -1.0956404 4.5143292e-39
-2.0474083 1.2923126 -1.0390389 6.907094e-39
-2.0473738 1.471971 -0.97431266 3.7760551e-39
-2.0527604 0.50024915 -1.3155701 7.0064923e-45
-2.0521622 0.52190167 -1.3087775 2.8025969e-45
-2.0522184 0.56017148 -1.2948817 1.8439126e-40
-2.0523789 0.61335194 -1.2754323 3.6879093e-40
-2.0530925 0.75233853 -1.224103 1.7513652e-39
-2.0526459 0.76922804 -1.2187703 1.8435609e-39
-2.0522895 0.78474027 -1.2137816 2.6736733e-39
-2.0521448 0.84099311 -1.1937431 2.1204995e-39
-2.0523362 0.94270563 -1.1567405 3.4094404e-39
-2.0529411 1.112007 -1.0946642 4.329938e-39
-2.0522676 1.1387103 -1.0861782 4.6065207e-39
-2.0524173 1.2013462 -1.0633376 6.6283575e-39
-2.0524671 1.2811694 -1.034469 7.3677218e-39
-2.0535581 1.2854245 -1.0310823 6.0791438e-39
-2.0524583 1.3036553 -1.0263752 7.4609895e-39
-2.0524671 1.3120033 -1.0233505 7.464602e-39
-2.0521359 1.335616 -1.0153979 5.2490174e-39
-2.0525334 1.4436091 -0.97578138 3.8682508e-39
-2.0525162 1.4593402 -0.97013807 3.8679005e-39
-2.0525506 1.4605685 -0.9696365 3.7764013e-39
-2.0537591 1.4817376 -0.95995164 8.3083687e-40
-2.0525851 1.4944875 -0.95734638 1.0601071e-38
-2.0567727 0.50053614 -1.3086547 1.0789998e-42
-2.0565708 0.51221496 -1.304786 9.2198432e-41
-2.0578578 0.51863593 -1.3002858 2.8025969e-45
-2.0564342 0.61903375 -1.2664993 4.6098375e-40
-2.0567122 0.71980739 -1.229689 1.6591654e-39
-2.0574923 0.74983102 -1.2175379 1.5684117e-39
-2.0569677 0.7821033 -1.2067904 2.6733201e-39
-2.0569911 0.79956198 -1.2004559 2.8580701e-39
-2.0570014 0.82327873 -1.1918861 2.2112602e-39
-2.0573778 1.1361375 -1.0784305 5.2500894e-39
-2.0575261 1.2700261 -1.0298989 7.4584727e-39
-2.05809 1.2931893 -1.020589 6.9106897e-39
-2.0576375 1.3131115 -1.0141732 5.9873027e-39
-2.0575886 1.3258219 -1.0096726 6.4446767e-39
-2.0576701 1.399514 -0.98296154 4.6039983e-39
-2.0584123 1.4945794 -0.94742078 1.1056287e-39
-2.0611076 0.49633703 -1.3028095 0
-2.0611715 0.52572608 -1.2921032 7.0064923e-45
-2.0608983 0.60879707 -1.262612 4.6170122e-40
-2.0613334 0.61548024 -1.2594628 8.2941034e-40
-2.0620732 0.62272447 -1.2555951 5.5354232e-40
-2.0618722 0.63036823 -1.2531798 6.4537782e-40
-2.061882 0.74797666 -1.2107543 1.8435609e-39
-2.0616786 0.75550044 -1.2083859 1.8432063e-39
-2.0624838 0.78739601 -1.1955183 2.0268731e-39
-2.0617027 0.79690611 -1.1934148 3.2246947e-39
-2.0620136 0.94827306 -1.138304 3.5945408e-39
-2.0620217 0.95620018 -1.1354319 3.4097908e-39
-2.0620298 0.96412718 -1.1325595 3.4097908e-39
-2.0622284 0.97765517 -1.1273445 3.1310557e-39
-2.0621881 1.079337 -1.0907462 4.2377424e-39
-2.0625529 1.269709 -1.0214796 7.183325e-39
-2.0624461 1.3103595 -1.0070024 5.9872929e-39
-2.0627539 1.3377285 -0.9966107 6.2599267e-39
-2.0627966 1.3797899 -0.98137039 4.6965625e-39
-2.0651615 0.49579862 -1.2961216 2.8025969e-45
-2.0663037 0.56660193 -1.268651 1.8439406e-40
-2.0657156 0.57461268 -1.2667605 2.7658689e-40
-2.0659158 0.58110315 -1.2640802 1.8475279e-40
-2.0657222 0.58835393 -1.2617947 3.6878672e-40
-2.0658023 0.5973143 -1.258427 6.4536941e-40
-2.0658786 0.60546899 -1.2553574 8.2976067e-40
-2.0665538 0.61297941 -1.251503 6.4501348e-40
-2.0663626 0.62060112 -1.2490791 5.5318219e-40
-2.0661693 0.62828308 -1.2466371 7.3685598e-40
-2.0660148 0.63655818 -1.2439154 7.3756924e-40
-2.0659931 0.65120912 -1.2386693 1.3825841e-39
-2.06703 0.65850598 -1.234278 9.2232484e-40
-2.0660772 0.66737437 -1.2326971 1.5669768e-39
-2.066287 0.74546844 -1.2041802 1.7517212e-39
-2.0660832 0.7529918 -1.2018137 1.8435609e-39
-2.0664065 0.7865451 -1.1891657 3.2246947e-39
-2.0664141 0.79425025 -1.1863736 3.2246947e-39
-2.0664222 0.80195576 -1.1835817 3.0424558e-39
-2.066438 0.81736648 -1.1779979 3.1346514e-39
-2.0664616 0.84048259 -1.1696225 3.1346514e-39
-2.066869 0.95346797 -1.1281881 3.4097908e-39
-2.0668774 0.96139503 -1.125316 3.8679005e-39
-2.0670469 0.96920747 -1.1222104 3.0402866e-39
-2.0666094 0.98353654 -1.1177864 3.2232457e-39
-2.0671268 1.0566672 -1.090537 4.0529924e-39
-2.067071 1.0765847 -1.0834497 4.237392e-39
-2.0670893 1.0978553 -1.0757481 4.3288576e-39
-2.0687919 1.3112411 -0.99591154 5.4334101e-39
-2.0683889 1.3336661 -0.98850894 4.8820328e-39
-2.0681553 1.3419155 -0.98593122 4.5143292e-39
-2.0677412 1.3623154 -0.97927785 4.2377438e-39
-2.0679579 1.393715 -0.96758735 4.3281401e-39
-2.0679665 1.4021274 -0.96453935 4.603648e-39
-2.0681236 1.4687599 -0.94024527 3.9586471e-39
-2.068459 1.4761621 -0.93700659 3.4036755e-39
-2.0700243 0.58629817 -1.255232 3.6878672e-40
-2.0704234 0.59545785 -1.2512517 7.3756504e-40
-2.0705307 0.62637931 -1.2399193 5.5354232e-40
-2.0706849 0.65722489 -1.2285347 1.5669768e-39
-2.0709944 0.67133623 -1.222921 1.1992663e-39
-2.071022 0.79879642 -1.1769115 2.1204995e-39
-2.0712574 0.81697536 -1.1699575 3.1346514e-39
-2.071826 0.82372636 -1.1665572 2.2126993e-39
-2.0715675 0.90823478 -1.1365228 3.5945408e-39
-2.0717325 0.96658981 -1.1152 3.8682508e-39
-2.0714033 0.97442913 -1.1129321 3.0406523e-39
-2.0718639 0.98599857 -1.1079781 3.5945408e-39
-2.072535 0.99906278 -1.1021281 3.407637e-39
-2.0720694 1.0780236 -1.0744451 4.2377424e-39
-2.0722001 1.0905509 -1.0697062 4.6965625e-39
-2.0722084 1.0986547 -1.0667698 4.7894686e-39
-2.0727718 1.1334296 -1.0532731 4.6983632e-39
-2.0723724 1.1440248 -1.0501306 5.2500894e-39
-2.0725121 1.1653275 -1.0422121 5.6177999e-39
-2.0727112 1.2448834 -1.0131867 7.6453653e-39
-2.0728903 1.2663387 -1.0051455 6.2638938e-39
-2.0728686 1.283798 -0.99888659 7.552832e-39
-2.0725207 1.2884068 -0.99781513 7.0028952e-39
-2.0733008 1.4053148 -0.9543342 3.5927457e-39
-2.0724094 1.4401869 -0.94327259 3.592394e-39
-2.0744812 0.57659078 -1.2511663 2.7658969e-40
-2.0749836 0.60033685 -1.2417508 8.2976067e-40
-2.0751302 0.61605543 -1.2358336 9.2160738e-40
-2.0767477 0.74015391 -1.1883383 1.8442699e-39
-2.0761888 0.89259118 -1.1343187 2.5811119e-39
-2.0763893 0.9133938 -1.1264765 3.5938317e-39
-2.0767467 0.98324645 -1.1006815 3.8682508e-39
-2.0773652 1.1412107 -1.0426699 5.4344821e-39
-2.077812 1.2751751 -0.99360353 8.0159401e-39
-2.0779986 1.3059647 -0.98218399 6.7219839e-39
-2.0796218 0.48494875 -1.2754856 7.2166871e-43
-2.0791383 0.51559895 -1.2652541 1.8439126e-40
-2.0791454 0.52294439 -1.2625927 1.8439126e-40
-2.0807436 0.75272316 -1.1770222 2.0283067e-39
-2.081445 0.85774094 -1.1379621 2.5807588e-39
-2.0807247 0.96012902 -1.102264 3.2232457e-39
-2.0804331 0.97911036 -1.0959145 3.3157945e-39
-2.0827379 1.0279157 -1.0744022 3.5001857e-39
-2.0833211 1.3177185 -0.96891046 6.4446767e-39
-2.0838592 0.48253489 -1.2691621 7.1886611e-43
-2.0841837 0.52807164 -1.2521912 9.1845305e-41
-2.0836346 0.61983573 -1.2200329 7.3793638e-40
-2.0852926 0.81444865 -1.1470417 3.4097964e-39
-2.0860171 0.90796703 -1.112089 3.5016361e-39
-2.08901 0.5688991 -1.229275 3.6914405e-40
-2.089139 0.63927096 -1.2036806 1.5669768e-39
-2.0891697 0.66946262 -1.1927414 1.7549638e-39
-2.0894001 0.69154787 -1.1843865 1.3851051e-39
-2.0894268 0.70104641 -1.1809154 2.8580701e-39
-2.0902455 0.81403673 -1.1387815 3.1346514e-39
-2.0897257 0.81896448 -1.1378869 2.5803986e-39
-2.0922682 1.0909046 -1.0355102 4.6047312e-39
-2.0943031 1.4272374 -0.91077399 1.5660287e-38
-2.0933568 0.6282782 -1.200484 1.0145275e-39
-2.0934966 0.63570619 -1.1975679 1.751717e-39
-2.0929458 0.64306027 -1.1958516 1.2903941e-39
-2.0937696 0.65176517 -1.1913139 2.1201492e-39
-2.0937774 0.65931314 -1.188579 2.1204995e-39
-2.0941761 0.6654371 -1.1856937 1.475863e-39
-2.0939684 0.67287749 -1.1833636 1.7513652e-39
-2.0940583 0.68322861 -1.1794784 2.2152189e-39
-2.0940738 0.69842726 -1.1739714 2.8580701e-39
-2.0950501 0.7858457 -1.1407908 2.2126993e-39
-2.0950143 0.83464223 -1.1232558 3.6863861e-39
-2.0950303 0.85016221 -1.1176325 3.6863861e-39
-2.0956769 0.93403012 -1.0862918 3.5945408e-39
-2.0959685 0.95292872 -1.0789815 4.0522917e-39
-2.0962689 0.96425301 -1.0743887 3.5945408e-39
-2.096993 1.0927929 -1.0268077 4.7887595e-39
-2.0970013 1.1008967 -1.0238714 5.1568218e-39
-2.0973189 1.1136241 -1.0187428 5.0660583e-39
-2.0980392 1.2223151 -0.97832662 7.8304923e-39
-2.0984256 1.3028035 -0.94864601 5.7114277e-39
-2.0991912 1.4088249 -0.90911537 1.9542937e-38
-2.0963528 0.4781571 -1.2495313 1.847542e-40
-2.0977311 0.57261628 -1.2131298 7.3756504e-40
-2.097677 0.62582082 -1.194036 1.1978341e-39
-2.0980809 0.63312238 -1.1907176 1.8439126e-39
-2.0980883 0.6406188 -1.1880013 1.9357579e-39
-2.0980961 0.64811534 -1.1852851 2.2123448e-39
-2.0981038 0.65561181 -1.1825689 2.3963773e-39
-2.0985265 0.66295743 -1.1792026 1.7513652e-39
-2.0984082 0.67180735 -1.1762121 2.6733201e-39
-2.0981956 0.67832553 -1.1742225 1.5684117e-39
-2.0979857 0.68578494 -1.1718892 1.7528044e-39
-2.099515 0.78329664 -1.1341301 2.3045348e-39
-2.0992992 0.79093784 -1.1317416 2.3967318e-39
-2.0988169 0.79653001 -1.1305437 2.3967318e-39
-2.1003501 0.81286705 -1.1220492 2.5800469e-39
-2.1008079 0.94226944 -1.0746101 3.6867364e-39
-2.1008158 0.95019644 -1.0717378 3.5945408e-39
-2.1017017 1.0872692 -1.0208063 4.2381109e-39
-2.1014695 1.0952817 -1.0183113 4.5139775e-39
-2.1031775 1.1039797 -1.0122747 4.5139775e-39
-2.10232 1.1189749 -1.0083232 5.0657052e-39
-2.1027675 1.2223494 -0.97028702 7.646101e-39
-2.1031742 1.2857544 -0.946733 5.9876545e-39
-2.1035392 1.3082743 -0.93799293 5.6188733e-39
-2.1045482 1.3158962 -0.93353128 4.8823985e-39
-2.1039224 1.3313576 -0.92901802 5.0657052e-39
-2.1043417 1.3719832 -0.91365641 4.2377424e-39
-2.1042325 1.4110956 -0.89973849 2.755177e-40
-2.1057694 1.4421718 -0.88592297 1.1056287e-39
-2.1031289 0.63701469 -1.1807442 1.1070818e-39
-2.1030035 0.64459044 -1.1782252 1.4747812e-39
-2.1026876 0.65302801 -1.1757187 2.3963773e-39
-2.1028745 0.66047871 -1.1727146 1.4758616e-39
-2.1043735 0.73890096 -1.1418912 2.0279521e-39
-2.1039963 0.77196383 -1.1306094 2.304895e-39
-2.1044652 0.79049289 -1.123132 3.3190427e-39
-2.1044729 0.79825288 -1.1203203 3.4112383e-39
-2.1058035 0.93632954 -1.0682709 3.2250436e-39
-2.1054626 0.95323551 -1.0627536 3.0406523e-39
-2.1069121 1.0953104 -1.009061 4.6983618e-39
-2.1076329 1.1093388 -1.0027785 4.6061731e-39
-2.1073973 1.1173736 -1.0002813 4.7902057e-39
-2.1077724 1.1948365 -0.97171175 6.6341043e-39
-2.1090751 1.3368703 -0.91828287 5.0657052e-39
-2.1095791 1.4199389 -0.88747287 3.1299627e-39
-2.1060653 0.47837204 -1.2329654 2.7623797e-40
-2.1060727 0.48571748 -1.2303038 2.7658689e-40
-2.1058755 0.49415877 -1.2275949 9.2920101e-41
-2.1056731 0.50140542 -1.225325 9.2565573e-41
-2.1070411 0.58337706 -1.1934441 6.4537361e-40
-2.1072333 0.61296177 -1.1824496 1.3825841e-39
-2.1074362 0.64253241 -1.1714418 1.4747798e-39
-2.1072257 0.64994133 -1.1691277 1.4758588e-39
-2.108429 0.75309652 -1.1298873 3.3190427e-39
-2.1115091 1.0554588 -1.015627 3.8696843e-39
-2.1111724 1.0730959 -1.0098388 4.0537196e-39
-2.1128054 1.1831772 -0.96737146 6.2631792e-39
-2.1147122 1.3661377 -0.89815891 4.4217735e-39
-2.1150393 1.4649189 -0.86198366 1.8367099e-40
-2.1103971 0.47446525 -1.2270206 1.847542e-40
-2.1101027 0.48455477 -1.2238815 1.847542e-40
-2.1101103 0.49175429 -1.2212726 1.8511573e-40
-2.1099069 0.49900052 -1.2190045 1.8440808e-40
-2.1109605 0.52007478 -1.2096171 1.44614e-42
-2.1113808 0.55747277 -1.1954174 6.4536941e-40
-2.1114037 0.579808 -1.1873246 9.219563e-40
-2.1118174 0.61037791 -1.1755993 1.3825841e-39
-2.1123989 0.61784363 -1.1719201 1.2907416e-39
-2.1115522 0.64747745 -1.1626707 1.2921822e-39
-2.1134996 0.73687094 -1.1271303 3.2264939e-39
-2.1148398 0.94016999 -1.0515454 2.9495399e-39
-2.1132278 0.46578208 -1.2253454 1.8439546e-40
-2.1146061 0.47206467 -1.22074 9.2564171e-41
-2.1143193 0.48216134 -1.2175858 2.7623096e-40
-2.1141157 0.48937878 -1.2153298 1.8511433e-40
-2.1154892 0.52492017 -1.2001818 4.6097815e-40
-2.1150715 0.53214115 -1.1982868 3.6878672e-40
-2.1155117 0.54710126 -1.192145 2.7801762e-40
-2.1159334 0.55490679 -1.1886144 5.5282345e-40
-2.1159105 0.58670819 -1.1771857 8.2940614e-40
-2.1169398 0.60797435 -1.1677703 8.3084387e-40
-2.1167271 0.61538243 -1.1654599 9.2304511e-40
-2.1168542 0.64630538 -1.1540928 2.3963773e-39
-2.1181965 0.73394179 -1.120213 2.2123434e-39
-2.1187398 0.82126909 -1.0878006 3.4115886e-39
-2.1183054 0.82667947 -1.0865866 3.8704144e-39
-2.1183133 0.8343848 -1.0837947 3.6878252e-39
-2.1187713 0.85230899 -1.0765539 3.8704144e-39
-2.1236737 1.3255507 -0.89758164 4.3306611e-39
-2.1249957 1.3738828 -0.87790865 3.7778418e-39
-2.1257112 1.4693763 -0.84225911 3.3143553e-39
-2.1268806 1.4746306 -0.83837926 2.8537485e-39
-2.1190162 0.46246567 -1.2167145 9.256277e-41
-2.1195681 0.50775617 -1.1994464 2.7731556e-40
-2.1195924 0.52219498 -1.194198 4.6097815e-40
-2.119086 0.52958614 -1.1923929 2.5265411e-42
-2.1200252 0.53715909 -1.1880674 4.6097815e-40
-2.12097 0.59021729 -1.1673313 1.1985432e-39
-2.1209853 0.6052103 -1.1618989 1.1985432e-39
-2.121053 0.61292213 -1.1590027 1.1981929e-39
-2.1208396 0.6203298 -1.1566937 1.3825799e-39
-2.1205606 0.63553369 -1.1516848 1.5669754e-39
-2.1224508 0.64297187 -1.1457944 1.6588123e-39
-2.1219316 0.65991366 -1.1405665 2.6733201e-39
-2.1223631 0.73045295 -1.1143973 2.304539e-39
-2.1229386 0.74697006 -1.1074643 3.4112383e-39
-2.1221318 0.75498492 -1.1059438 2.1219428e-39
-2.1229701 0.7777915 -1.0962968 3.4112383e-39
-2.1230013 0.80861288 -1.085129 3.7800208e-39
-2.1230175 0.8240236 -1.0795455 3.8700641e-39
-2.1240158 0.87557262 -1.0592613 3.8707675e-39
-2.1248128 0.97452956 -1.0222249 3.1328479e-39
-2.1267748 1.1246568 -0.96475899 5.6177999e-39
-2.1279089 1.1999475 -0.93568367 7.552832e-39
-2.1296508 1.3252726 -0.88753462 4.6061661e-39
-2.129648 1.3794993 -0.86798567 3.7774887e-39
-2.1232221 0.46006769 -1.2104391 9.2201235e-41
-2.1245463 0.53461075 -1.1813114 4.6097815e-40
-2.1245539 0.54200447 -1.1786323 5.5317378e-40
-2.1243343 0.5738551 -1.1675199 6.4501488e-40
-2.1255462 0.5801369 -1.1631972 8.2941034e-40
-2.1255691 0.60262638 -1.1550484 1.2903885e-39
-2.1269867 0.64088529 -1.1388458 1.7510079e-39
-2.1265993 0.64796299 -1.1369513 1.6595255e-39
-2.126384 0.67156094 -1.1288075 2.1201464e-39
-2.1271107 0.71194559 -1.113011 3.3190427e-39
-2.1271265 0.72724712 -1.1074668 3.3186895e-39
-2.1265597 0.73551571 -1.1054472 2.3967347e-39
-2.1271422 0.74254864 -1.1019228 3.4108852e-39
-2.1271498 0.75019938 -1.0991505 3.4108852e-39
-2.1271577 0.75785011 -1.0963786 3.4112383e-39
-2.1278851 0.76669574 -1.0919542 2.3059782e-39
-2.127682 0.77513564 -1.0892557 3.5034339e-39
-2.1276896 0.78284097 -1.0864638 3.4108852e-39
-2.128206 0.79263967 -1.0820535 3.6878252e-39
-2.1282141 0.80039972 -1.0792419 3.6878252e-39
-2.1277134 0.80595714 -1.0780882 3.7800208e-39
-2.1277368 0.82907313 -1.0697124 4.0548098e-39
-2.1324251 1.1518071 -0.94537616 5.9873055e-39
-2.1329474 1.2053381 -0.92518646 7.0028952e-39
-2.1354105 1.3079451 -0.88400483 4.6980058e-39
-2.1348035 1.3307853 -0.87679958 5.0646262e-39
-2.1354446 1.3459672 -0.87023664 4.7887595e-39
-2.1353135 1.3514328 -0.86848813 3.9618841e-39
-2.1273072 0.45771876 -1.2043515 2.7659109e-40
-2.1296144 0.53141481 -1.1738598 2.7731556e-40
-2.1290751 0.53945613 -1.171876 5.5317378e-40
-2.1296592 0.54642314 -1.1683723 5.5281925e-40
-2.1301377 0.58504957 -1.1536307 1.1063476e-39
-2.1307006 0.63850081 -1.1334012 2.3963773e-39
-2.1309628 0.64547819 -1.1304395 1.5684117e-39
-2.1309223 0.65338886 -1.1276561 1.3854596e-39
-2.1312873 0.71546978 -1.1046503 3.136815e-39
-2.1318047 0.72461021 -1.1004757 3.5034395e-39
-2.1318123 0.73226094 -1.0977037 3.4105349e-39
-2.1318204 0.73991174 -1.0949316 3.4108852e-39
-2.1322796 0.74714315 -1.0915443 2.3970892e-39
-2.1318359 0.75521314 -1.0893872 3.5034395e-39
-2.1323338 0.76416147 -1.0853153 2.6733173e-39
-2.1323936 0.77247989 -1.0822146 3.5034395e-39
-2.1318836 0.77941644 -1.0805787 2.7655172e-39
-2.1316206 0.7955392 -1.0752114 2.9499084e-39
-2.1342039 0.9280678 -1.0230367 4.052642e-39
-2.1342118 0.93594027 -1.0201843 3.5945408e-39
-2.1372933 1.1237701 -0.94722128 5.6177999e-39
-2.1373186 1.1482648 -0.93834627 6.0794984e-39
-2.1379688 1.194277 -0.92065012 7.2798422e-39
-2.1380026 1.2271807 -0.90872824 7.8304923e-39
-2.1392887 1.3048291 -0.87854505 5.6177999e-39
-2.1406212 1.3345647 -0.86556035 5.0646262e-39
-2.1406298 1.3430444 -0.86248779 4.237392e-39
-2.1406384 1.3515241 -0.85941529 4.237392e-39
-2.1315031 0.45532602 -1.1980914 4.6062362e-40
-2.1315897 0.46239239 -1.1953963 2.7767009e-40
-2.1335886 0.52951401 -1.1677988 5.5317378e-40
-2.1338685 0.53642583 -1.1648312 2.776757e-40
-2.1341741 0.57442278 -1.1506108 8.2941034e-40
-2.1342051 0.60586196 -1.139221 1.1059972e-39
-2.1350737 0.65839636 -1.1188034 1.6606144e-39
-2.1357579 0.71128893 -1.0985684 2.305618e-39
-2.1364908 0.72962397 -1.0907124 3.4105349e-39
-2.1364985 0.73727465 -1.0879403 3.136815e-39
-2.1365063 0.7449255 -1.0851682 3.1364647e-39
-2.1366804 0.7529583 -1.0819764 2.5811259e-39
-2.1367805 0.76162809 -1.0786799 2.5822049e-39
-2.1385775 0.85561973 -1.0417361 3.3168833e-39
-2.1391592 0.94270933 -1.0093439 3.1332081e-39
-2.141649 1.1243812 -0.93960714 5.4362855e-39
-2.141906 1.1464159 -0.93122548 5.7121634e-39
-2.1430073 1.1996677 -0.91015291 6.6348077e-39
-2.143281 1.2776623 -0.88156354 5.0678632e-39
-2.1443934 1.3019518 -0.87091666 5.0671429e-39
-2.1450911 1.3249865 -0.8614254 4.6980114e-39
-2.1458237 1.3486015 -0.85166669 4.237392e-39
-2.1378305 0.45171475 -1.1886513 2.7731136e-40
-2.1383715 0.5266369 -1.1607165 1.8583039e-40
-2.1387112 0.55696648 -1.1492029 8.2976067e-40
-2.1390824 0.573394 -1.1426487 5.5425698e-40
-2.1393135 0.58737856 -1.1372143 1.1056385e-39
-2.1405962 0.72542977 -1.085255 3.5034395e-39
-2.1424809 0.82341576 -1.0467222 3.7800208e-39
-2.1418798 0.82881117 -1.0457975 3.7800208e-39
-2.1434231 0.85447758 -1.0339216 3.2257666e-39
-2.1431301 0.86479896 -1.0306979 3.8707675e-39
-2.1431618 0.89605737 -1.019372 3.6860329e-39
-2.1431696 0.90387195 -1.0165404 3.6867364e-39
-2.1431777 0.9116866 -1.0137088 3.6867364e-39
-2.1436105 0.92133242 -1.0094959 3.408716e-39
-2.1438475 0.9383859 -1.0029444 3.4094404e-39
-2.1454773 0.96583432 -0.99027932 3.5005515e-39
-2.1448755 0.99952489 -0.97915244 3.5927443e-39
-2.1473122 1.1508012 -0.92046601 6.356444e-39
-2.1480372 1.1968325 -0.90263623 7.0021819e-39
-2.1495063 1.3074226 -0.86026371 5.0657052e-39
-2.1502438 1.3304992 -0.85069048 4.237392e-39
-2.1502609 1.3473238 -0.84459442 4.1448377e-39
-2.1414263 0.45106432 -1.1827821 2.8768657e-42
-2.1421695 0.45639884 -1.1795969 1.8511993e-40
-2.1432562 0.54695517 -1.145097 8.2976067e-40
-2.1436195 0.56021148 -1.1397002 5.5461572e-40
-2.1432791 0.56929046 -1.1370043 7.3756504e-40
-2.1438897 0.5772981 -1.1330799 7.3899016e-40
-2.142957 0.58573943 -1.1316193 1.0138016e-39
-2.144562 0.64579195 -1.1072397 2.6733201e-39
-2.1472023 0.79746115 -1.0480661 3.7796677e-39
-2.1472259 0.82074112 -1.039631 3.7796677e-39
-2.1465914 0.8261553 -1.0387561 3.7800208e-39
-2.1465993 0.8338607 -1.0359643 3.6878252e-39
-2.1473465 0.85820997 -1.0259154 3.2261226e-39
-2.1479323 0.88554919 -1.0150623 3.6863861e-39
-2.1470029 0.89180154 -1.0143857 3.3168847e-39
-2.1467676 0.8995775 -1.0119808 3.2246932e-39
-2.1482961 0.92833281 -0.99901658 3.1339297e-39
-2.1493368 0.97043669 -0.98206753 3.4097908e-39
-2.1507983 1.0738837 -0.94228411 4.6058158e-39
-2.1522882 1.1316574 -0.91892177 5.5284812e-39
-2.153034 1.1610936 -0.90704143 6.6348385e-39
-2.1538725 1.2820528 -0.86199945 5.0671429e-39
-2.1546025 1.2961973 -0.85566002 5.0657052e-39
