# .PCD v0.7 - Point Cloud Data file format
VERSION 0.7
FIELDS x y z rgb
SIZE 4 4 4 4
TYPE F F F F
COUNT 1 1 1 1
WIDTH 1049
HEIGHT 1
VIEWPOINT 0 0 0 1 0 0 0
POINTS 1049
DATA ascii
1.0107695 0.18908785 2.543328 9.219563e-40
0.99548739 0.36072683 2.635967 1.9354076e-39
1.0084126 0.18684903 2.5474348 8.2941034e-40
1.0148195 0.19199176 2.5359366 9.2160738e-40
1.015292 0.20091513 2.5381184 9.2160738e-40
1.0260998 0.11737536 2.4860227 1.1056385e-39
1.0221425 0.14692892 2.5047307 9.2125985e-40
1.0226116 0.15578406 2.5068958 1.1974866e-39
1.0230805 0.16463937 2.5090609 8.2941034e-40
1.0235493 0.17349453 2.5112262 9.2125985e-40
1.0183972 0.18597242 2.5263631 9.2125985e-40
1.024487 0.19120486 2.5155563 9.2160738e-40
1.024956 0.20005998 2.5177217 1.1056385e-39
0.99773324 0.37205347 2.6353142 1.5662761e-39
0.99449885 0.55248439 2.7060211 1.7481423e-39
0.98896247 0.56867492 2.7232745 1.2878704e-39
1.0282278 0.08507444 2.470144 1.1056385e-39
1.014347 0.25978991 2.5609608 9.219563e-40
0.99877983 0.5555535 2.6982088 2.3016636e-39
1.0293324 0.24532019 2.5246716 6.4501908e-40
1.0239947 0.25859496 2.5404778 1.1063476e-39
1.0035596 0.56805384 2.6927028 2.1204995e-39
1.0484345 0.013649586 2.4028015 2.5829392e-39
1.0488896 0.022245623 2.4049034 3.9633555e-39
1.0440348 0.033245578 2.4188988 4.2384977e-39
1.0338552 0.25714743 2.5194616 8.2941034e-40
1.0211494 0.35227528 2.579613 1.8428532e-39
0.99824011 0.63302165 2.7268014 3.6734899e-40
1.035543 0.21543472 2.5011609 1.6566445e-39
1.0209723 0.50479084 2.6340642 1.6627667e-39
1.0214639 0.514072 2.6363335 2.5265411e-42
1.0025905 0.6361407 2.7188623 5.521172e-40
1.0395931 0.21833864 2.4937694 2.3020139e-39
1.033681 0.32596588 2.5442276 1.472263e-39
1.0251851 0.50781119 2.6263762 2.3060076e-39
1.0256765 0.51709247 2.6286454 1.460153e-42
0.92458767 -0.055110622 2.6359255 1.9354265e-38
0.92524898 -0.050336376 2.6362436 1.7050043e-38
0.92591029 -0.045562129 2.6365616 1.3819203e-38
0.93604141 -0.046971023 2.6149971 4.4192357e-39
0.93722624 -0.037409067 2.6159241 9.1835496e-41
0.93444616 -0.046258245 2.6185665 0
0.93510216 -0.041521981 2.6188819 0
0.9381547 -0.037122276 2.6140952 0
0.93900043 -0.042434484 2.6104534 5.5282345e-40
0.94394255 -0.037478652 2.6019349 9.18397e-41
0.94534862 -0.033506211 2.6004198 1.8655206e-40
0.94930148 -0.030391904 2.5933053 2.8025969e-45
0.95308018 -0.02875937 2.5860271 1.9618179e-44
0.95406699 -0.028113123 2.5842049 2.7589044e-40
0.95505351 -0.027466858 2.5823824 4.5992157e-40
0.95975882 -0.021213289 2.5748167 9.2017805e-40
0.9625079 -0.02418654 2.5680463 5.521172e-40
0.96348739 -0.023545073 2.5662374 2.7623797e-40
0.96412873 -0.018913716 2.566546 1.8404094e-40
0.96446657 -0.022903571 2.5644286 4.6026909e-40
0.96510828 -0.018272268 2.5647371 5.5282345e-40
0.9655233 -0.017805479 2.5640395 1.1960475e-39
0.98478943 -0.00707888 2.5277843 6.4466596e-40
0.98439735 -0.0049437517 2.5293565 7.3469798e-40
0.98948091 -0.0021274553 2.5197854 5.5247173e-40
0.98646575 -0.0050407094 2.5250218 1.104212e-39
0.98599422 0.00025071972 2.5278783 7.3650846e-40
0.99213797 -0.00028587593 2.514914 7.3686299e-40
0.99331129 0.003159839 2.5136962 7.3650846e-40
0.9936415 -0.00074120483 2.511626 1.3793611e-39
0.99480718 0.0015652899 2.5100205 1.4722756e-39
1.0031557 0.0079810144 2.4949367 1.1049407e-39
1.0018486 0.0052869339 2.4966993 1.0141701e-39
1.0041064 0.0086037191 2.4931808 1.105291e-39
1.0024039 0.0096835904 2.4971039 1.2886018e-39
1.0045146 0.007144189 2.4918149 6.4610649e-40
1.0043495 0.011020072 2.4935324 1.3807975e-39
1.0076238 0.016585398 2.488698 1.1052938e-39
1.0069587 0.01047178 2.4879127 6.4431283e-40
1.0075814 0.014967499 2.4882121 6.4431283e-40
1.0108927 0.010408765 2.4797106 6.4574636e-40
1.0085322 0.015590169 2.4864562 6.4501908e-40
1.0148242 0.013937418 2.4727879 6.4501908e-40
1.0140581 0.019889195 2.4764907 3.6987693e-40
1.0164112 0.022600569 2.4725599 7.3685598e-40
1.0377046 0.031540584 2.4314561 9.2125845e-40
1.0415951 0.034655347 2.4244711 5.5176968e-40
1.0422003 0.039024431 2.4247622 4.5922933e-40
1.0376711 0.034001391 2.4323983 4.6099356e-40
1.0407197 0.041741952 2.4288044 1.011673e-39
1.0437294 0.043998521 2.4233468 8.2765171e-40
1.0682081 0.055088729 2.3763824 6.4501908e-40
1.0697055 0.059959851 2.3749962 1.3800674e-39
1.0700177 0.056273978 2.37304 1.8404094e-40
1.0709226 0.056866549 2.3713686 6.4501908e-40
1.0727262 0.063443214 2.3699505 6.4431283e-40
1.0736374 0.064039826 2.368268 7.3650846e-40
1.0374157 0.035219714 2.4333613 1.9368663e-39
1.0406303 0.037459228 2.4274714 4.4265015e-39
0.95080173 -0.03200604 2.5896134 3.7835059e-43
1.0444934 0.041906472 2.4210162 4.423633e-39
0.99685776 0.66428185 2.740761 5.4395478e-39
1.0119003 0.68988717 2.7185636 7.1898494e-39
0.99577099 0.67711186 2.7475703 8.5738461e-39
0.99682069 0.67779952 2.7456312 8.3890961e-39
0.98951262 0.67165363 2.7586472 6.3611453e-39
1.0219355 0.69791919 2.7005465 7.7440826e-39
1.0229686 0.69859606 2.698638 7.3753001e-39
1.0357385 0.70875126 2.6756883 8.0210226e-39
1.0367635 0.70942283 2.6737945 7.4678502e-39
0.99754518 0.66924626 2.7410917 7.4674971e-39
1.0212586 0.69303286 2.7002211 7.0079595e-39
0.92657149 -0.040787864 2.6368797 1.1519415e-38
0.9272328 -0.036013614 2.6371977 8.9357706e-39
0.92758113 -0.040126603 2.635015 0
0.9354127 -0.032705445 2.6213629 0
0.9364143 -0.032049403 2.619513 7.0064923e-45
0.93917823 -0.027860893 2.6152515 1.8403953e-40
0.94390756 -0.024680331 2.6065457 1.8727793e-40
0.93807191 -0.026657131 2.6179786 1.7510079e-39
0.94136918 -0.023310348 2.6123092 8.3120821e-40
0.94422024 -0.023597699 2.6062794 3.695196e-40
0.94818264 -0.020227399 2.5992358 0
0.94757545 -0.022828687 2.599576 1.4012985e-44
0.94754034 -0.018027239 2.6013515 0
0.94853437 -0.017376266 2.5995157 1.8369341e-40
0.94952857 -0.016725274 2.5976796 5.521172e-40
0.95634609 -0.018135458 2.583004 6.4431283e-40
0.95733279 -0.017489212 2.5811815 5.521172e-40
0.95797902 -0.012823502 2.5814924 1.8435623e-39
0.96630985 -0.011100727 2.5647814 1.0116562e-39
0.97592252 0.00079273776 2.5490119 7.3721471e-40
0.98373485 0.0035338956 2.5337405 3.684406e-40
0.98337197 0.010148861 2.5368407 9.2089832e-40
0.98680705 0.00827563 2.5290341 6.4466736e-40
0.98737693 0.014357118 2.5300057 6.4466736e-40
0.98509842 0.0052039707 2.5314975 1.1052896e-39
0.9872582 0.0093758795 2.528486 7.3722733e-40
0.98624378 0.014503963 2.532414 1.1060014e-39
0.98948795 0.010115343 2.5241122 7.3722312e-40
0.98885518 0.014570486 2.5270078 9.2160738e-40
0.9887529 0.016212018 2.5278025 1.5669796e-39
0.99616241 0.013347884 2.5113809 1.2903857e-39
0.99710786 0.017998811 2.5110638 1.1056385e-39
0.99743849 0.014097863 2.5089934 1.105291e-39
0.99806577 0.018626006 2.509295 1.4715568e-39
0.99919701 0.023732744 2.5087535 1.3811464e-39
0.99883974 0.015193986 2.5064685 1.1978425e-39
0.99544901 0.01952946 2.5150561 1.9325321e-39
0.99935377 0.015352256 2.505456 1.4715568e-39
1.0031345 0.018595684 2.498745 1.2903899e-39
1.0003113 0.015979469 2.5036874 1.2871641e-39
1.0063026 0.018217698 2.4920237 9.2160738e-40
1.0015657 0.02503589 2.5042906 7.3722733e-40
1.007548 0.027209008 2.4926226 7.3650846e-40
1.007876 0.023336068 2.4905672 8.2941034e-40
1.0088115 0.028857475 2.4905801 1.197488e-39
1.0091215 0.032327361 2.4911661 7.3721471e-40
1.0079377 0.020297319 2.4893613 9.2125425e-40
1.0088269 0.023958791 2.488811 8.2941034e-40
1.0094495 0.02845438 2.4891105 6.4431283e-40
1.0100721 0.032950103 2.4894102 6.4501908e-40
1.0097777 0.024581442 2.4870551 5.5282345e-40
1.0104003 0.029077031 2.4873548 5.5282345e-40
1.0181462 0.03041514 2.4717238 8.2833695e-40
1.017915 0.036252804 2.4742744 1.8369341e-40
1.0250196 0.033286989 2.4584506 1.8403953e-40
1.0363414 0.046734545 2.4396782 1.2875088e-39
1.0389794 0.048587035 2.4348505 1.4719099e-39
1.0389559 0.053694416 2.4367101 9.2234306e-40
1.0383666 0.045045946 2.4348686 9.2092354e-40
1.0434105 0.047762457 2.4253442 4.5922933e-40
1.0443345 0.048367616 2.4236376 4.5922933e-40
1.0455447 0.057105642 2.4242198 6.4396251e-40
1.0452584 0.048972774 2.4219313 2.1216163e-39
1.0419087 0.055716872 2.4312875 2.0294193e-39
1.0446553 0.054936171 2.4253001 1.7517408e-39
1.047143 0.059045132 2.4215846 8.2032573e-39
1.0717833 0.074575916 2.3758588 4.635187e-40
1.0720977 0.070864946 2.3738894 9.2414232e-40
1.0358963 0.04942948 2.4415593 3.9669737e-39
0.95528978 -0.02026921 2.5844436 6.4501908e-40
1.044952 0.050567362 2.4231339 5.0711506e-39
0.98360068 0.63591957 2.7582681 2.3822074e-44
0.995157 0.64511269 2.7374992 2.4936527e-39
0.99721992 0.66000539 2.7384913 3.5027305e-39
1.0060823 0.6547212 2.7181907 3.136815e-39
1.016521 0.65882784 2.6979425 4.4268196e-39
1.0202978 0.6657446 2.6925421 3.1342983e-39
1.0112547 0.67154682 2.7134025 4.427907e-39
0.99584466 0.65007693 2.7378299 5.2562649e-39
0.99653226 0.6550411 2.7381606 4.3335856e-39
1.0067647 0.65964735 2.7185187 4.7941728e-39
1.0074468 0.66457367 2.718847 4.0548098e-39
1.0078063 0.66032982 2.7165945 4.2392011e-39
1.0084888 0.66525596 2.7169228 4.6086829e-39
1.0095307 0.66593826 2.7149985 4.7008799e-39
1.0114996 0.6620757 2.7095342 3.8729297e-39
1.0138017 0.66372174 2.7053316 3.1335822e-39
1.0102128 0.67086446 2.7153268 5.0671429e-39
0.98618174 0.59409535 2.7380702 5.521172e-40
0.99336797 0.597121 2.7242017 6.4290873e-40
0.99602246 0.61154389 2.7237966 4.5954602e-40
0.9971388 0.61750829 2.7235901 0
1.0144223 0.61543542 2.6869187 0
1.0181339 0.63550073 2.6863167 0
1.0241948 0.62404257 2.6696513 1.4012985e-45
1.0191593 0.63617224 2.684423 0
1.0252123 0.62470883 2.6677723 5.6051939e-45
1.0203437 0.62187403 2.6768897 1.8403533e-40
1.0262295 0.62537521 2.6658933 5.6051939e-45
1.0272468 0.62604141 2.6640143 1.821688e-44
1.0236573 0.63644433 2.6751666 1.8584581e-40
1.0256357 0.6236704 2.6665237 3.6879233e-40
1.0282643 0.62670773 2.6621354 1.821688e-44
1.0292815 0.62737399 2.6602566 0
1.0312803 0.64180523 2.6612179 8.4077908e-45
1.0313162 0.62870657 2.6564984 0
1.0263366 0.64087313 2.6711664 0
1.0323331 0.62937289 2.6546195 0
0.94131666 0.0099208644 2.6242025 0
0.94314045 -0.0045721787 2.6152713 1.0138226e-39
0.9415046 0.001671395 2.6208868 1.8620314e-40
0.94158137 0.0060038301 2.6222632 8.276321e-40
0.94252831 0.010955327 2.6220505 6.4322542e-40
0.94156957 -0.0040742769 2.6187139 3.8115318e-43
0.94200802 0.0017603691 2.6198716 1.460153e-42
0.94266403 0.0064967033 2.620187 3.0828566e-44
0.94332004 0.011232899 2.6205025 7.3470919e-40
0.94300967 0.0024163949 2.6180215 1.4012985e-45
0.94680476 0.0064694011 2.6115677 9.2925706e-41
0.94432157 0.011888942 2.6186526 1.8404094e-40
0.9433552 -0.0016637743 2.6158562 3.657389e-43
0.94401121 0.0030724208 2.6161716 3.657389e-43
0.94532305 0.012544968 2.6168027 9.1845305e-41
0.9482913 -0.0011042819 2.6057913 1.9339656e-39
0.94453162 0.0031071617 2.6151021 1.1020414e-39
0.94566894 0.0084647266 2.6146371 6.4285968e-40
0.94848055 0.011174914 2.6097517 6.461121e-40
0.94535846 -0.00035175867 2.6121562 1.8413945e-39
0.95101535 0.0029572661 2.6015673 2.2995042e-39
0.94667041 0.0091207707 2.6127872 1.472263e-39
0.94732642 0.013856966 2.6131027 5.5571433e-40
0.95047605 0.019224819 2.6084576 1.0134429e-39
0.94636005 0.00030424912 2.6103063 2.3917362e-39
0.94701606 0.0050404444 2.6106217 3.3100968e-39
0.95011431 0.01037218 2.6060705 2.5782504e-39
0.94832808 0.014512973 2.6112528 1.8443176e-39
0.9582997 0.0098976903 2.5888827 2.3953053e-39
0.94932961 0.015169017 2.6094027 1.2915025e-39
0.95576549 0.0087281289 2.5937376 2.7589044e-40
0.95033121 0.015825026 2.6075528 1.105291e-39
0.95706725 0.018128322 2.5943639 1.105291e-39
0.96226585 0.021831172 2.584868 1.105291e-39
0.96505964 0.011384801 2.5753548 7.3650426e-40
0.95806116 0.018779332 2.5925281 5.521172e-40
0.95871216 0.023479342 2.5928411 4.5992157e-40
0.96481657 0.017109472 2.5778899 1.8439126e-40
0.96869808 0.018534232 2.5703247 2.7623937e-40
0.96610904 0.026440892 2.5785115 1.8369341e-40
0.97548497 0.019805752 2.5566642 1.8440387e-40
0.97284043 0.024692709 2.5638957 1.9618179e-44
0.97348177 0.029324001 2.5642042 1.9618179e-44
0.97412324 0.033955406 2.5645127 1.9618179e-44
0.979339 0.023455013 2.5499444 9.2931312e-41
0.97446132 0.029965466 2.5623951 1.9618179e-44
0.97510278 0.034596872 2.5627036 1.9618179e-44
0.98099542 0.023128595 2.5463848 3.6879793e-40
0.9802289 0.028538592 2.5498967 9.2931312e-41
0.97620332 0.035012461 2.5605626 3.6844341e-40
0.97915137 0.038473867 2.5556605 2.7624357e-40
0.98150158 0.024208449 2.5457153 2.7623797e-40
0.9821381 0.028805364 2.5460217 7.3470919e-40
0.97706163 0.035879802 2.5590858 2.7623797e-40
0.98311037 0.029442085 2.5442262 8.2654609e-40
0.98466927 0.034175344 2.5426631 1.1967593e-39
0.98187399 0.040323015 2.5506554 5.5282766e-40
0.98720306 0.029224616 2.5356393 7.3686439e-40
0.98471922 0.034675825 2.5427368 6.4431283e-40
0.98535591 0.039272729 2.5430429 6.4396251e-40
0.98599255 0.04386976 2.5433493 6.4325905e-40
0.99048752 0.034445357 2.5306616 1.5651873e-39
0.99201488 0.037383366 2.5285275 6.4396251e-40
0.99390119 0.032393873 2.5228362 9.2160597e-40
0.9895283 0.039886624 2.5345855 1.4733518e-39
0.99278915 0.042270742 2.5286508 1.1049266e-39
0.99843311 0.042116847 2.5168612 1.0141659e-39
0.99190015 0.049267724 2.5329802 1.3811576e-39
1.0012017 0.041267138 2.5108032 1.2871641e-39
0.99617332 0.048404422 2.5237892 9.2160738e-40
0.99680549 0.052967053 2.5240929 1.105291e-39
1.0021592 0.041894354 2.5090346 1.1949685e-39
1.0015038 0.046815146 2.5121424 1.1059944e-39
0.99777019 0.05359903 2.522311 9.2125985e-40
0.99896789 0.039454762 2.5148051 1.5644657e-39
1.0031168 0.042521548 2.5072658 8.2835377e-40
0.9982053 0.049853429 2.5200784 1.1974894e-39
0.99873525 0.054230988 2.5205288 9.2160738e-40
1.0041306 0.039631013 2.504133 1.5641055e-39
1.0047017 0.047676887 2.5057988 7.3722733e-40
1.0031375 0.052606467 2.5107992 1.1981985e-39
1.0056592 0.048304085 2.5040302 7.3650846e-40
1.0051761 0.051883422 2.506304 6.4645822e-40
1.0069138 0.057360485 2.5046334 6.4501908e-40
1.0119402 0.04643698 2.4903085 6.4431283e-40
1.0126723 0.050834402 2.4903457 7.3794059e-40
1.0078714 0.057987735 2.5028646 2.7623797e-40
1.0082372 0.062311895 2.5036373 4.6171243e-40
1.0142044 0.05090601 2.4871855 7.3614412e-40
1.0194438 0.053486969 2.4772069 7.0064923e-45
1.018358 0.058586936 2.4812732 2.765939e-40
1.0194784 0.067713268 2.4821796 1.4531465e-42
1.0203876 0.054105148 2.4754636 5.6051939e-45
1.0230275 0.061196018 2.4724891 7.314778e-43
1.0309988 0.062925749 2.4565282 2.7624077e-40
1.0310125 0.071355246 2.4594889 7.3613852e-40
1.0359054 0.072290108 2.4496472 1.1960447e-39
1.0411558 0.071681269 2.438514 1.3793625e-39
1.0362208 0.071545213 2.4487271 1.0120178e-39
1.0408325 0.074815989 2.4402981 1.5651915e-39
1.0430458 0.077203847 2.436543 1.0102297e-39
1.0436553 0.081603669 2.436836 7.3650846e-40
1.0422795 0.086315542 2.4413674 1.5651915e-39
1.0441531 0.075688414 2.4337034 1.2893151e-39
1.0447012 0.081803814 2.4347322 1.473349e-39
1.046383 0.077490151 2.4297056 1.8421329e-39
0.97584355 0.032720074 2.5604978 4.6171944e-40
0.96520394 0.020914884 2.578434 1.8417994e-39
1.0410348 0.079277709 2.4414594 2.5786092e-39
1.039147 0.72303492 2.6736655 7.7386315e-39
0.93478411 0.038390651 2.6478808 2.2678344e-38
0.93544543 0.043164972 2.6481988 2.2769821e-38
0.92898083 0.036795337 2.6593816 1.6219286e-38
0.9343397 0.025611309 2.6442735 7.2795143e-39
0.92933184 0.03265113 2.6571822 1.0872623e-38
0.93188685 0.036781549 2.6533346 4.3289066e-39
0.93746477 0.044487529 2.6444693 2.4795906e-39
0.94040799 0.048617624 2.6398144 4.8813517e-39
0.9387874 0.054036021 2.6451051 0
0.93516803 0.021277454 2.6410141 0
0.9358294 0.026051756 2.6413321 0
0.93901408 0.030381618 2.6362457 1.9618179e-44
0.93101537 0.038127925 2.6556237 0
0.93600959 0.04140427 2.6464014 4.2739603e-43
0.93234801 0.047748793 2.6562645 0
0.93301439 0.052559137 2.656585 0
0.93668967 0.060428403 2.6517336 6.4502329e-40
0.93692958 0.027367761 2.6395113 8.2797541e-40
0.9375003 0.031487212 2.6397855 0
0.9371056 0.037477147 2.64273 7.3686579e-40
0.93882281 0.041035727 2.6404216 4.6097815e-40
0.93948412 0.045810048 2.6407397 9.219563e-40
0.93609351 0.051105302 2.6496675 1.4747812e-39
0.93957084 0.05536779 2.6439486 8.2976067e-40
0.93718737 0.02260001 2.6372845 1.1027728e-39
0.93784869 0.027374329 2.6376026 7.3469798e-40
0.93851012 0.032148488 2.6379206 2.7589044e-40
0.94218832 0.035374202 2.6314163 6.4466736e-40
0.93983263 0.041697003 2.6385567 7.347176e-40
0.94321769 0.044707391 2.6325858 4.591999e-40
0.935049 0.053891726 2.652827 1.1027728e-39
0.94181645 0.056019835 2.6395109 8.2906282e-40
0.94290763 0.060575951 2.6388576 7.3650846e-40
0.94313884 0.065568365 2.640147 7.3469798e-40
0.93819702 0.023261268 2.6354196 6.4287089e-40
0.94182706 0.026470963 2.6290102 5.5389825e-40
0.93991464 0.031949632 2.6349294 1.8441088e-40
0.94018072 0.037584122 2.636374 5.51034e-40
0.94111151 0.041621793 2.6358707 6.4359116e-40
0.94150335 0.047132619 2.6370099 7.3470919e-40
0.94319367 0.050250381 2.6346009 9.1982072e-40
0.94282609 0.056681097 2.637646 2.7589044e-40
0.94452941 0.059535399 2.6351163 2.7696804e-40
0.94512624 0.06577348 2.6360874 5.5318359e-40
0.93920672 0.023922546 2.6335549 1.8404094e-40
0.93986791 0.028696883 2.633873 1.821688e-44
0.94630384 0.032997567 2.6220164 5.5210879e-40
0.94119042 0.038245402 2.6345091 1.8369341e-40
0.94185174 0.043019578 2.6348271 2.7589044e-40
0.94251305 0.047793899 2.6351452 4.5992157e-40
0.94317424 0.052568093 2.6354632 4.5992157e-40
0.94383556 0.05734241 2.6357813 2.7589044e-40
0.94449699 0.062116574 2.6360993 1.8369341e-40
0.94021642 0.024583824 2.63169 2.7623797e-40
0.94233584 0.02921051 2.6289239 9.2572579e-41
0.94153905 0.03413232 2.6323261 2.7589044e-40
0.94220024 0.03890666 2.6326442 2.7589044e-40
0.94667345 0.042140651 2.62449 8.2906002e-40
0.94352275 0.048455175 2.6332803 4.5992157e-40
0.94418406 0.053229354 2.6335983 5.521172e-40
0.94656551 0.056581814 2.6298356 8.2905582e-40
0.94610149 0.062723614 2.6329782 9.2089972e-40
0.94829291 0.027409784 2.6158993 5.521172e-40
0.9489488 0.032145999 2.6162148 1.0105772e-39
0.94960493 0.036882311 2.6165302 1.0105772e-39
0.95026082 0.041618526 2.6168458 7.3722733e-40
0.95063025 0.047580171 2.618192 1.0120037e-39
0.94519353 0.053890631 2.6317337 9.2125985e-40
0.94585496 0.058664929 2.6320515 1.3800674e-39
0.94651628 0.063439116 2.6323695 1.6559466e-39
0.94995046 0.032802023 2.6143646 1.3793611e-39
0.95060664 0.03753832 2.6146803 1.2871641e-39
0.95126265 0.042274516 2.6149957 7.3722733e-40
0.95191854 0.047010865 2.6153111 1.6562941e-39
0.94478309 0.055993609 2.633333 1.7506604e-39
0.95323068 0.05648338 2.6159422 1.7484898e-39
0.95297843 0.062544376 2.6186161 1.9339726e-39
0.95454258 0.065955929 2.6165733 1.6559466e-39
0.95519865 0.0706921 2.6168888 1.3818779e-39
0.95095205 0.033458032 2.6125147 2.2995406e-39
0.95160818 0.038194347 2.6128302 2.1144403e-39
0.95226407 0.042930558 2.6131458 1.1964328e-39
0.9529202 0.047666874 2.6134613 1.8399848e-39
0.95379019 0.052535765 2.613379 1.4733672e-39
0.9542321 0.057139423 2.6140924 1.7485346e-39
0.95488828 0.061875578 2.6144078 2.3020545e-39
0.95554429 0.066611923 2.6147232 1.5662761e-39
0.9562003 0.071348108 2.6150389 1.2010865e-39
0.95129782 0.029377844 2.6103492 1.8403379e-39
0.95195371 0.034114059 2.6106648 2.1151493e-39
0.95260972 0.038850389 2.6109803 2.2069946e-39
0.95326573 0.043586586 2.6112957 1.1042372e-39
0.95392179 0.048322901 2.6116114 1.7477891e-39
0.95457792 0.053059075 2.6119268 1.2886285e-39
0.95523381 0.057795431 2.6122422 2.1173157e-39
0.95588994 0.062531605 2.6125576 2.3020545e-39
0.95894986 0.06569463 2.607317 2.0268942e-39
0.95229948 0.030033851 2.6084993 8.2906282e-40
0.95295531 0.034770064 2.6088147 1.2871641e-39
0.95361131 0.039506398 2.6091304 1.2868166e-39
0.95426732 0.044242594 2.6094458 1.4715568e-39
0.9609732 0.046328813 2.5962424 1.4715568e-39
0.96042693 0.052695405 2.5996363 1.3818849e-39
0.96227533 0.055728953 2.5968688 1.1974866e-39
0.96292627 0.060428981 2.5971818 1.7506604e-39
0.95754743 0.067923971 2.6110234 1.3818779e-39
0.96422827 0.069829144 2.5978079 1.8425057e-39
0.96487951 0.074529253 2.5981209 1.9346985e-39
0.96066517 0.037579648 2.5937805 1.0102297e-39
0.96131629 0.042279638 2.5940936 1.1949685e-39
0.96196729 0.046979785 2.5944066 1.2871641e-39
0.96261835 0.051679794 2.5947196 7.3722733e-40
0.96326911 0.056379981 2.5950329 1.105291e-39
0.96392024 0.061079971 2.595346 1.1974866e-39
0.96152097 0.06745141 2.6025941 1.105291e-39
0.96436203 0.069457404 2.597398 1.2896878e-39
0.96587324 0.075180285 2.5962851 1.8425029e-39
0.9665243 0.079880424 2.5965984 2.0261963e-39
0.96804774 0.040437948 2.5794439 8.2654609e-40
0.96869409 0.045103706 2.5797548 6.4431283e-40
0.96934032 0.049769346 2.5800655 6.4431283e-40
0.96998656 0.054435126 2.5803764 6.4431283e-40
0.97063279 0.059100766 2.5806873 9.2125985e-40
0.96556515 0.06643115 2.5938232 6.4431283e-40
0.97192514 0.068432197 2.5813088 8.2906282e-40
0.96686733 0.075831294 2.5944493 1.1045847e-39
0.97038144 0.0786421 2.5881393 1.1974922e-39
0.96968073 0.045749955 2.5779324 5.521172e-40
0.97032708 0.050415576 2.5782433 5.521172e-40
0.97097331 0.055081356 2.5785539 4.5992157e-40
0.97161943 0.059747014 2.5788648 5.521172e-40
0.97226566 0.064412788 2.5791757 2.7589044e-40
0.97291178 0.069078445 2.5794864 4.5992157e-40
0.97355819 0.073744193 2.5797973 4.5921532e-40
0.97420454 0.078409955 2.5801079 6.4396251e-40
0.97346389 0.045527626 2.5699875 1.8477522e-40
0.97586495 0.048798975 2.5661554 3.6915947e-40
0.97195989 0.055727605 2.5767317 4.5992157e-40
0.97584021 0.057275075 2.5692122 5.5247313e-40
0.97895169 0.062384862 2.5645547 1.8369341e-40
0.97959304 0.067016155 2.5648632 2.7589044e-40
0.98023462 0.071647555 2.5651717 2.7589044e-40
0.97519106 0.079056218 2.5782857 2.7623797e-40
0.97583741 0.083721846 2.5785964 6.4501908e-40
0.97230041 0.051708069 2.5745983 4.5992157e-40
0.97864807 0.053763695 2.5621288 1.8369341e-40
0.97928953 0.058394961 2.5624373 2.7589044e-40
0.97993112 0.063026346 2.5627458 2.7589044e-40
0.98057264 0.067657605 2.5630543 1.8369341e-40
0.98121411 0.07228902 2.5633628 2.7589044e-40
0.98185569 0.076920398 2.5636714 2.7623797e-40
0.97682393 0.084368117 2.5767741 4.6026909e-40
0.97898608 0.04977373 2.5600114 8.2654609e-40
0.97918069 0.056988068 2.5621645 5.5354512e-40
0.98026901 0.059036411 2.5606284 9.1845305e-41
0.9809106 0.063667797 2.5609369 1.8439126e-40
0.98155189 0.068299085 2.5612454 1.44614e-42
0.97991675 0.07113374 2.5656509 6.4466596e-40
0.98283494 0.077561878 2.5618625 1.8404094e-40
0.97878444 0.085982829 2.5732706 4.6062923e-40
0.98285753 0.049412783 2.5518336 8.2761388e-40
0.98060691 0.055046663 2.5585108 1.8369341e-40
0.98124844 0.059677914 2.5588193 1.8404094e-40
0.9818899 0.064309314 2.5591278 0
0.98253149 0.068940572 2.5594363 1.44614e-42
0.98464382 0.072532833 2.556318 2.7623656e-40
0.98381436 0.07820338 2.5600533 9.1845305e-41
0.98562747 0.081645757 2.5575042 1.8439967e-40
0.98094493 0.051056717 2.5563934 1.1946182e-39
0.98222786 0.060319398 2.5570104 6.4501908e-40
0.98428273 0.063823059 2.5539801 4.6062782e-40
0.98208982 0.070177123 2.5607932 1.2893095e-39
0.9841522 0.074213482 2.557936 4.6026909e-40
0.98325247 0.07962101 2.5617244 8.2906002e-40
0.98543531 0.083476119 2.558553 7.347204e-40
0.98441535 0.089064911 2.5626554 1.0116562e-39
0.98256576 0.05632963 2.5548928 1.2871641e-39
0.98398066 0.059962213 2.5532391 1.381145e-39
0.98384881 0.065592282 2.5555098 6.4501908e-40
0.98449033 0.07022354 2.5558183 6.4501908e-40
0.98737788 0.074399628 2.551295 8.2905161e-40
0.98577327 0.079486348 2.5564353 6.4431283e-40
0.98835945 0.0835113 2.5524857 9.1982352e-40
0.98705626 0.088749014 2.5570524 1.1027728e-39
0.98769772 0.093380287 2.5573609 6.4501908e-40
0.98418677 0.061602365 2.5533922 1.3793611e-39
0.98701817 0.065690532 2.548955 1.0138058e-39
0.9854697 0.070865043 2.5540094 4.6100057e-40
0.9861111 0.075496458 2.554318 7.3722733e-40
0.98580199 0.081356779 2.557039 1.2900326e-39
0.98739415 0.084759109 2.554935 6.4501908e-40
0.98696446 0.090801448 2.5579712 1.1978411e-39
0.98867691 0.094021805 2.555552 1.1031204e-39
0.989788 0.06014324 2.5412283 1.9325321e-39
0.99145615 0.064167731 2.5391874 1.105291e-39
0.9876883 0.071097538 2.5494788 1.2900424e-39
0.98709053 0.0761379 2.5525088 7.3722733e-40
0.98773199 0.0807693 2.5528176 6.4501908e-40
0.99063343 0.084167235 2.5479901 1.1981929e-39
0.98932463 0.089362212 2.5525534 1.2889494e-39
0.99176425 0.061498735 2.5376 1.4737162e-39
0.99329525 0.065870538 2.5359669 1.1059972e-39
0.99306494 0.069401368 2.537698 7.3722733e-40
0.98807007 0.076779403 2.5506999 6.450317e-40
0.98895866 0.080626361 2.5502167 1.0138086e-39
0.98935318 0.086042047 2.551317 6.4501908e-40
0.98999465 0.090673447 2.5516255 6.4501908e-40
0.99559146 0.092267469 2.5405533 1.1060028e-39
0.99593902 0.098141372 2.5419135 1.0134471e-39
0.99276358 0.060844172 2.53529 9.2125985e-40
0.99340022 0.065441206 2.5355964 9.2160738e-40
0.99403703 0.070038088 2.5359025 7.3722733e-40
0.99467373 0.074635126 2.5362089 7.3722733e-40
0.98969096 0.082052253 2.5491996 7.3722733e-40
0.99033242 0.086683527 2.5495081 8.2941034e-40
0.99658406 0.088426039 2.5371275 6.4501908e-40
0.99722075 0.093022943 2.5374336 8.2941034e-40
0.99785739 0.097619981 2.53774 6.4501908e-40
0.99999911 0.063356169 2.5211365 9.2160738e-40
0.9950093 0.070674814 2.534107 9.2125985e-40
0.99682307 0.073483706 2.5313318 1.0138016e-39
0.99739605 0.079687931 2.53234 1.1981929e-39
0.99131185 0.087325029 2.547699 5.521172e-40
0.9961741 0.089847758 2.5384839 9.2089552e-40
0.99819291 0.093659684 2.5356381 4.6026909e-40
0.99882954 0.098256722 2.5359442 1.8404094e-40
1.0012554 0.10176583 2.5321448 4.6062782e-40
1.0009639 0.063988134 2.5193546 8.2941034e-40
1.0015961 0.068550624 2.5196583 6.4431283e-40
1.0014654 0.073126182 2.5215526 8.2941595e-40
0.99725467 0.080505617 2.5329239 5.5282345e-40
1.0042045 0.081689551 2.5188937 7.3686159e-40
0.99852812 0.089699529 2.5335364 2.7589044e-40
1.006122 0.090340286 2.5179744 7.3685598e-40
0.9998017 0.098893441 2.5341487 9.1845305e-41
1.0025607 0.069182597 2.5178764 4.6026909e-40
1.0016565 0.074348517 2.5215883 5.5282486e-40
1.0038248 0.078307889 2.5184841 2.7623797e-40
1.0100497 0.08000163 2.5061417 1.821688e-44
1.010677 0.084529892 2.5064433 7.0064923e-45
1.0113041 0.089058049 2.5067449 0
1.0119312 0.093586355 2.5070467 5.6051939e-45
1.0114064 0.10027386 2.5105095 3.6879373e-40
1.0164984 0.10424764 2.5013309 6.4395129e-40
1.009753 0.071572438 2.5037696 9.1845305e-41
1.0110073 0.080628879 2.5043728 1.6815582e-44
1.0116345 0.085157156 2.5046747 4.2038954e-45
1.0151472 0.088795923 2.4986613 5.5209758e-40
1.0128889 0.094213575 2.5052779 5.6051939e-45
1.0135162 0.098741718 2.5055795 1.6815582e-44
1.0141435 0.10326999 2.5058811 1.821688e-44
1.0147706 0.10779814 2.5061827 1.6815582e-44
1.0166272 0.074033663 2.4903493 1.9618179e-44
1.011965 0.081256025 2.5026042 1.6815582e-44
1.0125922 0.085784301 2.5029058 1.821688e-44
1.0194508 0.088893525 2.4897478 7.3614833e-40
1.0138464 0.09484075 2.5035093 1.821688e-44
1.0144737 0.099368893 2.5038109 1.821688e-44
1.0151011 0.10389716 2.5041125 1.9618179e-44
1.0209858 0.10550317 2.4924457 1.821688e-44
1.0216086 0.10999888 2.4927452 1.9618179e-44
1.0222313 0.11449445 2.4930446 1.821688e-44
1.0135498 0.086411528 2.5011373 1.821688e-44
1.0174326 0.091061898 2.4947131 6.439555e-40
1.0200684 0.092638999 2.4897914 2.7589044e-40
1.0206912 0.097134575 2.4900908 1.821688e-44
1.025131 0.098968856 2.4815102 7.3578819e-40
1.0262511 0.1080957 2.4824176 7.3686859e-40
1.0239257 0.08189977 2.4779634 1.8404794e-40
1.0203966 0.088765934 2.487736 2.7589044e-40
1.0262769 0.090428129 2.4760988 2.7589044e-40
1.026895 0.094891161 2.4763961 2.7589044e-40
1.0275133 0.099354297 2.4766934 1.460153e-42
1.0304202 0.099097066 2.4705579 5.5355493e-40
1.0318826 0.11070734 2.4716344 4.6171944e-40
1.0328051 0.088743657 2.4619277 4.6063343e-40
1.0335444 0.12511416 2.4732878 8.2797962e-40
1.0356801 0.087320305 2.4554451 3.6843219e-40
1.0392375 0.11202132 2.4568079 9.1982072e-40
1.038336 0.12529077 2.4633875 1.0116562e-39
1.0420268 0.12699638 2.4563186 5.5247874e-40
1.0458026 0.10689507 2.4413395 6.4466736e-40
1.0445232 0.12090965 2.4489691 9.2017805e-40
1.0444276 0.13217929 2.4531641 6.4431984e-40
1.0439709 0.10402851 2.4441316 9.2125845e-40
1.045066 0.13153641 2.4516089 4.6063483e-40
1.0433842 0.095344119 2.4422717 1.2893305e-39
1.0460927 0.099202752 2.4380085 5.5176968e-40
1.0467021 0.10360245 2.4383016 5.521172e-40
1.0462638 0.11574949 2.4435208 9.2016824e-40
1.0470232 0.099812165 2.43629 6.4431283e-40
1.0477526 0.1334341 2.446696 2.7623656e-40
1.0469495 0.10605188 2.4386561 8.2870409e-40
1.0464389 0.12561792 2.4466558 6.4359116e-40
0.94834954 0.045329187 2.6221356 1.9350545e-39
0.951774 0.04771499 2.6158614 1.7506604e-39
0.96147203 0.047396276 2.5955839 7.4045171e-40
1.0181036 0.078884773 2.4889998 3.6843219e-40
1.0310863 0.087316446 2.4649956 2.0247362e-39
1.0320538 0.096708566 2.4663141 1.2893291e-39
1.0330216 0.10610066 2.4676325 1.2896822e-39
0.95370537 0.043783601 2.6104519 1.4747798e-39
0.96412534 0.0440454 2.5888789 1.7506576e-39
0.95874041 0.064700626 2.6073999 1.9354076e-39
0.97418004 0.044388682 2.5680947 1.8693041e-40
0.9686479 0.055872675 2.5836694 3.7132307e-40
0.97866809 0.056125589 2.5629246 3.7202933e-40
0.97317058 0.067699909 2.5784597 2.7912604e-40
0.96738207 0.079549968 2.5946977 1.0166897e-39
0.97722071 0.070603833 2.5710683 2.8866748e-42
0.97769326 0.079527155 2.5732501 6.4431283e-40
0.99427611 0.058797378 2.5314193 1.3818779e-39
1.0131993 0.091212548 2.5035682 4.6026909e-40
1.0176547 0.10286362 2.4984362 5.5282345e-40
1.0181201 0.11165404 2.5005856 2.7623797e-40
1.0270413 0.10282186 2.4789045 1.2878704e-39
1.0221099 0.11451468 2.4933043 9.2160738e-40
1.0384606 0.10261498 2.4550877 1.1056385e-39
1.042421 0.10545461 2.44786 1.5673257e-39
0.93211454 0.29186073 2.7433138 1.3274056e-38
0.93265396 0.29723215 2.7440975 1.1059551e-38
0.9323287 0.28799134 2.741497 0
0.93301612 0.29295549 2.7418277 5.6051939e-45
0.9345814 0.29622328 2.7397318 5.6051939e-45
0.93890005 0.29880083 2.7316663 0
0.93475342 0.29860735 2.7402194 7.0064923e-45
0.94105321 0.30025825 2.7277062 6.4574916e-40
0.94166768 0.30668354 2.7287071 9.2934114e-41
0.94095653 0.29531971 2.7261562 3.1343277e-39
0.94373447 0.3003329 2.7221577 2.6729698e-39
0.94841313 0.30237097 2.7131524 2.3974619e-39
0.94446146 0.30420205 2.7220182 2.7630271e-39
0.94545859 0.30594149 2.7205617 2.2116427e-39
0.94614089 0.31086779 2.7208898 2.1187465e-39
0.94652188 0.30561757 2.7182362 2.3953193e-39
0.94650042 0.30662382 2.7186375 2.1194457e-39
0.94718271 0.31155011 2.7189655 1.5655727e-39
0.94754249 0.30730611 2.7167134 1.8425029e-39
0.94822443 0.31223246 2.7170415 1.5662761e-39
0.94790155 0.30306217 2.7144611 2.3963829e-39
0.9485839 0.30798846 2.7147892 1.8425029e-39
0.94926649 0.31291473 2.7151172 1.4740791e-39
0.95978534 0.31577042 2.6942585 1.197488e-39
0.95774066 0.32263881 2.7009454 1.2893291e-39
0.9652189 0.32751086 2.6871238 5.5571433e-40
0.95742041 0.31354284 2.6983857 7.4010139e-40
0.95837724 0.31859082 2.6981866 1.749587e-39
0.96557295 0.32333407 2.684907 1.3818835e-39
0.95902389 0.31123632 2.6942341 1.5684257e-39
0.96525526 0.3143087 2.6823671 1.2893291e-39
0.96592677 0.31915709 2.6826901 1.2893291e-39
0.96760947 0.32412401 2.6809523 1.4744364e-39
0.96726978 0.32885396 2.6833363 1.8425029e-39
0.96695191 0.31982869 2.6807964 1.4733771e-39
0.96762359 0.32467717 2.6811194 1.7485346e-39
0.9682951 0.32952553 2.6814423 1.9336349e-39
0.96797717 0.32050025 2.6789024 1.4733771e-39
0.97086298 0.32916999 2.675977 2.2105693e-39
0.97579914 0.33548611 2.6679535 2.0276032e-39
0.97518271 0.32702318 2.6662343 1.8450168e-39
0.97639 0.33680713 2.6671929 2.3038384e-39
0.97137105 0.33154017 2.675761 1.2010893e-39
0.97412562 0.33419624 2.6709757 2.1194443e-39
0.97846472 0.32727414 2.6594987 1.8428532e-39
0.9791314 0.33208463 2.6598189 1.8425029e-39
0.97748476 0.32998151 2.6624961 2.1194387e-39
0.97696882 0.33612499 2.6657479 1.7517408e-39
0.98049933 0.32860675 2.6557407 1.5669768e-39
0.98116601 0.33341721 2.6560612 1.5666293e-39
0.98183221 0.33822757 2.6563816 1.2014397e-39
0.98151684 0.32927299 2.6538618 1.2903885e-39
0.98142898 0.33379871 2.6556494 1.6588221e-39
0.98406529 0.33794796 2.6516387 1.2932724e-39
0.9826352 0.343584 2.6566112 2.028685e-39
0.98320037 0.33474982 2.6523032 7.3939513e-40
0.98386675 0.33956015 2.6526237 1.0163394e-39
0.98453295 0.34437072 2.6529441 1.8428532e-39
0.98554134 0.33419284 2.6472387 1.5677083e-39
0.9848839 0.34022644 2.6507447 1.0163394e-39
0.98656404 0.34383118 2.6485298 2.0283207e-39
0.9852351 0.3360824 2.6485453 1.4744294e-39
0.98590147 0.3408927 2.6488657 1.0163394e-39
0.98656768 0.34570327 2.6491861 1.7503073e-39
0.99360871 0.35041067 2.6362152 1.8425029e-39
0.99206626 0.34383926 2.6370924 2.0272445e-39
0.99395704 0.34629762 2.6340325 1.4740791e-39
0.99430543 0.34218469 2.6318498 1.4740791e-39
0.99496675 0.34695888 2.6321678 9.2449545e-40
1.0016061 0.34656352 2.618223 7.3974546e-40
1.0022621 0.35129973 2.6185384 1.2893319e-39
0.99531507 0.34284601 2.6299849 1.2893291e-39
0.99597639 0.34762019 2.6303029 5.5571433e-40
0.99900949 0.35302794 2.6259139 1.2914815e-39
1.0032637 0.35195577 2.6166885 1.1049407e-39
0.99632484 0.34350726 2.6281199 9.205536e-40
0.99870086 0.34577209 2.6239829 1.3829583e-39
1.0042653 0.35261178 2.6148386 1.105291e-39
1.0049211 0.35734811 2.615154 6.4431283e-40
1.0055772 0.36208427 2.6154695 1.1049407e-39
1.005267 0.35326779 2.6129885 6.4431283e-40
1.0059228 0.35800412 2.6133039 5.521172e-40
1.0065788 0.36274031 2.6136196 6.4396251e-40
1.0062685 0.3539238 2.6111386 2.7623797e-40
1.0069245 0.3586601 2.611454 9.1845305e-41
1.0132281 0.35834426 2.5982354 4.6026909e-40
1.0138792 0.36304441 2.5985484 5.521172e-40
1.0145303 0.36774454 2.5988615 8.2906282e-40
1.014222 0.35899523 2.5963995 9.1845305e-41
1.0155505 0.36301747 2.5950642 4.6063483e-40
1.0208726 0.36352259 2.5841773 1.8369341e-40
1.0215186 0.36818826 2.5844879 7.3470919e-40
1.0228113 0.37751961 2.5851095 1.102459e-39
1.0218592 0.36416885 2.5823548 4.591971e-40
1.0225054 0.3688345 2.5826654 7.3470919e-40
1.0237979 0.3781659 2.5832872 7.347176e-40
1.0197437 0.36313257 2.5863855 1.3818779e-39
1.0228457 0.36481512 2.5805323 6.4287089e-40
1.0209166 0.37268782 2.5873356 1.1967621e-39
1.0241385 0.37414649 2.5811539 6.428793e-40
1.0238327 0.36546132 2.5787098 1.1949685e-39
1.0213305 0.37229618 2.5863361 8.2761948e-40
1.0251251 0.37479275 2.5793314 2.7589044e-40
1.0248194 0.36610758 2.5768874 1.4715568e-39
1.032063 0.37510946 2.5650182 9.1867726e-41
1.0274426 0.3746697 2.5744689 1.8425085e-39
1.030576 0.3784543 2.5692959 1.3815261e-39
1.0343254 0.38501358 2.5638261 1.105291e-39
1.0302759 0.38295332 2.5715153 2.2109407e-39
1.0346636 0.38102382 2.5617087 1.3818835e-39
1.0353051 0.38565508 2.562017 1.2896822e-39
1.0300186 0.3764427 2.569742 1.6577557e-39
1.0350013 0.37703389 2.5595911 1.4737232e-39
1.0356429 0.38166529 2.5598996 1.3818835e-39
1.0362842 0.38629657 2.5602081 1.2886285e-39
1.0333878 0.3744081 2.5620151 1.4740721e-39
1.0359807 0.37767538 2.5577822 1.1971363e-39
1.0343539 0.38362038 2.563273 1.750659e-39
1.0372636 0.38693807 2.5583992 1.2886285e-39
1.0365819 0.38519615 2.5591993 1.8435833e-39
1.0382433 0.3875795 2.5565901 2.4882282e-39
1.0388846 0.39221096 2.5568986 2.4900401e-39
1.0385811 0.38358971 2.5544727 9.2020608e-40
1.0392225 0.388221 2.5547812 2.3956739e-39
1.0398641 0.39285243 2.5550897 2.6747901e-39
1.0397938 0.3899487 2.5542059 1.658469e-39
1.0641569 0.40777713 2.5098717 9.2125985e-40
1.064784 0.41230533 2.5101733 9.205536e-40
1.0651147 0.40840435 2.5081029 2.7589044e-40
1.0657418 0.41293252 2.5084045 1.8370602e-40
1.0648178 0.39997515 2.5057309 2.7623797e-40
1.002486 0.35780987 2.6203814 1.4747798e-39
1.0033572 0.35751256 2.6184645 1.3818779e-39
0.96664339 0.58574599 2.7757339 1.8421498e-39
0.97630167 0.5901739 2.7572224 1.1974866e-39
0.99264902 0.60560888 2.7287061 1.5414283e-44
0.99333113 0.6105352 2.7290344 0
0.97736049 0.59086722 2.7552669 9.2125985e-40
0.99405026 0.60204715 2.7245297 3.5009382e-39
0.99541473 0.61189979 2.7251861 0
0.99577415 0.60765588 2.7229338 3.2239954e-39
1.0137149 0.62378919 2.6913521 9.6925012e-41
1.0150937 0.62028396 2.6872418 0
1.0194093 0.62197673 2.6788692 3.6878672e-40
1.0268958 0.63018554 2.6662138 0
1.0285795 0.63566226 2.6646552 3.673602e-40
1.0289304 0.63151813 2.6624558 1.9618179e-44
1.0295968 0.63632858 2.6627762 6.4287089e-40
1.0302628 0.64113903 2.6630967 1.0105772e-39
1.0299479 0.63218433 2.6605771 8.4077908e-45
1.030614 0.63699484 2.6608975 3.6734899e-40
1.0248879 0.63324666 2.6714742 1.8439126e-40
1.030965 0.63285071 2.6586978 1.4012985e-45
0.95046198 0.47311211 2.7694387 1.7484898e-39
0.94950479 0.48092797 2.7742002 9.2412831e-40
0.95184851 0.48312375 2.7701056 9.2160738e-40
0.9522137 0.47881138 2.7678168 5.5282345e-40
0.95290732 0.4838171 2.7681503 8.2941034e-40
0.95327246 0.47950467 2.7658617 3.0413964e-39
0.95263058 0.48574802 2.7694101 2.5825721e-39
0.95465922 0.48951629 2.7665286 2.3963773e-39
0.9553526 0.49452206 2.7668619 1.1985432e-39
0.95433116 0.48019803 2.7639065 2.0276032e-39
0.9550243 0.4852038 2.7642398 2.6729698e-39
0.9602626 0.48570734 2.7535269 2.2123448e-39
0.95641112 0.49521548 2.7649066 2.5814776e-39
0.95813137 0.48486531 2.7576597 1.9379649e-39
0.9567765 0.49090299 2.7626181 3.2243864e-39
0.96403128 0.48931032 2.7469685 3.225087e-39
0.96471894 0.49427456 2.7472992 2.7655158e-39
0.96590674 0.49821246 2.7462258 2.0283081e-39
0.95714182 0.48659047 2.7603292 5.5431023e-40
0.95783496 0.49159637 2.7606628 2.8556052e-39
0.96784741 0.48661247 2.7380772 3.226166e-39
0.96576869 0.49496216 2.7453601 3.0421027e-39
0.96645635 0.49992627 2.7456911 2.7655158e-39
0.96714395 0.50489056 2.7460217 1.9361082e-39
0.96544325 0.48572135 2.7427599 5.5466336e-40
0.96613091 0.49068549 2.7430906 1.2000328e-39
0.96681857 0.49564973 2.7434213 2.1226855e-39
0.97111541 0.49784562 2.7352657 2.3063397e-39
0.9676075 0.50592047 2.7454228 3.4087314e-39
0.96649325 0.48640889 2.7408209 7.6931286e-43
0.96718067 0.49137306 2.7411518 7.6931286e-43
0.96786833 0.49633729 2.7414823 1.0163394e-39
0.96855599 0.50130141 2.7418129 1.662415e-39
0.96924335 0.50626582 2.7421439 2.4889289e-39
0.96754289 0.48709655 2.7388818 1.44614e-42
0.96823049 0.49206069 2.7392125 1.8202867e-42
0.97840428 0.49149328 2.7178578 1.4755266e-39
0.97726327 0.50061762 2.7234659 2.8562933e-39
0.97727823 0.50147587 2.7237391 2.5797204e-39
0.97796059 0.50640208 2.7240672 2.6693993e-39
0.97864294 0.51132828 2.7243955 2.3924397e-39
0.97932523 0.51625448 2.7247236 1.5655727e-39
0.9845292 0.49569416 2.7066123 1.3815275e-39
0.98614061 0.50649846 2.707093 1.8428504e-39
0.98717344 0.50934839 2.7059562 2.5779015e-39
0.98723644 0.51523983 2.7079144 1.8403379e-39
0.99252403 0.50715727 2.6940536 1.5651845e-39
0.98826975 0.51591665 2.7060058 1.8403379e-39
0.98981941 0.52076644 2.704504 1.749573e-39
0.995511 0.51928598 2.6921446 1.1974866e-39
0.99593771 0.50467229 2.6860754 1.4755126e-39
0.99519306 0.51026064 2.6896052 1.2896822e-39
0.99715143 0.51450104 2.687037 2.0247263e-39
0.99653608 0.5199576 2.6902511 5.5282345e-40
1.0005356 0.51773071 2.6811454 6.4501908e-40
1.0005391 0.50783259 2.677629 1.290764e-39
1.009473 0.51362503 2.6611068 1.2907781e-39
1.0106723 0.5233705 2.6620691 2.3027818e-39
1.0164051 0.52162266 2.6495295 1.3818835e-39
1.0170662 0.52639699 2.6498475 7.3975106e-40
1.0165122 0.53294975 2.6533234 1.8428602e-39
1.0183889 0.53594548 2.6504836 1.8425029e-39
1.01905 0.54071975 2.6508017 1.9350545e-39
1.0197113 0.54549402 2.6511197 2.1194457e-39
1.0202179 0.52633744 2.6432734 9.2089411e-40
1.0233427 0.53377724 2.6394148 1.3836715e-39
1.0243415 0.54317707 2.6406713 1.384389e-39
1.0275495 0.54695541 2.6353407 1.8425071e-39
1.0301602 0.54614276 2.6296241 1.1049407e-39
1.033154 0.54570955 2.6232455 2.3964081e-39
1.0321751 0.53029364 2.6198146 8.3230122e-40
1.0326766 0.53579795 2.6207237 1.659185e-39
1.0331621 0.53964829 2.6210797 1.6609913e-39
1.0338578 0.5454278 2.6216824 3.4083839e-39
1.0371962 0.55258024 2.6172774 9.2159757e-40
1.0380244 0.55844074 2.6176333 1.8367379e-40
1.0415207 0.54902768 2.6070263 1.1042064e-39
1.0435938 0.55046147 2.603224 7.3578399e-40
1.030241 0.53387928 2.6251075 1.472263e-39
1.0312642 0.54381186 2.626502 1.1027728e-39
1.0323433 0.55550468 2.6284049 1.1974838e-39
0.92778921 -0.19952706 2.5780575 1.4939317e-38
0.928397 -0.19496666 2.5784111 1.6595602e-38
0.91700518 -0.20065576 2.6000798 4.054091e-39
0.92448086 -0.18818818 2.5889571 8.2651947e-40
0.92375374 -0.20116585 2.5858672 0
0.92559046 -0.18738237 2.5869358 6.4284847e-40
0.9186241 -0.20366071 2.5956483 0
0.92486334 -0.20035997 2.5838459 2.8025969e-44
0.92547554 -0.19576548 2.5842018 3.0828566e-44
0.92608809 -0.19117104 2.5845582 1.1964328e-39
0.92538923 -0.18640794 2.5877004 1.7506674e-39
0.93159848 -0.1498206 2.5877635 3.86249e-39
0.92061847 -0.20308387 2.591706 0
0.92035902 -0.19822034 2.5939705 7.3474282e-40
0.92721885 -0.19540749 2.5807047 1.1027827e-39
0.93280256 -0.1917672 2.5703852 8.2765171e-40
0.92780983 -0.18577069 2.5828929 2.8563087e-39
0.92842215 -0.18117613 2.5832491 7.2773661e-39
0.92903447 -0.17658168 2.5836053 7.0011253e-39
0.92964667 -0.17198718 2.5839612 1.928572e-39
0.93025899 -0.1673927 2.5843174 1.5414283e-44
0.9327082 -0.14901479 2.585742 8.2651947e-40
0.93332046 -0.14442031 2.5860982 0
0.93393266 -0.13982581 2.5864544 0
0.92147666 -0.19740853 2.5919342 2.1172821e-39
0.92769492 -0.19415388 2.5801592 2.1176324e-39
0.92830729 -0.1895594 2.5805154 1.1956747e-39
0.92891943 -0.1849649 2.5808716 2.024383e-39
0.94070721 -0.18332273 2.5569441 1.1330685e-38
0.93572724 -0.17728616 2.5694394 1.1880622e-38
0.93633503 -0.17272578 2.569793 3.5837367e-39
0.93694276 -0.1681654 2.5701466 4.5917748e-40
0.93198097 -0.16199246 2.5826523 2.0254368e-39
0.93259311 -0.15739794 2.5830085 1.6562941e-39
0.93320543 -0.15280345 2.5833647 4.5918589e-40
0.93716085 -0.14873809 2.576582 5.6051939e-45
0.93998152 -0.14536349 2.5719142 9.2160738e-40
0.94058919 -0.14080313 2.5722675 2.3935089e-39
0.92941684 -0.1887535 2.5784938 1.0109247e-39
0.93105435 -0.18312818 2.5770838 7.347162e-40
0.93622094 -0.18104665 2.5670795 1.0961904e-38
0.93682867 -0.17648628 2.5674329 1.2249046e-38
0.94300681 -0.17347626 2.5556545 6.2573694e-39
0.93804419 -0.16736552 2.56814 4.5917748e-40
0.9386518 -0.16280511 2.5684936 1.472263e-39
0.93925953 -0.15824473 2.5688469 1.8410441e-39
0.93986738 -0.15368438 2.5692005 1.2878704e-39
0.94047517 -0.149124 2.5695541 6.4501908e-40
0.94108295 -0.14456362 2.5699074 1.5669768e-39
0.9416905 -0.14000323 2.570261 2.4857045e-39
0.93676436 -0.13361967 2.5827677 2.1172821e-39
0.94009566 -0.11716028 2.5816774 1.6815582e-44
0.93063128 -0.18834674 2.5761132 1.6559466e-39
0.93671459 -0.18480729 2.5647194 5.51034e-40
0.93732226 -0.18024683 2.565073 7.1854942e-39
0.93793011 -0.17568646 2.5654263 1.0960853e-38
0.9440999 -0.17268239 2.553663 9.1173102e-39
0.94470322 -0.16815615 2.554014 2.112236e-39
0.93975329 -0.16200529 2.5664871 1.8367127e-39
0.94036102 -0.15744492 2.5668404 1.7484898e-39
0.94096875 -0.15288454 2.567194 1.4715568e-39
0.94157648 -0.14832415 2.5675476 1.472263e-39
0.94218421 -0.14376377 2.5679011 1.8410441e-39
0.94279206 -0.13920341 2.5682547 1.6559466e-39
0.94339973 -0.134643 2.568608 1.4712092e-39
0.94400746 -0.13008262 2.5689616 8.2906282e-40
0.94461519 -0.12552226 2.5693152 2.7554292e-40
0.93781614 -0.18400744 2.5627131 7.3470919e-40
0.93842369 -0.17944695 2.5630667 4.7884092e-39
0.94458997 -0.17641482 2.5513206 1.0315483e-38
0.94519317 -0.17188855 2.5516715 1.0223656e-38
0.94579637 -0.16736226 2.5520225 6.0737783e-39
0.94639969 -0.162836 2.5523734 2.0203879e-39
0.94700265 -0.15830968 2.5527241 1.1031204e-39
0.94760597 -0.15378343 2.5530751 1.3793611e-39
0.94811571 -0.14847651 2.5538971 1.0130827e-39
0.94881237 -0.14473087 2.553777 1.7484898e-39
0.9494155 -0.14020458 2.5541277 1.4715568e-39
0.94450116 -0.13384314 2.5666018 1.0102297e-39
0.94510889 -0.12928274 2.5669553 7.3650846e-40
0.94066662 -0.12275364 2.5785069 9.194718e-40
0.93901742 -0.08851555 2.5940771 1.1896576e-38
0.94510639 -0.086063117 2.5822864 1.9547327e-38
0.94025105 -0.07925839 2.5947948 2.2493597e-38
0.94099724 -0.030421298 2.6105611 2.1017399e-38
0.94348276 -0.011770585 2.6120069 1.8436625e-38
0.94410408 -0.0071078856 2.6123683 1.7422826e-38
0.95012033 -0.0052010943 2.6005356 1.7144089e-38
0.93274593 -0.18633604 2.5724297 2.0250809e-39
0.93891746 -0.18320757 2.5607066 1.1038294e-39
0.93952519 -0.17864712 2.5610602 2.7658689e-40
0.94568324 -0.17562097 2.5493293 3.414125e-39
0.94628632 -0.17109466 2.5496802 1.1054485e-38
0.94688946 -0.16656835 2.5500312 1.1509339e-38
0.94551891 -0.16208467 2.554471 4.775827e-39
0.94809592 -0.15751582 2.5507329 8.2652507e-40
0.95422661 -0.15469424 2.5389862 1.1949685e-39
0.95562625 -0.14866719 2.5382133 1.0134555e-39
0.95542389 -0.1457099 2.5396826 1.1056385e-39
0.95050865 -0.13941069 2.5521362 9.2160738e-40
0.95111185 -0.1348844 2.5524871 1.0109247e-39
0.95171529 -0.13035814 2.5528378 6.4501908e-40
0.95231825 -0.12583184 2.5531888 6.4431283e-40
0.93643421 -0.1154753 2.5898879 6.4431283e-40
0.93987811 -0.1112849 2.5842133 4.592013e-40
0.94315445 -0.10822967 2.5784841 5.5104521e-40
0.94376701 -0.10363522 2.5788403 1.8369341e-40
0.94437927 -0.099040747 2.5791965 2.9427268e-44
0.94499141 -0.09444622 2.5795527 2.3822074e-44
0.9401353 -0.087703742 2.5920405 2.3822074e-44
0.94075215 -0.083075166 2.5923996 4.3350751e-39
0.94198591 -0.073818021 2.593117 1.8527451e-38
0.94260257 -0.069189399 2.5934758 2.00022e-38
0.94321936 -0.064560831 2.5938346 2.0186217e-38
0.94595325 -0.027119977 2.6014273 1.0127128e-39
0.94460887 -0.010952784 2.6099553 0
0.94523019 -0.0062900847 2.6103168 0
0.94730073 -0.0024010213 2.6073911 4.3357282e-39
0.94062662 -0.1778473 2.5590537 0
0.94677633 -0.17482711 2.547338 9.5082305e-41
0.94737935 -0.17030078 2.5476887 1.0870452e-38
0.95351565 -0.16738294 2.5359652 1.252349e-38
0.95467001 -0.16275695 2.5352051 5.0513404e-39
0.95471275 -0.15839855 2.5366616 8.2652507e-40
0.95531148 -0.15390639 2.5370097 1.2871641e-39
0.95591009 -0.14941415 2.537358 9.2125985e-40
0.95650882 -0.14492202 2.5377061 9.2160738e-40
0.95710748 -0.14042984 2.5380545 6.4501908e-40
0.95220506 -0.13409056 2.5504959 6.4285968e-40
0.95280826 -0.12956427 2.5508466 4.6026909e-40
0.95341134 -0.12503798 2.5511975 5.521172e-40
0.9540146 -0.1205117 2.5515482 5.521172e-40
0.94365197 -0.11201843 2.5761065 5.510424e-40
0.94974256 -0.10944147 2.5643563 8.265573e-40
0.95035034 -0.10488111 2.5647099 1.7470731e-39
0.95095807 -0.10032072 2.5650635 1.8372004e-40
0.94610107 -0.093640424 2.5775311 1.6815582e-44
0.94671333 -0.089045949 2.5778873 1.5414283e-44
0.94732565 -0.084451467 2.5782435 5.8854536e-44
0.94793797 -0.079856992 2.5785995 1.1770907e-43
0.94855016 -0.075262487 2.5789557 1.1151808e-38
0.94372058 -0.068377629 2.5914395 1.5115472e-38
0.94433731 -0.063749038 2.5917981 1.4930708e-38
0.94172794 -0.17704739 2.5570474 0
0.94786954 -0.17403321 2.5453465 2.8025969e-44
0.95400196 -0.17108718 2.5336404 1.0962623e-38
0.95460045 -0.166595 2.5339885 1.2615685e-38
0.95519912 -0.16210283 2.5343366 4.6883047e-39
0.95579779 -0.15761063 2.5346849 7.3468397e-40
0.95639652 -0.15311848 2.5350332 1.1031204e-39
0.95699519 -0.14862627 2.5353813 1.2878704e-39
0.95759386 -0.1441341 2.5357296 1.1031204e-39
0.95819241 -0.13964191 2.5360777 1.0109247e-39
0.95329815 -0.13329665 2.5485041 2.7623797e-40
0.95390141 -0.12877037 2.5488551 4.5992157e-40
0.95450455 -0.12424408 2.549206 4.5992157e-40
0.94962853 -0.11776243 2.5616429 4.5992157e-40
0.95023626 -0.11320205 2.5619962 2.7589044e-40
0.94860888 -0.10815256 2.5671706 3.6808607e-40
0.95145178 -0.10408122 2.5627034 9.2125985e-40
0.94659859 -0.097429059 2.5751536 8.2978309e-40
0.94721079 -0.092834555 2.5755095 4.5992157e-40
0.9506582 -0.08924821 2.5696132 1.8513675e-40
0.94843531 -0.083645605 2.5762219 4.2038954e-45
0.95018971 -0.079405166 2.5740778 2.8025969e-45
0.95509827 -0.076718934 2.5648246 0
0.95027226 -0.069862157 2.5772903 0
0.94282943 -0.17624758 2.5550408 4.6097815e-40
0.94896263 -0.17323934 2.543355 1.6815582e-44
0.95508671 -0.17029929 2.5316639 9.7644383e-39
