# .PCD v0.7 - Point Cloud Data file format
VERSION 0.7
FIELDS x y z rgb
SIZE 4 4 4 4
TYPE F F F F
COUNT 1 1 1 1
WIDTH 1026
HEIGHT 1
VIEWPOINT 0 0 0 1 0 0 0
POINTS 1026
DATA ascii
-1.5264736 1.1889933 -0.28963187 1.8623863e-38
-1.5106964 1.1862427 -0.28312951 1.8716418e-38
-1.5008286 1.1842839 -0.27850056 1.8625305e-38
-1.4949522 1.1826667 -0.2746824 1.890081e-38
-1.4837438 1.1809775 -0.27068725 1.8716419e-38
-1.4736987 1.179495 -0.26718056 1.8716776e-38
-1.4610562 1.1772243 -0.26181355 1.7612965e-38
-1.4585816 1.1770477 -0.2613942 1.8533119e-38
-1.4312364 1.1716871 -0.2487268 1.797813e-38
-1.8313802 1.2444584 -0.42072886 2.1761058e-38
-1.7955532 1.237476 -0.40422878 8.3955715e-39
-1.7928076 1.2359488 -0.40062639 1.9550532e-38
-1.5584195 1.1937888 -0.30097345 1.8349797e-38
-1.5520309 1.1924483 -0.29780644 1.880753e-38
-1.5421933 1.1889375 -0.28952098 1.8628195e-38
-1.5243306 1.1864001 -0.28351817 1.9270682e-38
-1.5210444 1.1859699 -0.28250048 1.973131e-38
-1.5083916 1.1832486 -0.27607113 2.0007521e-38
-1.4878237 1.179811 -0.26794407 1.7891009e-38
-1.4784808 1.177605 -0.26273337 1.9361067e-38
-1.464777 1.1756027 -0.25799721 1.945219e-38
-1.4614311 1.1746774 -0.25581273 1.954153e-38
-1.8302932 1.2410508 -0.41269809 2.1576672e-38
-1.5573317 1.1903759 -0.29293007 1.917705e-38
-1.546923 1.1881863 -0.28775707 1.9269236e-38
-1.5092703 1.1810712 -0.2709417 2.0561065e-38
-1.4860115 1.1773298 -0.26209506 1.9544748e-38
-1.4772655 1.1751099 -0.25685224 1.9177033e-38
-1.4650455 1.173262 -0.25248212 1.8439447e-38
-1.4596726 1.172479 -0.25062987 1.5487013e-38
-1.4583393 1.1710402 -0.24723767 1.0785059e-38
-1.8336278 1.2383898 -0.40643188 2.1300809e-38
-2.0637691 1.2789199 -0.50223839 2.3509886e-38
-1.842162 1.2367994 -0.40269536 2.0655089e-38
-2.0818961 1.2792872 -0.50312787 2.3509886e-38
-2.067277 1.2760825 -0.49555713 2.3509886e-38
-2.0845783 1.2755541 -0.49433428 2.3509886e-38
-1.8397104 1.2291955 -0.3847743 2.0470692e-38
-1.8305832 1.2272205 -0.38010877 1.7796649e-38
-1.8187599 1.2250661 -0.37501663 7.8477801e-39
-1.0967299 1.4536315 -0.91265529 5.7049215e-39
-1.0885457 1.4504961 -0.90525609 6.723011e-39
-1.3146747 1.3834289 -0.74751782 3.6734198e-39
-1.3064941 1.3770245 -0.73241568 5.8918211e-39
-1.3516029 1.2929058 -0.53425938 5.1549847e-39
-1.3720553 1.2946998 -0.53851342 1.9618179e-44
-1.5338323 1.3159155 -0.58871824 2.0442459e-38
-1.5279218 1.3147839 -0.58604395 1.7035248e-38
-1.5108612 1.3109796 -0.57705706 1.5012031e-38
-1.4254584 1.2847792 -0.51520681 1.7055491e-38
-1.7055821 1.294777 -0.53913325 1.685588e-38
-1.7228607 1.2946408 -0.53883493 1.482899e-38
-1.8753008 1.3051796 -0.56386858 4.0634741e-39
-1.8603774 1.3025439 -0.55763823 5.1688281e-39
-1.5797267 1.2495537 -0.43240485 1.5578178e-38
-1.5714908 1.2448204 -0.42124033 1.4841015e-38
-1.5752256 1.2423536 -0.41543263 1.7145889e-38
-1.5552438 1.2386311 -0.40663505 2.0283799e-38
-1.5131263 1.2307884 -0.38809916 1.7795236e-38
-1.534471 1.2310615 -0.38877076 1.8162585e-38
-2.0340056 1.3122418 -0.58071816 2.0005731e-38
-1.9305733 1.2934361 -0.53626877 2.3509886e-38
-2.0449786 1.3108084 -0.57735521 2.1481943e-38
-1.8290911 1.2590529 -0.45511591 2.2313152e-38
-2.0612857 1.2871836 -0.52170759 2.3509886e-38
-2.0641649 1.2839713 -0.5141418 2.3509886e-38
-2.0880086 1.2645774 -0.46847382 2.0283389e-38
-2.0850909 1.2640384 -0.46719992 2.3509886e-38
-2.0951655 1.2627513 -0.4641802 1.9453638e-38
-1.8450825 1.2233143 -0.37092325 2.0561796e-38
-1.8381037 1.2221458 -0.36816069 1.7980677e-38
-2.0908885 1.2584418 -0.45401961 1.9729498e-38
-1.8439018 1.219609 -0.36219075 2.1113884e-38
-2.1014555 1.2564803 -0.44941175 1.8716426e-38
-1.8679307 1.2201482 -0.36349282 2.1667422e-38
-1.8518373 1.2174829 -0.35719121 2.157451e-38
-2.1119142 1.2542038 -0.4440611 1.8623509e-38
-2.1033034 1.2520096 -0.43887943 2.0651801e-38
-1.8431771 1.2134938 -0.34778002 2.0469235e-38
-2.0974627 1.2438873 -0.41973239 1.9452912e-38
-1.8491369 1.2071326 -0.33279833 2.212804e-38
-2.1055491 1.2424533 -0.41636425 1.9176322e-38
-1.8817626 1.2087827 -0.3367292 2.3509886e-38
-1.8509626 1.2042667 -0.32604781 2.0746196e-38
-1.842383 1.203108 -0.32330576 1.2903857e-39
-2.1013632 1.2377449 -0.40526357 1.8900094e-38
-1.8502824 1.2010765 -0.31852955 1.8075059e-38
-2.1099427 1.2353194 -0.39955962 1.8438043e-38
-1.8778125 1.2016973 -0.32002833 2.3509886e-38
-1.8514305 1.1974357 -0.30995193 2.8414549e-40
-2.1216726 1.2335588 -0.39542651 1.8345484e-38
-1.8464202 1.193774 -0.30131698 4.6853115e-40
-2.1247327 1.2303342 -0.38783193 1.8345121e-38
-2.102078 1.2267967 -0.37946671 1.8715693e-38
-1.8555617 1.1917192 -0.29648703 5.0783281e-39
-2.1207716 1.2261038 -0.37785831 1.7701181e-38
-2.1173608 1.2252086 -0.37574464 1.8990849e-38
-1.8551558 1.1885587 -0.28903911 3.4137522e-39
-2.12238 1.2221826 -0.36862057 1.7608634e-38
-2.1193309 1.2220048 -0.36819768 1.8990491e-38
-1.8587719 1.185341 -0.28146151 3.5938205e-39
-2.1355815 1.2207149 -0.36517939 1.7516441e-38
-1.8611009 1.1824095 -0.27455711 1.9385997e-39
-2.1386108 1.2174844 -0.35757124 1.7607911e-38
-2.1179094 1.2147546 -0.35111174 1.8990489e-38
-1.873376 1.1815549 -0.27255949 1.6584199e-39
-2.1416309 1.2142525 -0.34995958 1.7240203e-38
-1.8800052 1.1793647 -0.26740724 2.1206815e-38
-1.8667336 1.1788994 -0.26629314 2.7651318e-39
-2.1560962 1.2123843 -0.34557661 2.2956712e-38
-2.1318953 1.2091657 -0.33796054 1.7424248e-38
-2.1290188 1.2086344 -0.33670455 1.9453278e-38
-2.1182821 1.2077435 -0.3345913 2.0559624e-38
-2.0873156 1.2030581 -0.32350993 2.0007885e-38
-1.9744729 1.1886077 -0.28931141 2.3141104e-38
-1.9363761 1.1840111 -0.27843007 2.2864515e-38
-1.8840457 1.1766962 -0.26112446 2.1390846e-38
-2.1144865 1.2037251 -0.32511747 2.341769e-38
-2.0788257 1.1993946 -0.31486613 2.3141097e-38
-2.0257082 1.191075 -0.29519227 2.3509886e-38
-2.009346 1.1893226 -0.29104146 2.2956353e-38
-1.9858383 1.1865759 -0.28453857 2.2220226e-38
-1.877275 1.1732016 -0.25288075 9.7738046e-39
-1.9820567 1.1822037 -0.2742309 2.2220956e-38
-1.8888232 1.1701893 -0.2457978 1.7520533e-39
-1.8664836 1.1669016 -0.23802167 9.1226534e-39
-1.8392485 1.1640147 -0.23118328 5.8932602e-39
-1.8218517 1.1622212 -0.22693421 4.8852796e-39
-1.807891 1.1604109 -0.22265026 3.3128938e-39
-1.9035203 1.1698693 -0.24506335 1.9366519e-38
-1.8729639 1.1650286 -0.23361658 1.7143995e-38
-1.8117843 1.1578395 -0.21659623 1.400723e-38
-2.0260139 1.1810322 -0.27152818 2.2958155e-38
-1.9855701 1.1761855 -0.2600542 2.3049991e-38
-1.9785446 1.1756463 -0.25877467 2.2773767e-38
-1.9148891 1.1679177 -0.24047975 2.341805e-38
-1.9092799 1.1674299 -0.23932305 1.1991282e-38
-1.887754 1.164445 -0.23226085 3.3225796e-39
-1.8719724 1.1620942 -0.22670092 1.8712057e-38
-1.8620303 1.1624086 -0.22742857 2.0831529e-38
-2.0321832 1.1792184 -0.26726237 2.2958155e-38
-1.9872959 1.1731751 -0.25296295 2.3049991e-38
-1.9813305 1.17264 -0.25169441 2.2865961e-38
-1.9570851 1.1698797 -0.24515817 2.2865602e-38
-1.9209341 1.1654941 -0.23477647 2.268121e-38
-1.9109527 1.1645162 -0.23245925 3.6095669e-39
-1.8956355 1.1628952 -0.22861952 1.0045701e-38
-1.8773254 1.1589767 -0.21936187 2.0557456e-38
-1.8631352 1.1575123 -0.2158926 2.0189037e-38
-1.8160943 1.1516491 -0.20201498 2.0003555e-38
-2.1391921 1.1888387 -0.29007196 2.3509886e-38
-2.1132894 1.1859109 -0.28313896 2.1943277e-38
-1.9956957 1.170802 -0.24738222 2.2495735e-38
-1.9772109 1.1688548 -0.24276981 2.2403545e-38
-1.9560658 1.1659042 -0.23578893 2.157487e-38
-1.9379067 1.1639966 -0.23126999 2.166561e-38
-1.9232609 1.1624975 -0.22771868 1.9084459e-38
-1.9147259 1.1613262 -0.2249472 1.18957e-38
-1.8972586 1.1599994 -0.22179784 1.8528792e-38
-1.8776042 1.1561598 -0.21272443 2.028121e-38
-1.8714322 1.1551845 -0.21041825 2.0465972e-38
-2.1340556 1.1847113 -0.28033936 2.3509886e-38
-2.117456 1.1823384 -0.27472597 2.3141086e-38
-2.0224764 1.1704113 -0.24649686 1.8896501e-38
-1.9942753 1.1674188 -0.23940839 1.9911361e-38
-1.9733005 1.1645122 -0.23253167 1.9819872e-38
-1.965037 1.1639066 -0.23109366 1.8343667e-38
-1.9419724 1.1611065 -0.22446516 1.8436581e-38
-1.9336416 1.1604762 -0.2229692 1.9450735e-38
-1.9281958 1.160026 -0.22190112 1.9819883e-38
-1.9133394 1.1585207 -0.21833469 2.028086e-38
-1.8700564 1.1525388 -0.20418203 1.9451821e-38
-1.8622165 1.1505811 -0.19955899 1.9913529e-38
-1.7788694 1.1420934 -0.17944917 1.8804288e-38
-1.7658412 1.1407905 -0.17636175 1.3547269e-38
-2.1167858 1.1789489 -0.26673809 2.3509886e-38
-2.0983639 1.1770016 -0.26212552 1.9911692e-38
-2.0402813 1.1710951 -0.24813157 1.1610863e-38
-2.0317049 1.1684822 -0.24196303 1.5852912e-38
-1.9946616 1.1634661 -0.23009454 2.0924769e-38
-1.979296 1.1619357 -0.22646824 2.092514e-38
-1.9668936 1.1607416 -0.22363815 2.083294e-38
-1.9470489 1.1587206 -0.21884988 2.0648553e-38
-1.9294099 1.1568702 -0.21446684 1.9726596e-38
-1.8951973 1.1528739 -0.2050048 2.0188309e-38
-1.8766855 1.1509967 -0.20055716 2.0189393e-38
-1.7729782 1.1378529 -0.16944911 2.0283051e-38
-1.7670623 1.1373693 -0.16830198 1.8711017e-38
-2.1452718 1.1786946 -0.26617652 2.3326215e-38
-2.1372793 1.1782625 -0.26514784 2.3509886e-38
-2.1125796 1.1750584 -0.25756544 2.3509886e-38
-2.1000988 1.1738507 -0.25470325 2.3509884e-38
-2.0438149 1.1674254 -0.239489 1.1518997e-38
-1.9963229 1.1604459 -0.22298013 2.0740024e-38
-1.9809484 1.1589359 -0.21940197 2.0740026e-38
-1.9685558 1.1577601 -0.21661504 2.0647833e-38
-1.9530019 1.1562262 -0.21297993 2.0371966e-38
-1.9201562 1.1529517 -0.20522107 2.0280857e-38
-1.8993907 1.1508627 -0.20027113 2.0280502e-38
-1.8767697 1.1478273 -0.19308898 2.0188672e-38
-1.8331221 1.1415737 -0.17829563 1.9636952e-38
-1.7756622 1.1352284 -0.16326839 1.9270345e-38
-2.1508009 1.1755052 -0.25866824 2.3509886e-38
-2.1353087 1.1740037 -0.25511014 2.3509886e-38
-2.1143219 1.1718935 -0.25010973 2.3509886e-38
-2.0629373 1.1660807 -0.2363454 4.2319788e-39
-2.0352328 1.1632401 -0.22961554 9.6725509e-39
-2.0166671 1.1614031 -0.22526227 1.7049303e-38
-2.0097654 1.1590315 -0.21966481 2.0187209e-38
-1.986189 1.1567692 -0.21430288 1.9725508e-38
-1.9754549 1.1553457 -0.21093456 2.0555999e-38
-1.954634 1.1532645 -0.20600313 2.0371966e-38
-1.9174348 1.1488613 -0.19557856 2.0280136e-38
-1.8977153 1.1468964 -0.1909228 2.0096472e-38
-1.8783463 1.1449654 -0.18634704 2.0096837e-38
-1.8689871 1.1441196 -0.18434189 1.9821696e-38
-1.8517686 1.1404479 -0.17566746 1.972914e-38
-1.8346692 1.1387644 -0.17167802 1.963695e-38
-1.8028871 1.1349804 -0.16271992 1.8624254e-38
-1.7793188 1.1326133 -0.15711108 1.8440225e-38
-1.7666098 1.1314049 -0.15424684 1.8532789e-38
-1.7523926 1.1300553 -0.15104803 2.0005752e-38
-1.7368966 1.1286726 -0.1477695 1.2622843e-38
-1.7220569 1.1258489 -0.14109634 7.7346575e-39
-2.1570923 1.1730218 -0.25282454 2.3509886e-38
-2.1461368 1.1724124 -0.25137436 2.3509886e-38
-2.1203032 1.169037 -0.24338664 2.3509886e-38
-2.0993178 1.1669548 -0.23845258 2.3509886e-38
-2.089911 1.1662765 -0.23684216 1.6318266e-38
-2.0721233 1.163642 -0.23061103 2.9405295e-39
-2.033345 1.1598256 -0.22156703 8.562616e-39
-2.0183222 1.1583636 -0.21810229 1.4191954e-38
-2.0143616 1.1571072 -0.21513669 1.8986163e-38
-1.9871812 1.1532618 -0.20603965 2.0556348e-38
-1.9718199 1.1517947 -0.20256247 2.0463436e-38
-1.9375993 1.1477426 -0.1929692 2.0187941e-38
-1.9141366 1.1454232 -0.18747276 2.0187942e-38
-1.8944101 1.143486 -0.18288252 2.0004275e-38
-1.8799034 1.1421025 -0.17960329 2.018903e-38
-1.8705423 1.141268 -0.17762454 1.9820973e-38
-1.8530048 1.1375542 -0.16885035 2.0005729e-38
-1.8316945 1.1354795 -0.16393366 1.9452918e-38
-1.804389 1.1322088 -0.15619101 1.8071078e-38
-1.7808057 1.1298753 -0.15066124 1.8071438e-38
-1.7713642 1.1290191 -0.14863135 1.8071799e-38
-1.7550763 1.1272669 -0.14448096 1.8071804e-38
-1.7467098 1.1266738 -0.1430724 1.8899761e-38
-1.734313 1.1255133 -0.14032178 1.410014e-38
-2.1392961 1.1697507 -0.24509366 2.3509886e-38
-2.1237082 1.1663612 -0.23708613 2.3509886e-38
-2.098469 1.1627703 -0.22859144 2.3509886e-38
-2.0692477 1.1600612 -0.22216953 3.5858891e-39
-2.0362985 1.1564676 -0.21365798 5.7960605e-39
-2.0328567 1.1565561 -0.21386224 1.0593432e-38
-2.0079417 1.1540812 -0.20799795 1.93567e-38
-1.9927791 1.1505351 -0.19962196 2.0555628e-38
-1.9734212 1.1488107 -0.1955332 2.0280124e-38
-1.9572121 1.1464014 -0.18983452 2.0280127e-38
-1.9356369 1.1442921 -0.18483585 2.0096103e-38
-1.9156972 1.1425127 -0.18061669 2.000391e-38
-1.8959569 1.1406032 -0.1760914 1.991244e-38
-1.8787045 1.1389418 -0.17215389 2.0004278e-38
-1.8693466 1.1381181 -0.17020097 1.9728419e-38
-1.8370882 1.1333921 -0.1590219 1.889974e-38
-1.8298759 1.1322532 -0.15632869 1.9084857e-38
-1.8125364 1.1306118 -0.15243801 1.8530607e-38
-1.7927024 1.1280059 -0.14627171 1.7793415e-38
-1.7814586 1.1269863 -0.14385441 1.7241327e-38
-1.76932 1.1258851 -0.14124367 1.6964746e-38
-1.7402425 1.1224859 -0.13319577 1.8439158e-38
-1.7245107 1.1209788 -0.12962401 1.2992715e-38
-2.154994 1.1665624 -0.23760122 2.3509886e-38
-2.1192083 1.1626213 -0.22826752 2.3509886e-38
-2.0846632 1.1579949 -0.21732056 2.3509886e-38
-2.0725217 1.15693 -0.21479547 3.8729493e-39
-2.0371449 1.1533844 -0.20639408 5.794606e-39
-2.0288873 1.152645 -0.20464078 8.9314168e-39
-2.0227554 1.1515635 -0.20208462 1.5853237e-38
-1.9911053 1.1471769 -0.19170636 2.0280484e-38
-1.9753317 1.1449575 -0.18645626 2.0280485e-38
-1.9129729 1.1389502 -0.17221878 1.9450726e-38
-1.8992279 1.1376663 -0.1691754 1.9174871e-38
-1.8865576 1.1364518 -0.1662968 1.9174515e-38
-1.8754628 1.1355342 -0.1641199 1.982061e-38
-1.8654641 1.1346424 -0.16200536 1.9728777e-38
-1.83594 1.1310477 -0.15349624 1.9545112e-38
-1.7967277 1.1254795 -0.14032394 1.705582e-38
-1.7855194 1.1243682 -0.13769044 1.7329195e-38
-1.7769175 1.123634 -0.13594943 1.7330276e-38
-1.7707824 1.1231631 -0.13483159 1.7331e-38
-1.7392012 1.1195368 -0.1262452 1.7422847e-38
-1.7259257 1.1183115 -0.12334052 1.7698327e-38
-2.1594229 1.1636374 -0.23071465 2.341805e-38
-2.1418211 1.1616379 -0.22598012 2.3234379e-38
-1.9566299 1.1414559 -0.17818043 1.9358884e-38
-1.7741992 1.1204859 -0.12852737 1.4838819e-38
-1.7680825 1.1200231 -0.12742905 1.493281e-38
-1.7514248 1.1178018 -0.12217283 1.4194884e-38
-1.7397125 1.1167486 -0.11967567 1.4471117e-38
-1.7273228 1.1156434 -0.11705511 1.6038438e-38
-1.7711077 1.117316 -0.12105381 1.078147e-38
-1.7664855 1.116771 -0.11976378 1.1241351e-38
-1.7528449 1.1151038 -0.1158175 1.1703411e-38
-1.7378948 1.1137565 -0.11262292 1.1980363e-38
-1.7287024 1.1129744 -0.11076777 1.3270745e-38
-1.716387 1.1118932 -0.10820382 1.2808668e-38
-1.763595 1.1137513 -0.11264411 1.0042452e-38
-1.7533445 1.1121875 -0.10894609 1.0501619e-38
-1.7450384 1.1115184 -0.10735845 1.1239907e-38
-1.7358111 1.1107473 -0.10552961 1.2070021e-38
-1.7177436 1.1092398 -0.10195346 1.2714673e-38
-1.7012498 1.1069562 -0.096550778 1.1975303e-38
-1.6942407 1.1057234 -0.093636662 7.2718786e-39
-1.7655811 1.1108038 -0.10570168 7.002877e-39
-1.755969 1.1095908 -0.10283072 9.3048698e-39
-1.7531059 1.1095381 -0.10270254 1.0317587e-38
-1.7415311 1.1082958 -0.099760123 1.1238813e-38
-1.7227707 1.1067727 -0.096146405 1.1884908e-38
-1.710353 1.1050109 -0.091978833 1.2530268e-38
-1.7717432 1.1091241 -0.10175151 2.8519507e-39
-1.758093 1.1071011 -0.096966498 6.354279e-39
-1.7555122 1.106851 -0.09637396 9.1193996e-39
-1.7394634 1.1053036 -0.092706807 1.0777824e-38
-1.7283221 1.1043973 -0.090556525 1.1146975e-38
-1.7159497 1.1026498 -0.086422481 1.1424276e-38
-1.698838 1.1011622 -0.082894489 1.2252957e-38
-1.7637273 1.104725 -0.091375083 5.7099591e-39
-1.7579113 1.1041626 -0.090042263 7.8261384e-39
-1.7376902 1.1023493 -0.085742861 1.0225009e-38
-1.6970518 1.0982603 -0.076054297 1.1608661e-38
-1.6853563 1.0973074 -0.073793843 1.0683107e-38
-1.7665044 1.1037228 -0.089017026 4.140495e-39
-1.7507718 1.1006083 -0.081657499 7.8254167e-39
-1.7390549 1.0996804 -0.07945592 9.487438e-39
-1.7310617 1.099079 -0.078028306 1.013318e-38
-1.7148671 1.097734 -0.074837513 1.1145885e-38
-1.6983851 1.0956411 -0.069884188 1.1331351e-38
-1.6904604 1.0950469 -0.068473831 1.1606135e-38
-1.675902 1.0938404 -0.065611526 7.823965e-39
-1.7626674 1.1004591 -0.081321687 4.6936646e-39
-1.7608474 1.0989375 -0.077733681 6.3524405e-39
-1.7466443 1.0974524 -0.074215695 8.287827e-39
-1.7380369 1.0960631 -0.070930697 9.3941774e-39
-1.7158576 1.0943363 -0.066832498 1.0316841e-38
-1.6997017 1.0930209 -0.063711897 1.0961486e-38
-1.761771 1.0969856 -0.07313557 5.1539099e-39
-1.7246605 1.0922198 -0.061857052 9.7625914e-39
-1.7079793 1.0908344 -0.058570389 9.9484176e-39
-1.698193 1.0901043 -0.056837048 1.0777098e-38
-1.7684096 1.0947623 -0.067905493 5.2453895e-39
-1.750209 1.092792 -0.063238844 7.5488215e-39
-1.7330546 1.0914361 -0.060021177 8.2860348e-39
-1.7304606 1.089913 -0.056428794 9.2086987e-39
-1.6995035 1.0874875 -0.050672811 1.0592707e-38
-1.6879231 1.0865901 -0.048542995 1.1329917e-38
-1.673893 1.0852495 -0.045365676 1.0592359e-38
-1.6599741 1.083714 -0.041728996 7.1796802e-39
-1.7659454 1.0915945 -0.060437687 4.0479379e-39
-1.7575027 1.0910163 -0.059064075 7.9190319e-39
-1.7477072 1.090313 -0.057393819 8.1949069e-39
-1.7220559 1.0873269 -0.050323937 7.3655106e-39
-1.7165742 1.0859569 -0.047088698 9.4859961e-39
-1.7003926 1.0847132 -0.044136666 1.0132456e-38
-1.6897825 1.0839238 -0.042262461 1.0868943e-38
-1.6739486 1.0827044 -0.039368492 1.1329561e-38
-1.6619451 1.0810717 -0.035505395 7.6392276e-39
-1.7641858 1.0886478 -0.05349173 4.6936548e-39
-1.7615348 1.0885614 -0.053284716 8.1952544e-39
-1.7490472 1.0876379 -0.051091976 8.3789409e-39
-1.7363186 1.0866919 -0.048846334 8.6562508e-39
-1.7205697 1.0835501 -0.041422483 9.300537e-39
-1.7027907 1.0821776 -0.038164873 1.0039537e-38
-1.6869147 1.0802312 -0.033557568 1.0224291e-38
-1.6748677 1.0793512 -0.031468093 1.1145538e-38
-1.6631924 1.0785004 -0.029448096 9.3012615e-39
-1.7654883 1.0859514 -0.04713985 5.0609982e-39
-1.7559741 1.0852958 -0.04558225 8.1956188e-39
-1.7534158 1.0852001 -0.045353618 8.7473604e-39
-1.7219129 1.080894 -0.035165388 9.2087015e-39
-1.7097861 1.0800223 -0.033095419 9.7622312e-39
-1.6946946 1.0781462 -0.028654907 1.0132101e-38
-1.678811 1.07699 -0.025909582 1.0777832e-38
-1.6671592 1.0761402 -0.02389157 1.0223578e-38
-1.7745155 1.0840877 -0.042760033 4.5071182e-39
-1.7635167 1.0829759 -0.04012559 8.4718413e-39
-1.7532948 1.0823941 -0.038741447 8.6555263e-39
-1.7266393 1.0783989 -0.029292377 9.3008943e-39
-1.6959141 1.0755304 -0.022492411 1.0315413e-38
-1.6740776 1.0738099 -0.018409688 1.0686355e-38
-1.7709048 1.0809287 -0.035311285 5.2446706e-39
-1.7683295 1.080686 -0.034736261 8.38001e-39
-1.7567347 1.0797564 -0.032530244 8.7480835e-39
-1.741877 1.0776908 -0.027643787 8.1027169e-39
-1.726776 1.0762501 -0.024228867 9.0243061e-39
-1.7106669 1.0750788 -0.02144793 9.1168688e-39
-1.7032835 1.0746198 -0.020356268 9.3934613e-39
-1.6792819 1.0715779 -0.013157096 1.0962229e-38
-1.663452 1.0704553 -0.010490985 1.0593064e-38
-1.776449 1.0789357 -0.030622387 3.9528724e-39
-1.7722505 1.0780613 -0.028556533 7.8257643e-39
-1.7530637 1.0767622 -0.025470272 8.4714882e-39
-1.7348965 1.0746659 -0.02050671 9.4852898e-39
-1.7189142 1.073542 -0.017837225 9.6696867e-39
-1.7026979 1.0723994 -0.015123458 1.0130307e-38
-1.6798354 1.0688156 -0.0066486462 1.0961858e-38
-1.664645 1.0678854 -0.0044368454 1.1145897e-38
-1.7767045 1.0755463 -0.022636041 8.564044e-39
-1.7638922 1.0745664 -0.020310206 9.1161402e-39
-1.7513788 1.073727 -0.018315775 9.3008929e-39
-1.7236353 1.0710412 -0.011950649 1.0038108e-38
-1.7067901 1.0694932 -0.0082809087 9.6700468e-39
-1.6782577 1.0660107 -3.7370814e-05 1.0962585e-38
-1.6665505 1.065239 0.001796448 1.1516113e-38
-1.6553062 1.0645189 0.0035078151 9.9462764e-39
-1.7721522 1.0730253 -0.016689768 7.27115e-39
-1.7564183 1.0705264 -0.010780646 9.6686049e-39
-1.7408434 1.0694743 -0.0082810847 9.7622368e-39
-1.7248356 1.0683961 -0.005719454 1.02225e-38
-1.7059114 1.0671117 -0.0026681956 1.0315775e-38
-1.6918994 1.0659264 0.00014326542 1.0040623e-38
-1.6822183 1.0636346 0.0055563087 1.1054076e-38
-1.6677119 1.0626665 0.0078566829 1.1423224e-38
-1.656487 1.061963 0.0095292702 1.1145541e-38
-1.7873991 1.0717034 -0.013594859 6.1666101e-39
-1.7850603 1.0712713 -0.012573639 7.2704437e-39
-1.7545284 1.0676066 -0.0038980001 9.6696853e-39
-1.7393538 1.0666208 -0.0015552628 1.0038824e-38
-1.7272415 1.0658468 0.00028455045 1.0223229e-38
-1.7070972 1.0644931 0.0035008157 1.0500172e-38
-1.6953176 1.0637397 0.0052916999 1.0777841e-38
-1.6650038 1.0603318 0.01336173 1.0964383e-38
-1.6576514 1.0594058 0.015553394 1.1423216e-38
-1.6426506 1.0589232 0.016710028 6.7179818e-39
-1.8074073 1.0710704 -0.012129661 5.0599276e-39
-1.7910491 1.0692927 -0.0079190433 6.2595218e-39
-1.7839855 1.0682831 -0.0055306144 8.0097996e-39
-1.7675637 1.0664877 -0.0012786074 9.5767638e-39
-1.7527668 1.0647215 0.002902637 9.761518e-39
-1.7433729 1.0641637 0.0042294273 1.0131381e-38
-1.7110885 1.0620817 0.0091777993 1.0777478e-38
-1.6964799 1.0611353 0.011427084 1.0962233e-38
-1.6805646 1.0601057 0.013874207 1.1147349e-38
-1.675102 1.0595009 0.015306309 1.0779298e-38
-1.6558716 1.0570438 0.02112144 1.1517198e-38
-1.6449312 1.0563732 0.022715885 1.0132467e-38
-1.857492 1.0722045 -0.014867504 3.4980039e-39
-1.8423824 1.0703578 -0.010496106 4.8777014e-39
-1.8248249 1.0692282 -0.0078114276 5.0602807e-39
-1.8158038 1.0686926 -0.0065375147 6.4439354e-39
-1.8018671 1.0669764 -0.0024752838 8.3789409e-39
-1.7880303 1.0655153 0.00098600588 8.4707735e-39
-1.7763418 1.0648022 0.0026815881 8.7477262e-39
-1.7488779 1.0629749 0.0070234085 9.3008929e-39
-1.7484739 1.0616388 0.010172258 1.0131029e-38
-1.7173245 1.0597308 0.014709286 1.0316868e-38
-1.7061166 1.0589586 0.016543409 1.0962595e-38
-1.6875249 1.057779 0.019347522 1.1239187e-38
-1.6731405 1.0568876 0.02146695 1.1332828e-38
-1.6648731 1.0556147 0.024477093 1.2070747e-38
-1.6561475 1.0550967 0.025709139 1.1517569e-38
-1.9972441 1.0811032 -0.036020074 2.7608088e-39
-1.9302334 1.0751734 -0.021958886 4.2330466e-39
-1.8748143 1.071069 -0.012214755 4.6954611e-39
-1.8572615 1.0684056 -0.0059159119 6.4453732e-39
-1.8436179 1.0675697 -0.0039280183 5.7985716e-39
-1.8260504 1.0664644 -0.0013005078 6.3496e-39
-1.8170232 1.0659391 -5.0837461e-05 7.8268447e-39
-1.7764751 1.0626183 0.0078275558 9.4849367e-39
-1.7588828 1.0615042 0.010475763 9.7615222e-39
-1.7261238 1.0575293 0.019885059 1.0961881e-38
-1.704633 1.0561731 0.023109032 1.1239189e-38
-1.6848519 1.0549333 0.026056591 1.1424655e-38
-1.6742953 1.0543176 0.02752124 1.1793803e-38
-1.6625574 1.052817 0.031072628 1.2439535e-38
-1.6572746 1.0525411 0.03172975 1.1886363e-38
-1.6406978 1.0512053 0.034899253 6.258091e-39
-1.9596126 1.0748854 -0.021318689 5.8032688e-39
-1.9103487 1.0709449 -0.011968977 7.7379057e-39
-1.8881127 1.0695448 -0.0086406702 7.5506347e-39
-1.8743711 1.0687095 -0.0066544246 7.1822151e-39
-1.8619746 1.0658412 0.00012085747 9.7658382e-39
-1.8480285 1.0650033 0.0021136981 8.6566194e-39
-1.8304461 1.0639226 0.0046830098 8.013059e-39
-1.8216966 1.0634284 0.005859205 8.3811129e-39
-1.8046682 1.0623693 0.0083771637 8.9321314e-39
-1.7864022 1.061488 0.010477785 8.5633433e-39
-1.7912328 1.0606557 0.01243267 9.6700482e-39
-1.7677017 1.0588143 0.016802657 9.3938201e-39
-1.7441252 1.0575315 0.019856397 9.9466379e-39
-1.7293885 1.054896 0.0260859 1.123918e-38
-1.7094295 1.0536791 0.028979486 1.1332459e-38
-1.6934571 1.0527186 0.031263772 1.1516859e-38
-1.6790763 1.0518686 0.033285912 1.1978553e-38
-1.6731539 1.0515667 0.034004766 1.1979282e-38
-1.6610827 1.0500503 0.037594028 1.2992715e-38
-1.9520335 1.0712436 -0.012727645 1.0781464e-38
-1.9419742 1.0705055 -0.010975053 1.3268925e-38
-1.9115725 1.0680524 -0.0051548141 1.4651495e-38
-1.8908288 1.0667924 -0.0021583678 1.465078e-38
-1.8770907 1.0656774 0.00048682085 1.2900497e-38
-1.8631977 1.0630287 0.0067464728 1.1148428e-38
-1.8492445 1.062209 0.0086962888 1.0133189e-38
-1.8423122 1.0625155 0.0079831844 7.1843774e-39
-1.8280635 1.0608463 0.011935177 9.5803693e-39
-1.8190563 1.0603474 0.013122685 9.3034237e-39
-1.7996351 1.0591643 0.015936015 9.5792819e-39
-1.7895348 1.0577514 0.019278377 1.0039545e-38
-1.760823 1.0560528 0.023318822 1.0592363e-38
-1.7392448 1.054495 0.027017988 1.0409771e-38
-1.7279195 1.0520897 0.032700714 1.1239902e-38
-1.710572 1.0510607 0.035148088 1.1516494e-38
-1.6917006 1.0499269 0.037844673 1.1701254e-38
-1.6802148 1.0492922 0.03935514 1.2254424e-38
-1.6716952 1.0488399 0.040432129 1.2348064e-38
-1.6622064 1.0474913 0.043622535 1.3085273e-38
-1.9594971 1.0687593 -0.0068834042 8.1052238e-39
-1.9654025 1.0695326 -0.0087134838 1.0227855e-38
-1.9311447 1.0671651 -0.0030897635 1.3635884e-38
-1.9163089 1.0654156 0.0010523397 1.2807215e-38
-1.8998611 1.064443 0.0033658317 1.3176003e-38
-1.8863335 1.0637255 0.0050743176 1.2348054e-38
-1.8663387 1.0620764 0.0089862915 1.1425369e-38
-1.8587884 1.0611385 0.011206325 8.5673188e-39
-1.8468635 1.0591112 0.015999028 1.0133554e-38
-1.8292665 1.0580807 0.01845032 9.7640599e-39
-1.8202562 1.0575923 0.019613208 9.6718573e-39
-1.7922612 1.0551288 0.025454774 1.0131744e-38
-1.7735773 1.0540303 0.028067714 1.0315422e-38
-1.7548671 1.0529079 0.030737052 1.0961149e-38
-1.7414145 1.0521489 0.032543223 1.1055149e-38
-1.7116971 1.0484411 0.041319627 1.160833e-38
-1.6969757 1.047591 0.043341927 1.1886363e-38
-1.6839237 1.0468683 0.04506205 1.2254788e-38
-1.6666598 1.0450497 0.049369909 1.244027e-38
-1.6613208 1.0447878 0.049994111 1.2994521e-38
-1.9487503 1.0651233 0.0016984401 8.1985349e-39
-1.9409872 1.0647255 0.0026461144 1.050304e-38
-1.9257977 1.0629338 0.0068879235 1.206857e-38
-1.9052664 1.0615897 0.010081862 1.2161484e-38
-1.8896712 1.0608006 0.011962195 1.2715021e-38
-1.8787538 1.060191 0.013412813 1.2346598e-38
-1.8580596 1.05897 0.016317185 1.1147348e-38
-1.8445415 1.056646 0.021811074 1.004172e-38
-1.8304517 1.0553139 0.024968471 1.0133556e-38
-1.8214378 1.0548358 0.02610692 1.013355e-38
-1.7873327 1.0520263 0.032772005 1.0132103e-38
-1.7747415 1.0513316 0.034425408 1.0315786e-38
-1.7559915 1.0502329 0.037039105 1.0777843e-38
-1.7425467 1.0494931 0.038799811 1.1055153e-38
-1.7261766 1.0485597 0.041021083 1.1423221e-38
-1.7190858 1.0472907 0.044020623 8.7538807e-39
-1.70239 1.0456839 0.047828812 1.1333542e-38
-1.6865684 1.0448169 0.04989253 1.1609783e-38
-1.6750652 1.0441997 0.051361598 1.1887089e-38
-1.6677473 1.0424247 0.055554017 1.2901602e-38
-1.6585785 1.0419389 0.056710679 1.3455143e-38
-1.6474948 1.0413618 0.058085263 1.0963692e-38
-1.9608251 1.0636204 0.0052239243 5.6149133e-39
-1.9528822 1.0623149 0.0083108926 8.1041743e-39
-1.9334347 1.0607877 0.011934925 8.4747476e-39
-1.9114096 1.0591384 0.015850188 1.1607577e-38
-1.8887937 1.0578233 0.018978724 1.2254397e-38
-1.8799379 1.0573621 0.020077068 1.2069291e-38
-1.8623794 1.0563529 0.022478575 1.1055509e-38
-1.8293902 1.0528682 0.0307329 9.7654892e-39
-1.8100349 1.0520233 0.03274928 9.7658396e-39
-1.7972869 1.0513331 0.03439245 9.8566003e-39
-1.7864666 1.0490607 0.039761331 1.0408339e-38
-1.7770898 1.0485858 0.040892553 1.0500889e-38
-1.7574154 1.0474731 0.043540407 1.0778201e-38
-1.747426 1.0469416 0.044805706 1.1147346e-38
-1.7311263 1.0461563 0.046677824 1.1423581e-38
-1.7213025 1.0452079 0.048925292 1.0779303e-38
-1.7082435 1.0434968 0.052974254 1.1426098e-38
-1.6987376 1.0434682 0.053054374 1.2070404e-38
-1.6827701 1.0425874 0.055150952 1.234771e-38
-1.6688361 1.0398589 0.061598539 1.3177835e-38
-1.9518826 1.060099 0.013533461 6.3542537e-39
-1.943231 1.0596557 0.014589616 7.7350386e-39
-1.9283879 1.0588495 0.016508823 1.0133165e-38
-1.9163635 1.056372 0.022362264 1.0684901e-38
-1.8980196 1.0553467 0.024802355 1.1516103e-38
-1.8852504 1.0546519 0.026456444 1.170086e-38
-1.8715273 1.053912 0.028218037 1.1424275e-38
-1.8493571 1.0526516 0.031216841 1.0778558e-38
-1.8400404 1.0517774 0.033289328 1.004028e-38
-1.8198673 1.0501851 0.037067991 1.041014e-38
-1.807158 1.0495068 0.038682796 1.0317584e-38
-1.7858065 1.0466019 0.045555923 9.8551738e-39
-1.7740407 1.0456393 0.047839604 1.0777479e-38
-1.7627317 1.0452377 0.048800983 1.0317946e-38
-1.7538328 1.0445644 0.050399017 1.1147705e-38
-1.7373589 1.0436746 0.052517418 1.1332459e-38
-1.7264676 1.0431165 0.053847015 1.1517217e-38
-1.7158918 1.041719 0.057153862 1.2070753e-38
-1.6956638 1.0406209 0.059767693 1.2346631e-38
-1.6769514 1.0392829 0.06294518 1.2348073e-38
-1.67467 1.0377915 0.066462509 1.2532832e-38
-1.6657349 1.0370051 0.068327293 1.3364028e-38
-1.6504599 1.0362023 0.07023897 1.4469289e-38
-1.9516189 1.0575438 0.019555056 7.0907258e-39
-1.9368286 1.0567511 0.021442303 8.0130464e-39
-1.9222108 1.0537666 0.028494038 9.5781987e-39
-1.8963467 1.0523362 0.031898644 1.0871454e-38
-1.8900267 1.0520382 0.032609168 1.1330993e-38
-1.8728757 1.0511249 0.034783654 1.1331355e-38
-1.8476388 1.0497059 0.038160704 1.0870386e-38
-1.834602 1.049021 0.03979142 1.0593086e-38
-1.821026 1.0474322 0.043553255 1.041013e-38
-1.8018864 1.0460865 0.046749234 1.0040281e-38
-1.7832267 1.045073 0.049161851 1.0040278e-38
-1.7772299 1.0441355 0.051379051 7.9219466e-39
-1.7750372 1.042873 0.054356679 1.1054064e-38
-1.7611148 1.0421485 0.056082286 1.123954e-38
-1.7455429 1.0413235 0.058046665 1.1424295e-38
-1.7307929 1.0405623 0.059859764 1.179344e-38
-1.7214589 1.0400943 0.060974747 1.1978559e-38
-1.7060604 1.0384328 0.06490992 1.2347349e-38
-1.6887414 1.0375218 0.067079492 1.2715777e-38
-1.6730677 1.0364367 0.069656968 1.2810846e-38
-1.6629916 1.0342312 0.07486733 1.3548067e-38
-1.6515199 1.0336601 0.076228045 1.4562215e-38
-1.63791 1.0329765 0.077856787 5.9818629e-39
-1.9528443 1.0546277 0.026424922 6.8141375e-39
-1.9384996 1.0535767 0.028920108 7.7353749e-39
-1.9202982 1.0507134 0.035691004 9.3001755e-39
-1.9071366 1.0500307 0.037316903 1.0686341e-38
-1.8880877 1.0490279 0.039704926 1.1054046e-38
-1.8740504 1.0483069 0.041422386 1.1239512e-38
-1.8445154 1.0466812 0.045292057 1.1330635e-38
-1.8355311 1.0453577 0.0484224 1.0870024e-38
-1.8254794 1.0448747 0.049573828 1.050161e-38
-1.8157266 1.044246 0.051068287 7.9222969e-39
-1.8093066 1.0439638 0.051741518 1.0500888e-38
-1.7843772 1.0424 0.055459049 1.0132474e-38
-1.7761906 1.0401771 0.060707666 1.0962229e-38
-1.7664573 1.0397027 0.061838448 1.1515048e-38
-1.740816 1.0383377 0.065088503 1.1515777e-38
-1.7319065 1.037925 0.066072755 1.1793444e-38
-1.7221789 1.0365739 0.06926924 1.2346625e-38
-1.6978066 1.035305 0.072291046 1.262358e-38
-1.6898258 1.0349344 0.073174931 1.2808332e-38
-1.6761239 1.0342551 0.074793443 1.3270753e-38
-1.666694 1.033145 0.077421971 1.0415941e-38
-1.6503109 1.0310006 0.082496211 1.4746615e-38
-1.6356302 1.0307218 0.083172865 7.090744e-39
-1.9677947 1.0527718 0.030778246 4.5060378e-39
-1.9623693 1.0522562 0.032000441 4.1433761e-39
-1.9321812 1.0505552 0.036048237 7.9194074e-39
-1.9219344 1.0494509 0.038663764 6.3506608e-39
-1.9089658 1.0484419 0.041058384 7.737886e-39
-1.8947806 1.0465126 0.04562328 1.0777457e-38
-1.8723766 1.0453383 0.048419889 1.1329909e-38
-1.8683114 1.045344 0.04841163 8.4751064e-39
-1.8506087 1.0441368 0.051279433 1.1515735e-38
-1.8332161 1.0423205 0.055582363 1.0870012e-38
-1.8234395 1.0418658 0.056666534 1.0592716e-38
-1.810454 1.0412256 0.058192205 1.0592716e-38
-1.7867523 1.0399915 0.061131384 1.0593089e-38
-1.7716701 1.0384589 0.064762458 8.1988866e-39
-1.7578133 1.0364892 0.069421984 1.1515767e-38
-1.7419031 1.0356873 0.071332462 1.1609049e-38
-1.733003 1.0352863 0.072289146 1.207003e-38
-1.7174248 1.0336262 0.076221384 1.2347344e-38
-1.6988786 1.0327073 0.07841108 1.2624655e-38
-1.688638 1.0322317 0.079545178 1.299309e-38
-1.677196 1.031685 0.080848366 1.3362592e-38
-1.6626906 1.0309613 0.082572825 1.4009047e-38
-1.6510645 1.0296681 0.085635267 1.1798522e-38
-1.6395729 1.0288059 0.087682128 1.1705213e-38
-1.9777557 1.0502856 0.036623862 4.2316075e-39
-1.9691576 1.04943 0.038651053 6.7219334e-39
-1.9373335 1.0478952 0.042309433 7.735019e-39
-1.9264864 1.0473884 0.043517832 8.8399162e-39
-1.9138589 1.0467798 0.044968709 1.0223923e-38
-1.887326 1.0443132 0.050815657 7.8311593e-39
-1.8862153 1.0436358 0.052413333 1.0316483e-38
-1.8728914 1.0424041 0.055333082 1.1329547e-38
-1.8548274 1.0415072 0.05747018 1.1515385e-38
-1.8343427 1.039551 0.062106732 1.0961133e-38
-1.8245758 1.0391093 0.06316039 1.0776378e-38
-1.8082398 1.0382966 0.065096729 1.0592716e-38
-1.7878671 1.0372847 0.067507789 1.0776755e-38
-1.777728 1.0368028 0.06865707 1.1146978e-38
-1.7654535 1.0347698 0.073463634 1.1055868e-38
-1.7435267 1.0336876 0.076042369 1.1608689e-38
-1.731884 1.0331539 0.077315368 1.1885994e-38
-1.7184762 1.0310005 0.082407132 1.2531378e-38
-1.703771 1.0303067 0.08406119 1.2716858e-38
-1.6956785 1.0303563 0.083955027 9.4929073e-39
-1.6891253 1.0295385 0.085890561 1.299381e-38
-1.6776812 1.0290076 0.087156646 1.3455156e-38
-1.6601075 1.0281647 0.089166075 1.4193437e-38
-1.6457193 1.0274674 0.090828098 1.4839166e-38
-1.9693788 1.0464495 0.045673802 6.9052499e-39
-1.9471445 1.0453387 0.048320573 7.6431737e-39
-1.9300853 1.0445281 0.050252963 7.7346546e-39
-1.9195696 1.0439991 0.051513631 8.8402749e-39
-1.9030378 1.0431873 0.053448077 9.9473386e-39
-1.8825198 1.0406877 0.059365004 1.0224643e-38
-1.8676709 1.0399613 0.061096266 1.1146229e-38
-1.8548394 1.0393715 0.062502734 1.1238802e-38
-1.8419116 1.0371186 0.067828521 1.1053322e-38
-1.8256937 1.0363513 0.069657825 1.0960046e-38
-1.8126956 1.0357448 0.071104005 1.0868212e-38
-1.7931967 1.0347953 0.073366888 1.0869306e-38
-1.778806 1.034107 0.07500793 1.1423203e-38
-1.763775 1.0329583 0.077734433 1.0686731e-38
-1.7459872 1.0316288 0.080890276 1.1793439e-38
-1.7352724 1.0313317 0.081604607 1.1056606e-38
-1.719285 1.0298437 0.085132055 1.1978198e-38
-1.7114685 1.0279074 0.089704953 1.2716847e-38
-1.7017493 1.0274737 0.090739585 1.2901972e-38
-1.690172 1.0269512 0.091986008 1.317856e-38
-1.6799833 1.0265046 0.093051709 1.364062e-38
-1.6540401 1.0253048 0.095912933 1.4655497e-38
-1.9764616 1.045045 0.048974108 1.3775366e-39
-1.9545376 1.0427319 0.054453544 7.4591426e-39
-1.9396704 1.0420346 0.056116216 7.7350176e-39
-1.921387 1.0411466 0.058232613 8.5640524e-39
-1.8992127 1.0400798 0.060775381 9.5785546e-39
-1.891575 1.03921 0.06283512 9.4870863e-39
-1.8763998 1.0379466 0.065832362 1.0684901e-38
-1.8614608 1.0372587 0.067472562 1.1329906e-38
-1.8442193 1.0346879 0.073552959 1.0500512e-38
-1.8313874 1.0336987 0.075900771 1.123627e-38
-1.8153057 1.0329624 0.077656887 1.0960046e-38
-1.8022228 1.0323699 0.079070464 1.0868586e-38
-1.7883371 1.0317158 0.080630034 1.1238097e-38
-1.7715497 1.0309356 0.082490243 1.142429e-38
-1.7456553 1.0288383 0.087466396 1.1977828e-38
-1.7201705 1.0273329 0.091047257 1.2070398e-38
-1.7198998 1.0259521 0.094301268 1.1610513e-38
-1.7086021 1.0251565 0.09619081 1.2901612e-38
-1.6950405 1.0245484 0.097641423 1.3179641e-38
-1.6810192 1.0239284 0.099120706 1.3916849e-38
-1.9828767 1.0429827 0.053825397 4.2330466e-39
-1.968114 1.0424906 0.055004362 5.336862e-39
-1.9607314 1.039934 0.06103823 7.2743926e-39
-1.9458437 1.0392574 0.062652238 7.7346589e-39
-1.9312432 1.0385935 0.064235754 8.1034428e-39
-1.9050236 1.0373441 0.067214303 8.9317587e-39
-1.8958076 1.0369476 0.068160571 1.003953e-38
-1.8766398 1.0350901 0.072562784 1.040904e-38
-1.8588847 1.0342628 0.07453572 1.077781e-38
-1.8459506 1.0333785 0.076636463 1.0868929e-38
-1.8343377 1.0310268 0.082192928 1.123735e-38
-1.8164152 1.030218 0.084122382 1.0960411e-38
-1.8033248 1.0296425 0.085495852 1.1052616e-38
-1.7833476 1.0290488 0.086920939 1.0870384e-38
-1.7543375 1.0264393 0.093107976 1.197783e-38
-1.73342 1.0254936 0.095363952 1.2346263e-38
-1.7081233 1.0239882 0.098944299 9.5829379e-39
-1.6974103 1.0232011 0.10081308 9.585456e-39
-1.6999749 1.0220218 0.10358854 1.3548056e-38
-1.6591631 1.02027 0.10777014 1.5209034e-38
-1.9817226 1.039474 0.062094677 3.4980039e-39
-1.9669374 1.0372508 0.067352951 7.182913e-39
-1.9520351 1.0365932 0.068921991 7.7346603e-39
-1.9152391 1.0349457 0.072852314 8.6558851e-39
-1.8969582 1.0341076 0.074851349 9.762227e-39
-1.8823955 1.0324931 0.078674741 1.0409036e-38
-1.859992 1.0314656 0.081125259 1.0592346e-38
-1.8444102 1.0307842 0.082751237 1.1238435e-38
-1.8269569 1.0293803 0.086082503 8.2903438e-39
-1.8140996 1.0284795 0.088222109 8.2903438e-39
-1.8144386 1.0272506 0.091117181 1.1145517e-38
-1.8011005 1.0266826 0.092473291 1.1054412e-38
-1.7719944 1.0254141 0.095500529 1.2068577e-38
-1.7519797 1.0236006 0.099800251 1.2253701e-38
-1.7344728 1.0228528 0.10158524 1.2623564e-38
-1.7288669 1.0226408 0.10209204 1.2807969e-38
-1.7090142 1.0215125 0.10477678 1.1519401e-38
-1.9837171 1.0371324 0.067609854 5.6163216e-39
-1.9704862 1.03589 0.070554771 4.1433761e-39
-1.9363229 1.0329416 0.077547014 8.1034358e-39
-1.9194015 1.0322143 0.079283237 8.6555319e-39
-1.900838 1.0313879 0.081254803 9.4860031e-39
-1.8862511 1.029785 0.085050821 9.9473456e-39
-1.861082 1.028667 0.087718464 1.0500154e-38
-1.8531003 1.0283101 0.088570006 7.5527941e-39
-1.8411539 1.027709 0.090002142 1.1329543e-38
-1.8330775 1.0274115 0.090713724 1.1329904e-38
-1.805797 1.025268 0.095800519 8.1977978e-39
-1.7730433 1.0227262 0.10183302 1.2161134e-38
-1.7529995 1.020934 0.1060822 1.23459e-38
-1.7355088 1.0202105 0.10781002 1.2715759e-38
-1.7260326 1.0198299 0.10871948 1.2900167e-38
-1.7127693 1.0190685 0.11053112 9.6772985e-39
-1.6588151 1.0156296 0.11870503 1.5024648e-38
-1.9919169 1.0345972 0.073572941 3.4025769e-39
-1.976797 1.033805 0.075459406 3.1285053e-39
-1.9766176 1.0336615 0.075797953 5.4333652e-39
-1.9475436 1.0310477 0.081995048 7.6421031e-39
-1.9353377 1.0305989 0.083068751 7.9190417e-39
-1.9205288 1.0293425 0.086048655 8.5633363e-39
-1.9051856 1.0281882 0.088788606 8.1027239e-39
-1.8588344 1.0256399 0.094854482 1.0407238e-38
-1.846477 1.0251268 0.096079633 1.1329181e-38
-1.7807548 1.0209199 0.10607889 1.1606871e-38
-1.7684957 1.0204493 0.10720409 1.197674e-38
-1.7540023 1.0182661 0.1123676 1.234805e-38
-1.7389565 1.0176665 0.11380029 1.2807959e-38
-1.7246102 1.0170985 0.11515727 1.3176754e-38
-1.7161875 1.0168109 0.11584628 9.8616828e-39
-1.9985828 1.0320015 0.079680607 1.8367099e-39
-1.9891876 1.0314339 0.081030294 5.3382969e-39
-1.979059 1.0310469 0.081955746 6.5386212e-39
-1.9358709 1.0287447 0.08743725 7.3658833e-39
-1.9302391 1.0274243 0.090555854 7.9190417e-39
-1.9117965 1.0267007 0.092285074 8.2867536e-39
-1.8978007 1.0261593 0.093579374 9.1179352e-39
-1.8794339 1.0236554 0.099503621 9.7622298e-39
-1.8637017 1.0230198 0.10102203 1.0407236e-38
-1.8475219 1.0223445 0.10263461 1.123663e-38
-1.8352338 1.0218816 0.10374144 1.1605771e-38
-1.7872373 1.0189873 0.11062451 1.1882746e-38
-1.7745452 1.0184904 0.11181203 1.2345526e-38
-1.762255 1.0162588 0.11708646 1.151794e-38
-1.7458441 1.0154727 0.1189606 1.1702337e-38
-1.7259364 1.0144985 0.12128243 1.299235e-38
-1.7196057 1.0145533 0.12116155 1.0320503e-38
-1.7130926 1.0139103 0.12268509 1.3823573e-38
-1.6553409 1.0104154 0.13099645 1.5855134e-38
-1.6407045 1.0098865 0.13226175 6.169536e-39
-1.9966935 1.0286578 0.087562121 1.9292685e-39
-1.9851493 1.0283922 0.088203274 5.7074326e-39
-1.9703013 1.0277884 0.089645237 4.0522413e-39
-1.9636357 1.0273669 0.090647399 7.6424576e-39
-1.9394188 1.0266037 0.092477582 7.8268503e-39
-1.9289259 1.0249591 0.096366771 8.2871096e-39
-1.9158803 1.0244707 0.097534671 8.5636979e-39
-1.8805255 1.0208308 0.1061581 9.3941662e-39
-1.8609548 1.0200444 0.10803659 1.0315041e-38
-1.8416023 1.0192764 0.10987201 1.1052239e-38
-1.8362851 1.0191143 0.11026099 1.1422101e-38
-1.743569 1.0141423 0.12209844 1.253029e-38
-1.7379653 1.012172 0.12674868 1.3269297e-38
-1.7260404 1.0117356 0.12779278 1.3822838e-38
-1.636989 1.0071716 0.13866387 2.5721114e-39
-1.9978474 1.0256912 0.094551153 3.1263529e-39
-1.9909996 1.0257558 0.094407722 5.7996296e-39
-1.9741249 1.0252631 0.095590807 3.9596883e-39
-1.9605623 1.0242524 0.097990349 7.7339344e-39
-1.9532855 1.0235873 0.099566907 7.0896566e-39
-1.9306108 1.0225294 0.10208999 7.3662379e-39
-1.9179586 1.0215055 0.10451905 8.3796723e-39
-1.8872955 1.0200456 0.10799924 9.0253837e-39
-1.8676436 1.017603 0.11378064 9.11615e-39
-1.850911 1.0167285 0.11586341 1.0684178e-38
-1.8374708 1.0162345 0.11704513 1.1421378e-38
-1.8243376 1.0157505 0.11820262 1.169833e-38
-1.8106399 1.015244 0.11941452 1.1790899e-38
-1.7934219 1.0149996 0.12001289 1.1422125e-38
-1.7689385 1.012735 0.12538125 1.2622116e-38
-1.7443073 1.0115986 0.12809151 1.2623565e-38
-1.7382272 1.0107952 0.12999244 9.9517176e-39
-1.7289307 1.0090691 0.13407211 1.3822837e-38
-1.7128185 1.0084885 0.13546121 1.391648e-38
-1.9921814 1.0236441 0.099382386 2.9430407e-39
-1.9779484 1.0227379 0.10153636 3.7752998e-39
-1.9752018 1.0217818 0.10379281 7.6424548e-39
-1.9533633 1.020943 0.10579802 7.8268503e-39
-1.9384538 1.0203906 0.10711919 8.1956342e-39
-1.9190466 1.018635 0.11128151 8.2874725e-39
-1.9044563 1.0181004 0.11256053 8.1956286e-39
-1.8903357 1.0175855 0.11379239 9.0243019e-39
-1.8741506 1.016844 0.11556055 9.5774756e-39
-1.8486197 1.0150727 0.11976812 7.3680301e-39
-1.8346534 1.0133033 0.12395589 1.1420295e-38
-1.8238419 1.0134053 0.12372983 1.1329546e-38
-1.8166065 1.0127134 0.12536936 1.1882365e-38
-1.8040748 1.0117284 0.1277072 1.0777842e-38
-1.7593175 1.0095778 0.1328336 1.289871e-38
-1.7441881 1.0090177 0.13417308 1.3360773e-38
-1.7298602 1.0077806 0.13710721 1.0228307e-38
-1.7094495 1.0067383 0.13958988 1.0322668e-38
-1.651204 1.0027676 0.149023 1.2165905e-38
-1.9960277 1.0211037 0.10536308 2.8515639e-39
-1.9817719 1.0202125 0.10748192 3.7752998e-39
-1.9763087 1.0188413 0.11072044 7.6428135e-39
-1.9573704 1.0181382 0.11240198 8.0112373e-39
-1.9424483 1.0176044 0.11367941 8.1037945e-39
-1.9201158 1.0157628 0.11804812 8.1952657e-39
-1.9016316 1.0150865 0.11966592 8.2881844e-39
-1.8871878 1.0145761 0.12088791 9.0239403e-39
-1.8687077 1.0139098 0.12248201 1.0038443e-38
-1.8528517 1.0133512 0.12381914 1.0683816e-38
-1.8310955 1.0109184 0.12958041 1.1144789e-38
-1.8272222 1.0111172 0.12911676 8.105242e-39
-1.8185797 1.0098791 0.13204567 1.1698332e-38
-1.7567847 1.0067658 0.13946281 1.299163e-38
-1.7389182 1.0061432 0.14095357 1.3453687e-38
-1.7290131 1.0058104 0.14175077 1.3823197e-38
-1.7146262 1.0053266 0.14290944 1.4101227e-38
-1.7069056 1.0036032 0.14698067 1.4100878e-38
-1.6898613 1.0030329 0.1483468 1.4746968e-38
-1.6783035 1.0026804 0.14919275 1.5116838e-38
-1.9959459 1.0188487 0.11067711 4.8776845e-39
-1.9855953 1.0176872 0.11342745 3.6831056e-39
-1.9724796 1.0163579 0.11657713 7.5499005e-39
-1.9597669 1.0152906 0.11910862 8.0108772e-39
-1.9406025 1.0146043 0.12075101 8.194558e-39
-1.9211668 1.0128889 0.12481882 8.1952727e-39
-1.9065586 1.0123922 0.12600838 8.4711421e-39
-1.8882036 1.011745 0.12755749 8.8395561e-39
-1.8688905 1.0110997 0.12910345 6.4446459e-39
-1.8641254 1.0108271 0.12975219 1.0038811e-38
-1.8471118 1.0102291 0.13118343 1.0867489e-38
-1.830793 1.0087589 0.13466935 8.105242e-39
-1.8071347 1.0073954 0.13791321 1.1883091e-38
-1.7619802 1.0042478 0.14538938 1.3361129e-38
-1.7460951 1.0037131 0.14667022 1.3821394e-38
-1.7236217 1.0029624 0.14846887 1.4007587e-38
-1.7155696 1.002715 0.14906225 1.4193071e-38
-1.7053932 1.0015925 0.15172072 1.0415588e-38
-1.7005606 1.001201 0.15264961 1.4654059e-38
-1.6735396 0.9986937 0.15859307 1.4380729e-38
-2.0087247 1.0163176 0.11662449 5.4272654e-39
-1.9886265 1.0156201 0.11829432 6.9056044e-39
-1.9733073 1.0145768 0.12077308 6.9052625e-39
-1.9542912 1.0129281 0.12468297 8.1020092e-39
-1.937472 1.0123569 0.12605108 8.0101583e-39
-1.9226897 1.0114405 0.12822959 5.3383012e-39
-1.8977622 1.0102483 0.13107181 5.4304996e-39
-1.9041469 1.0093336 0.13321871 8.4718539e-39
-1.888274 1.008805 0.13448505 9.2076169e-39
-1.8651432 1.0080279 0.13634674 1.0130285e-38
-1.8481053 1.0074521 0.13772576 1.0682748e-38
-1.8345658 1.0070108 0.13878345 1.123663e-38
-1.8226161 1.0056307 0.1420511 1.1882364e-38
-1.8069004 1.0051266 0.1432597 1.2251878e-38
-1.7629303 1.0015724 0.15169261 1.3545518e-38
-1.7434624 1.0009261 0.1532409 1.3821751e-38
-1.7314223 1.0007374 0.15370153 9.8620387e-39
-1.7259198 1.0003127 0.15470943 1.4376013e-38
-1.7138832 0.99994135 0.15560034 1.4561496e-38
-1.6975349 0.9983685 0.15932801 1.4838806e-38
-1.6832129 0.99806392 0.16006456 1.5300869e-38
-1.6670312 0.99702412 0.16253592 1.5119001e-38
-1.6561048 0.996692 0.16333282 1.502682e-38
-2.0004513 1.0129938 0.12446734 6.1641003e-39
-1.9850801 1.012489 0.1256773 7.0900055e-39
-1.9717103 1.0120776 0.12666421 7.643538e-39
-1.96131 1.0106858 0.12995723 8.0108772e-39
-1.9280839 1.0091022 0.13373248 8.0108632e-39
-1.9170564 1.0091347 0.13367054 8.1952629e-39
-1.902562 1.006397 0.14014059 8.4714994e-39
-1.8846378 1.005815 0.1415354 9.2998153e-39
-1.8635445 1.0051452 0.14314145 9.9451764e-39
-1.8490808 1.0046736 0.14427193 1.0498712e-38
-1.8355335 1.0042498 0.14528838 1.1328468e-38
-1.8209941 1.0027999 0.14872405 1.1789815e-38
-1.8097767 1.0024674 0.14952195 1.2344073e-38
-1.767316 1.0001444 0.15505162 9.6761901e-39
-1.756502 0.99846375 0.15902606 1.354624e-38
-1.7395958 0.9980132 0.16010991 1.3822477e-38
-1.7253407 0.99763376 0.16102281 1.4285256e-38
-1.7145574 0.99711621 0.16225637 1.4562575e-38
-1.7023205 0.99599403 0.16491678 1.5023555e-38
-1.6819943 0.99543113 0.16627003 1.5392707e-38
-1.6735464 0.99526709 0.16666751 1.5302674e-38
-1.6581008 0.99441892 0.16868645 1.6316826e-38
-1.6441159 0.99376309 0.17025024 1.1803552e-38
-2.0038269 1.0099664 0.13159685 4.8751734e-39
-1.9931477 1.0094614 0.13280082 5.9854656e-39
-1.9784249 1.0092185 0.13339248 7.8264873e-39
-1.9654365 1.0092275 0.13338824 7.7342917e-39
-1.9152663 1.0059505 0.14117602 8.1949069e-39
-1.9027516 1.0049648 0.1435149 5.5234029e-39
-1.8899137 1.0031388 0.14783479 9.116143e-39
-1.8671246 1.0024245 0.14954787 9.8522605e-39
-1.8583294 1.0019208 0.15074623 9.116859e-39
-1.8415058 1.0016835 0.15132754 7.4598754e-39
-1.7978904 0.9990049 0.15769656 1.2898689e-38
-1.78619 0.998721 0.15838088 1.3176002e-38
-1.7630885 0.99790579 0.16033216 1.3454031e-38
-1.7588494 0.99717504 0.16205971 9.6754895e-39
-1.7413411 0.99541181 0.16623758 1.3913948e-38
-1.7256489 0.99507749 0.16704592 1.4377094e-38
-1.713033 0.99451995 0.16837625 1.4745888e-38
-1.6949404 0.99315995 0.17160477 1.5116838e-38
-1.6782506 0.99246883 0.17325515 1.5578539e-38
-1.6598483 0.99206239 0.17423706 1.2721928e-38
-1.6542138 0.99200451 0.1743809 1.2903427e-38
-2.0033395 1.0080386 0.1361399 1.6544739e-39
-2.0033827 1.0070143 0.13855365 6.9023716e-39
-1.9883277 1.0065631 0.13963655 7.4591412e-39
-1.9709226 1.005509 0.14214326 6.9049108e-39
-1.9383426 1.0039812 0.14578612 8.2867452e-39
-1.923769 1.0035516 0.14681751 8.3789423e-39
-1.8834152 1.0015064 0.15168957 5.7996324e-39
-1.8594766 1.0004537 0.15420185 6.5350423e-39
-1.8635386 0.99940878 0.15665871 1.0313596e-38
-1.8459827 0.99888676 0.15791182 1.1235194e-38
-1.8285609 0.99817514 0.15961152 1.1513944e-38
-1.8097618 0.99805945 0.15990879 1.1975644e-38
-1.8030863 0.99642813 0.16376169 1.2622095e-38
-1.7918479 0.99619669 0.16432172 1.317528e-38
-1.7739602 0.99574792 0.16540259 1.3452596e-38
-1.7571118 0.99532706 0.16641659 1.3453683e-38
-1.7337761 0.99343407 0.17090769 1.1335724e-38
-1.7192523 0.99300289 0.17194299 1.1798862e-38
-1.7165699 0.99190778 0.17452697 1.4561852e-38
-1.7041022 0.99163139 0.17519452 1.4838805e-38
-1.6785507 0.98996806 0.17914754 1.5579258e-38
-1.6635425 0.98960328 0.1800267 1.6132436e-38
-1.6585395 0.98959613 0.18005021 1.3458431e-38
-2.007163 1.0055133 0.14208546 1.3775324e-39
-2.0047131 1.0050608 0.14315517 3.6831056e-39
-1.9947531 1.0036547 0.14648138 7.7342903e-39
-1.9771253 1.0031509 0.1476917 7.8268461e-39
-1.9617896 1.0027109 0.14874847 8.2863851e-39
-1.9465995 1.0011908 0.15235052 8.3789395e-39
-1.9279224 1.0006438 0.15366377 8.4714882e-39
-1.9107999 1.0001633 0.15481868 8.6555207e-39
-1.8796631 0.99930173 0.15688972 9.4834807e-39
-1.8560283 0.99687058 0.16264951 1.0131358e-38
-1.8433667 0.9966585 0.1631659 1.0776375e-38
-1.8370818 0.99523938 0.16651808 1.0039541e-38
-1.8160338 0.99463993 0.16795823 1.0593795e-38
-1.8106384 0.9944163 0.16849239 1.1054433e-38
-1.7963797 0.99349856 0.17067355 1.3083087e-38
-1.7800908 0.99313349 0.17155534 1.3452235e-38
-1.7613535 0.99275422 0.17247358 1.3545518e-38
-1.7501976 0.99216431 0.17387833 1.3729195e-38
