# .PCD v0.7 - Point Cloud Data file format
VERSION 0.7
FIELDS x y z rgb
SIZE 4 4 4 4
TYPE F F F F
COUNT 1 1 1 1
WIDTH 1080
HEIGHT 1
VIEWPOINT 0 0 0 1 0 0 0
POINTS 1080
DATA ascii
1.4371268 0.87323546 1.4816208 9.8638814e-39
1.4044385 0.9249897 1.5567244 1.262469e-38
1.4047451 0.93225783 1.5586611 1.2626488e-38
1.4069152 0.93081576 1.5543541 1.1979312e-38
1.4062774 0.96859825 1.5683441 1.152158e-38
1.4065839 0.97586638 1.5702808 1.1242106e-38
1.4071869 0.84021938 1.5230197 1.3639928e-38
1.4074895 0.84739584 1.5249318 1.3640637e-38
1.4082751 0.84572083 1.5229801 1.2718325e-38
1.4092897 0.91937113 1.5462809 1.235134e-38
1.4095943 0.92659181 1.5482048 1.2167299e-38
1.4096317 0.98041898 1.5664724 1.0044632e-38
1.4081328 1.0804737 1.6031862 1.3272922e-38
1.4108299 1.0846997 1.5998832 1.6685247e-38
1.4108756 1.0919937 1.6022873 1.6778523e-38
1.4104518 1.1036361 1.6069978 1.7330972e-38
1.4108305 0.80522418 1.5046936 1.1980753e-38
1.412444 0.81680661 1.5058018 1.2347743e-38
1.4126222 0.84463662 1.5149667 1.216478e-38
1.4128159 0.85696363 1.5188248 1.235134e-38
1.4135716 0.98298424 1.5604187 1.7422092e-38
1.4153647 1.0829154 1.5913022 1.9267087e-38
1.4149517 1.0945067 1.5959761 1.9083775e-38
1.4149967 1.1018002 1.598381 1.8991575e-38
1.4170041 0.67020839 1.4478524 2.2126602e-38
1.4174684 0.67409784 1.4483607 2.2218439e-38
1.4166738 0.68631124 1.4539177 2.2218798e-38
1.4156597 0.70027977 1.4604586 2.3509886e-38
1.4165348 0.72103596 1.4659894 1.9634114e-38
1.4168265 0.72795475 1.4678328 1.7605454e-38
1.4179933 0.73401469 1.4678452 1.6500159e-38
1.4175884 0.74401188 1.4719627 1.5854797e-38
1.4181185 0.75085068 1.4733593 1.4748439e-38
1.4172287 0.76777744 1.4806894 9.0290158e-39
1.4172711 0.77459043 1.4829352 1.0965878e-38
1.4180402 0.84467155 1.5054525 1.2350617e-38
1.4180653 0.98864025 1.5544434 2.0465269e-38
1.4186821 1.0636513 1.5789075 1.7974904e-38
1.4185561 1.0813068 1.5851426 1.889723e-38
1.4179608 1.0975541 1.5917232 1.9175612e-38
1.4186989 1.1051654 1.5930176 1.7515724e-38
1.4198278 0.62287682 1.4267665 2.2403548e-38
1.4197963 0.62983841 1.4291929 2.2495382e-38
1.4194591 0.63898873 1.4329023 2.2495026e-38
1.4195011 0.64566034 1.4351007 2.2311352e-38
1.4195503 0.65663618 1.4387528 2.3509886e-38
1.4198387 0.66347355 1.4405748 2.3509886e-38
1.4215759 0.66689366 1.4386852 2.221736e-38
1.4216176 0.67356503 1.4408838 2.221736e-38
1.4208428 0.68577027 1.4464031 2.2494304e-38
1.4226655 0.72958809 1.4581223 1.5762937e-38
1.4214265 0.75313199 1.4683203 1.6129925e-38
1.4210879 0.79948169 1.484702 1.5025371e-38
1.4239458 0.94712049 1.5299624 1.945183e-38
1.4221005 0.98039836 1.5445409 2.0004651e-38
1.4221427 0.98750824 1.5468885 2.0004288e-38
1.4251982 0.50176108 1.3760717 1.9265644e-38
1.423701 0.5272969 1.3874017 6.9364274e-42
1.4248958 0.5422281 1.3903866 1.6136823e-38
1.4235266 0.59776258 1.411709 2.2495027e-38
1.4227428 0.60951495 1.4170899 2.2403907e-38
1.4243588 0.62662303 1.4200755 2.2862723e-38
1.4247464 0.63454133 1.422091 2.1480152e-38
1.4244719 0.64196807 1.4251032 2.1388674e-38
1.4236356 0.65208793 1.4300202 2.2309917e-38
1.4241217 0.65585762 1.4304496 2.1479087e-38
1.4262081 0.663764 1.4294736 1.8438046e-38
1.4261559 0.6702801 1.4317851 1.8530243e-38
1.426327 0.68008393 1.4348234 1.7883786e-38
1.4250293 0.69192302 1.4411376 1.7976343e-38
1.4246328 0.70160556 1.4451324 1.7884139e-38
1.4265407 0.98587745 1.5386 1.8529154e-38
1.4261568 0.99705774 1.5430832 1.8620625e-38
1.4269811 0.53429729 1.3840189 8.3969994e-39
1.4289186 0.54194802 1.3832177 1.1068473e-38
1.4286277 0.55840993 1.3893359 1.3552051e-38
1.4296635 0.60578024 1.4036492 1.917454e-38
1.4295594 0.61210155 1.4059852 1.8898669e-38
1.4295616 0.62297261 1.4096837 1.7975991e-38
1.428987 0.63245332 1.4139233 1.8068544e-38
1.4288819 0.63882607 1.4162785 1.8068904e-38
1.4284205 0.64738387 1.4200047 1.8438048e-38
1.4285035 0.6526131 1.4216399 1.8806831e-38
1.4303017 0.66266048 1.4219002 2.0189402e-38
1.4291873 0.67045617 1.4265149 2.249466e-38
1.4299546 0.67603606 1.4270662 2.2309547e-38
1.4291189 0.69160885 1.4338394 2.2586489e-38
1.4291581 0.69827938 1.4360428 2.2587206e-38
1.4290302 0.70531976 1.4386656 2.0558535e-38
1.4285132 0.71513796 1.4429187 2.0464905e-38
1.4287735 0.72815931 1.446896 2.1203184e-38
1.4304407 0.7397368 1.4479077 2.1664524e-38
1.4300392 0.7485556 1.4516176 2.1387939e-38
1.4295777 0.75771898 1.4555498 2.1296459e-38
1.4300404 0.7660169 1.4575627 2.1388299e-38
1.4312118 0.53431523 1.376586 1.3365837e-38
1.4324316 0.59640455 1.3955886 2.3231506e-38
1.433192 0.61332262 1.4000137 2.0926959e-38
1.4335432 0.62200111 1.4023521 2.175744e-38
1.4328634 0.63256574 1.4071456 2.1757077e-38
1.432299 0.64207554 1.4113768 2.1480492e-38
1.4321927 0.6484521 1.413736 2.1203187e-38
1.4319071 0.65762854 1.4173636 2.2771242e-38
1.4324894 0.66586977 1.4191464 2.3509886e-38
1.4340062 0.66741073 1.4170043 2.1941472e-38
1.4338981 0.67380309 1.4193716 2.175708e-38
1.4333298 0.6878019 1.425139 2.277196e-38
1.4333682 0.69445348 1.4273367 2.2955633e-38
1.4330131 0.70254678 1.4307178 2.1757799e-38
1.4333936 0.71152687 1.4331074 2.184999e-38
1.4328166 0.72166574 1.4375752 2.148121e-38
1.4322407 0.73166114 1.4419922 2.157305e-38
1.4341055 0.74201185 1.4422386 2.1112072e-38
1.4336791 0.75047803 1.4458719 2.2033311e-38
1.4337003 0.75631309 1.4478223 2.0835124e-38
1.4338284 0.7672689 1.4513286 2.0651453e-38
1.4334345 0.7761513 1.4550464 2.0559616e-38
1.4327023 0.78774345 1.460282 2.055926e-38
1.4338408 0.82734525 1.4717686 1.8897934e-38
1.4358535 0.86153173 1.4798733 1.5946953e-38
1.4361205 0.57922792 1.383252 2.2033664e-38
1.4369627 0.61311591 1.3933131 2.3048189e-38
1.4362515 0.62495452 1.3985958 2.2956349e-38
1.4366531 0.63093287 1.3999259 2.1849637e-38
1.4365439 0.63728541 1.4022816 2.1941833e-38
1.4359909 0.6468088 1.4064977 2.2033671e-38
1.436162 0.65104789 1.4076406 2.203367e-38
1.436053 0.65740734 1.4099981 2.1849637e-38
1.4377388 0.67101038 1.4116677 2.2402098e-38
1.4377763 0.67762178 1.4138532 2.2402098e-38
1.4371458 0.68979216 1.419107 2.1389019e-38
1.4370333 0.69622082 1.4214945 2.1480494e-38
1.4373918 0.70528686 1.4239517 2.1112435e-38
1.4367141 0.71613061 1.4288369 2.1020598e-38
1.4366001 0.7226041 1.4312419 1.9728783e-38
1.4362136 0.73134065 1.4348973 2.0742571e-38
1.4374666 0.74649388 1.4378555 1.9359625e-38
1.4371747 0.75430584 1.4410295 1.9174512e-38
1.4375985 0.76297885 1.4432383 1.8344757e-38
1.4374799 0.76952463 1.4456762 1.8529868e-38
1.4363317 0.79648685 1.4568782 1.8345113e-38
1.4397825 0.58013827 1.3771229 2.2126224e-38
1.4396745 0.5864042 1.3794473 2.1849996e-38
1.4394835 0.60067624 1.384644 2.3509886e-38
1.440425 0.60434437 1.3842378 2.1297181e-38
1.4409325 0.61641926 1.3874582 2.1480494e-38
1.4401017 0.62253141 1.3910007 2.1389022e-38
1.439258 0.63755739 1.397602 2.3509886e-38
1.4395413 0.6442759 1.3993924 2.3509886e-38
1.4408038 0.64531851 1.3975277 2.1389018e-38
1.4407941 0.651025 1.3994877 2.1296822e-38
1.4404267 0.65754008 1.402353 2.2033672e-38
1.4420019 0.67138386 1.4042984 1.9175944e-38
1.441712 0.67897832 1.407395 1.9083751e-38
1.440601 0.69067162 1.4133312 1.9730222e-38
1.4435815 0.56695235 1.3659521 2.2494289e-38
1.4429069 0.5852167 1.3733592 2.2586846e-38
1.4438673 0.58918649 1.3730223 2.1388659e-38
1.443961 0.60433859 1.3780186 2.0375227e-38
1.4442858 0.6105476 1.3795621 2.1665973e-38
1.4443513 0.62291127 1.3836578 1.9362154e-38
1.4434892 0.63546395 1.3894491 1.9085567e-38
1.4472785 0.57003403 1.3605012 1.834798e-38
1.445695 0.58501589 1.3683883 2.0098647e-38
1.4459752 0.5916599 1.3701587 1.8993369e-38
1.4467059 0.59636706 1.3704771 1.6503693e-38
1.4464324 0.60373175 1.3734665 1.6228187e-38
1.4458627 0.61324131 1.377707 1.6319672e-38
1.4503572 0.55167264 1.3488339 1.5951643e-38
1.4528248 0.54263544 1.3414172 2.2585771e-38
1.4604322 0.54836142 1.3299912 2.1573423e-38
1.4652354 0.55144608 1.3225964 2.3509886e-38
1.4714032 0.56358564 1.3158857 1.3194422e-38
1.4761745 0.55534387 1.3046896 1.4381827e-38
1.4751055 0.56585854 1.31015 1.825261e-38
1.4740946 0.48584083 1.2846738 2.4860436e-39
1.4758492 0.49179339 1.2836161 3.1310459e-39
1.4792228 0.56024808 1.3010001 1.8713205e-38
1.4785583 0.56869102 1.3050438 1.7792315e-38
1.4768574 0.48898682 1.2808872 3.2225226e-39
1.4795147 0.49257734 1.2774379 2.9470133e-39
1.4797201 0.49589908 1.2782081 2.7619046e-39
1.4801114 0.49747524 1.2780572 2.3949144e-39
1.4827517 0.55928469 1.2944667 2.2033302e-38
1.4817433 0.57820457 1.3026838 2.0741143e-38
1.4792981 0.49560779 1.2788512 3.3157945e-39
1.481354 0.48885494 1.2729362 4.3270807e-39
1.4816046 0.49125937 1.2733146 2.946656e-39
1.4832493 0.49588481 1.2719979 2.6711439e-39
1.4834068 0.5012179 1.2735375 2.8548205e-39
1.484619 0.50093609 1.2713099 2.9455784e-39
1.4856398 0.57533181 1.2948542 1.8896514e-38
1.4835739 0.49456802 1.2709786 3.5902318e-39
1.4849977 0.49442336 1.2684258 2.8537401e-39
1.4864757 0.4945994 1.2658871 2.302367e-39
1.4870781 0.49980482 1.2666006 2.2098183e-39
1.4882029 0.50208139 1.2653985 2.5778763e-39
1.4883977 0.50481802 1.2659881 2.4853205e-39
1.4895265 0.57232988 1.2869977 1.6224266e-38
1.4878424 0.49464619 1.2634999 2.7619032e-39
1.4886705 0.499845 1.2638146 2.1179743e-39
1.4912626 0.50373244 1.2605809 1.7506352e-39
1.4918805 0.50203085 1.2589149 2.3016467e-39
1.4920411 0.504924 1.2596179 2.5767987e-39
1.4923199 0.50671345 1.259737 1.6570032e-39
1.492057 0.49490389 1.2561771 3.5016333e-39
1.4921831 0.49734628 1.2567872 2.3938424e-39
1.4923496 0.50025856 1.2574862 1.9350166e-39
1.49496 0.50340575 1.2539686 1.7495562e-39
1.4952157 0.50531495 1.2541692 1.9325153e-39
1.495482 0.50706422 1.2542968 2.1176226e-39
1.4957409 0.5088408 1.2544464 2.3023726e-39
1.4958832 0.49266708 1.2486874 2.5803916e-39
1.4959872 0.49623418 1.2497196 1.8413861e-39
1.4959707 0.50088942 1.2513341 1.8413917e-39
1.4971169 0.50343913 1.2501874 2.3020139e-39
1.4987994 0.50590217 1.2480676 1.6570046e-39
1.4989221 0.50920463 1.2489768 2.2083819e-39
1.5007162 0.57546419 1.2683902 2.3509886e-38
1.4996711 0.50064451 1.2447444 1.5651691e-39
1.4997004 0.50485432 1.2461268 1.3804191e-39
1.5011432 0.50726825 1.2444118 2.0250809e-39
1.5021327 0.50741088 1.2427207 1.657006e-39
1.5026611 0.51059979 1.2428776 2.0257843e-39
1.5027745 0.51376742 1.2437572 2.21127e-39
1.5036491 0.49847683 1.2370113 1.6573591e-39
1.5032382 0.50496185 1.2399427 1.6552123e-39
1.5033592 0.5081194 1.2408054 1.2882221e-39
1.5043172 0.51141542 1.2402437 1.564809e-39
1.5071666 0.51037532 1.2348791 2.2087393e-39
1.5074946 0.57957023 1.2578701 2.314075e-38
1.5076382 0.50721925 1.2329749 1.1967439e-39
1.5076431 0.51142228 1.2343979 1.1038322e-39
1.5079278 0.51207292 1.2341188 1.4726147e-39
1.5106519 0.51209944 1.2293379 1.6570004e-39
1.5108755 0.60426301 1.2603357 2.2312078e-38
1.5109369 0.51195282 1.2287871 1.1045469e-39
1.5110317 0.51498336 1.2296525 1.0127114e-39
1.5112861 0.51528162 1.2293065 1.5640873e-39
1.5123658 0.51752675 1.228173 2.0254368e-39
1.5130676 0.57237542 1.2456204 2.0466349e-38
1.514274 0.59520578 1.2512749 2.1942225e-38
1.514545 0.60162926 1.2529866 2.1850748e-38
1.5142806 0.51196456 1.222912 1.1045483e-39
1.5143456 0.51519358 1.2238972 1.1045511e-39
1.5147152 0.5139246 1.222815 1.1045525e-39
1.5149403 0.51468253 1.2226775 1.8396036e-39
1.5151716 0.51488322 1.2223389 1.7477583e-39
1.5174218 0.52097273 1.2204565 1.8413931e-39
1.5189403 0.5862053 1.2400048 2.1756383e-38
1.5170722 0.5136283 1.21857 1.8413945e-39
1.5183535 0.51313919 1.2161503 1.0130743e-39
1.5181679 0.51574999 1.217366 1.3804135e-39
1.5182132 0.51899827 1.2183925 1.2882207e-39
1.5184917 0.5182268 1.2176402 1.8403127e-39
1.5202067 0.5116626 1.2123888 1.0134303e-39
1.5201856 0.5154494 1.2137157 1.0130701e-39
1.5217967 0.51636785 1.2111956 1.1045441e-39
1.5218079 0.51864725 1.2119524 1.2882235e-39
1.5218438 0.52177155 1.2129537 1.8406672e-39
1.5228199 0.52440441 1.2121338 1.6562787e-39
1.5261191 0.58846533 1.2281517 2.2218079e-38
1.5247937 0.51719254 1.2062068 9.2051576e-40
1.5245936 0.52392113 1.2088505 1.104907e-39
1.5254095 0.51407069 1.2040608 8.290404e-40
1.5251136 0.52334464 1.2077399 1.1963824e-39
1.5251839 0.52466041 1.2080644 1.3807708e-39
1.5262297 0.527556 1.2072117 1.6566445e-39
1.5287526 0.52289063 1.2011869 1.0123527e-39
1.5295552 0.5282132 1.2015884 1.3807694e-39
1.5623242 0.50504863 1.13608 8.6566796e-39
1.5622623 0.50380725 1.1357661 7.6432115e-39
1.5636593 0.55429304 1.1505052 1.9166624e-38
1.5641061 0.47312158 1.1220727 1.336298e-38
1.5641123 0.49724993 1.1302797 1.2621448e-38
1.5643548 0.49919304 1.1305153 1.14229e-38
1.5646169 0.50540972 1.1321719 7.9226052e-39
1.564855 0.50725114 1.1323805 1.6530389e-39
1.5662141 0.51243556 1.1317563 0
1.5664582 0.55102181 1.1444696 1.9910338e-38
1.5629407 0.38596138 1.0944353 9.18397e-41
1.5628937 0.38928172 1.0956486 0
1.5654042 0.42487428 1.1033573 1.4561893e-38
1.5649829 0.43106622 1.1062073 1.4007284e-38
1.5675485 0.46736082 1.1140578 2.9419645e-39
1.5668327 0.47832489 1.1190507 1.0101905e-39
1.5671299 0.48875818 1.1220819 0
1.5674297 0.49925935 1.1251311 0
1.567654 0.50119156 1.1253948 0
1.5678755 0.50305605 1.1256405 0
1.5681363 0.50923872 1.127288 0
1.5675243 0.51060617 1.1288294 2.7586942e-40
1.5664605 0.36937049 1.0825955 0
1.5663579 0.37909621 1.0860885 1.1989299e-39
1.5666769 0.37773684 1.0850646 3.5016473e-39
1.5663601 0.38795188 1.0891006 6.8243165e-39
1.566364 0.39408946 1.0911845 9.9571701e-39
1.5677274 0.42074519 1.0978658 1.5847597e-38
1.5679494 0.42333353 1.0983572 1.8426939e-38
1.5682075 0.42945182 1.0999874 1.8705301e-38
1.5697553 0.46616182 1.1097691 1.4693946e-39
1.5701138 0.4803125 1.1139584 1.3775324e-39
1.570429 0.49075675 1.1169616 1.0109247e-39
1.5707468 0.50126874 1.1199828 1.0105772e-39
1.5708959 0.49886084 1.1189007 1.1031204e-39
1.5711565 0.50504369 1.120548 2.7623797e-40
1.573441 0.55817509 1.1346278 2.2863444e-38
1.5687342 0.36373329 1.0766776 3.7169582e-40
1.5693574 0.37320024 1.0788063 7.5593606e-39
1.5702882 0.37569901 1.0780207 1.2900216e-38
1.5697839 0.38378581 1.0816617 1.1794574e-38
1.5699245 0.392683 1.0844449 1.6679172e-38
1.5705055 0.39634049 1.0846691 1.7784057e-38
1.5704225 0.40694532 1.0884271 1.9346397e-38
1.5706239 0.40916437 1.0888288 1.9070869e-38
1.5709385 0.41918203 1.0916877 1.778542e-38
1.571137 0.42133322 1.0920712 1.0684845e-38
1.5699149 0.42781624 1.0964279 6.4436075e-39
1.5732187 0.37005755 1.0709466 1.9350672e-38
1.5732968 0.37236616 1.0715955 1.5388051e-38
1.5711827 0.38479036 1.0795444 1.7049387e-38
1.5734593 0.38213557 1.0746375 1.8522327e-38
1.5740464 0.39241239 1.0771052 1.0135384e-38
1.5738503 0.39537498 1.078459 5.8050512e-39
1.5736648 0.39976397 1.0802801 1.0137974e-39
1.5741094 0.41720477 1.0854386 0
1.5739579 0.345972 1.061443 1.64969e-38
1.5746815 0.35513341 1.0632913 1.7967369e-38
1.5746524 0.35985515 1.0649505 1.7876251e-38
1.5752858 0.37048531 1.0674574 1.9352838e-38
1.5766799 0.36928234 1.0645963 1.2892642e-38
1.576884 0.37195861 1.0651493 1.1243189e-38
1.5764837 0.38052478 1.0687705 3.7785831e-39
1.5771482 0.33884674 1.0534071 1.1335706e-38
1.577318 0.34169769 1.0540795 1.7049021e-38
1.5773787 0.34519887 1.0551648 1.695644e-38
1.5780154 0.35254204 1.0565464 2.1469012e-38
1.5779459 0.35507092 1.0575302 2.2117603e-38
1.5781397 0.36016166 1.0589234 1.9998523e-38
1.5786452 0.37068936 1.0616202 1.8367099e-40
1.5801057 0.33473903 1.0468076 1.6036279e-38
1.5815128 0.34582803 1.0481105 4.8841992e-39
1.5820383 0.34671849 1.0474895 4.9771137e-39
1.5817946 0.35016236 1.049091 1.2534671e-38
1.5815771 0.35405329 1.0507987 1.3454031e-38
1.5813645 0.35891837 1.0528296 1.105986e-39
1.5811529 0.36230451 1.054355 0
1.5830456 0.33112305 1.0404065 3.3125463e-39
1.5835619 0.34335968 1.043667 3.6734591e-39
1.5838197 0.34947804 1.0452971 0
1.5846856 0.34701884 1.0429372 9.2123183e-40
1.5847371 0.34721988 1.0429151 1.1974558e-39
1.5850633 0.35030746 1.0433931 1.1023889e-39
1.5848353 0.35417411 1.0451109 4.5917748e-40
1.584609 0.35755861 1.0466614 8.2832434e-40
1.5863516 0.33279884 1.0351644 9.1219163e-39
1.586406 0.33571836 1.036063 7.7383569e-39
1.5863971 0.34001154 1.0375409 1.7488485e-39
1.5863955 0.34613502 1.0396292 2.6693573e-39
1.5874943 0.34754965 1.0381796 1.6587955e-39
1.5872182 0.35012555 1.0395421 1.7488387e-39
1.5885683 0.35168102 1.0376978 1.8417462e-39
1.5883274 0.35555789 1.0394421 2.483887e-39
1.5880848 0.35894427 1.0410221 2.3916914e-39
1.5895398 0.33505681 1.0303277 8.1077854e-39
1.5896353 0.33767426 1.0310515 4.3270807e-39
1.589776 0.34000772 1.0315983 2.8541129e-39
1.5897744 0.34611008 1.0336796 2.8537527e-39
1.5901432 0.34957048 1.0342097 2.3016453e-39
1.5898064 0.35082188 1.0352284 2.392762e-39
1.591395 0.35405871 1.0335377 2.6682713e-39
1.5916265 0.3576304 1.0343471 2.4842471e-39
1.5913454 0.36108118 1.0360165 2.4838828e-39
1.5928642 0.33963028 1.0260401 4.7880589e-39
1.5931207 0.34571469 1.0276613 2.9484679e-39
1.593771 0.34822881 1.0273743 2.578591e-39
1.5934514 0.35075808 1.0287975 2.1183401e-39
1.5931349 0.35290712 1.030086 2.3016411e-39
1.593254 0.35623419 1.0310099 2.2087322e-39
1.5949992 0.36167145 1.0297931 2.2094497e-39
1.5942498 0.36226949 1.0313143 2.1158346e-39
1.5946484 0.36571026 1.0317855 1.8395896e-39
1.5963061 0.34331822 1.021244 4.4203498e-39
1.5975262 0.34931147 1.0211402 3.3154441e-39
1.5962435 0.34729242 1.0227077 2.8562667e-39
1.5971613 0.35112548 1.0223995 2.6704279e-39
1.5964062 0.35397184 1.0246967 2.0261374e-39
1.5960746 0.35637441 1.0260981 2.026136e-39
1.5966793 0.36095282 1.0265939 2.1179828e-39
1.5977505 0.36307988 1.0254352 2.1161821e-39
1.5979393 0.36602148 1.0261052 1.4722476e-39
1.6006576 0.35183012 1.016492 2.6704321e-39
1.6004211 0.35118979 1.0166897 2.9459414e-39
1.600024 0.35258925 1.0178645 2.2101714e-39
1.5997258 0.35760635 1.0200975 2.3027201e-39
1.5996882 0.35587424 1.0195739 2.026136e-39
1.5993923 0.35917053 1.0212169 2.0261431e-39
1.5998716 0.36539328 1.0224934 2.1176324e-39
1.6023829 0.34514171 1.0111803 3.5938373e-39
1.6022774 0.34972769 1.0129275 2.9481008e-39
1.6034911 0.3551341 1.0126352 2.9470161e-39
1.6034071 0.35578346 1.0130038 2.3941983e-39
1.6030029 0.35796097 1.0144562 2.1172583e-39
1.6027056 0.36171657 1.0162582 1.9335873e-39
1.6024375 0.36612433 1.0182309 2.0257829e-39
1.6025574 0.36938494 1.0191306 2.3002146e-39
1.6062601 0.35617882 1.0081222 3.6860301e-39
1.6056005 0.35343203 1.0083463 2.8566198e-39
1.605203 0.35585448 1.0098704 2.3949214e-39
1.6067429 0.35787693 1.0078517 2.4860352e-39
1.6063178 0.36004806 1.0093385 2.0257815e-39
1.6059271 0.36238742 1.0108222 1.9335859e-39
1.6056317 0.36630726 1.0126765 2.0261431e-39
1.6053147 0.36959621 1.0143543 2.208033e-39
1.6087614 0.35943931 1.0048344 3.776058e-39
1.6080379 0.35722765 1.0053535 2.8548191e-39
1.610129 0.36101571 1.0029668 2.5782322e-39
1.6095648 0.36122283 1.0040295 2.3009349e-39
1.6092225 0.36446258 1.0057344 2.026136e-39
1.6089168 0.36837497 1.0076048 2.2091022e-39
1.609156 0.37214419 1.0084678 1.7488485e-39
1.6118907 0.35706881 0.99852467 2.7640682e-39
1.6134233 0.36266181 0.99773496 2.8541003e-39
1.6131265 0.36256126 0.99822253 2.4860352e-39
1.6127731 0.36592233 0.99998885 2.1179715e-39
1.6124483 0.36972687 1.0018556 2.0257857e-39
1.6120268 0.37207028 1.0033948 1.7488457e-39
1.6150091 0.36067951 0.99427152 3.2243205e-39
1.614647 0.36161557 0.99522704 2.487117e-39
1.6150243 0.36307761 0.9950614 2.759755e-39
1.6160756 0.36799881 0.99488872 2.4849618e-39
1.6156358 0.37036043 0.99646693 2.0250669e-39
1.6158497 0.37630075 0.99811399 1.1034917e-39
1.6238707 0.53951472 1.0396007 1.2889438e-39
1.6185817 0.36501366 0.98946607 3.0406523e-39
1.6177323 0.36267021 0.99016148 2.9470133e-39
1.61736 0.36606389 0.99197179 2.4860352e-39
1.6186855 0.36913937 0.99068862 2.11798e-39
1.6183472 0.37345725 0.99275398 2.0257829e-39
1.6192967 0.38070384 0.99355268 1.1156414e-38
1.6245358 0.50112307 1.0253552 1.3811394e-39
1.6244912 0.50955737 1.028306 1.0137932e-39
1.6244826 0.51826698 1.031288 1.2889396e-39
1.6253659 0.52492833 1.0320036 1.1056301e-39
1.6229764 0.37147745 0.98394024 3.5923898e-39
1.621925 0.36662382 0.98413557 3.3161574e-39
1.6211462 0.36566201 0.98517781 2.9473735e-39
1.620676 0.36814925 0.98685127 2.5782294e-39
1.621346 0.37216884 0.98704231 2.6689985e-39
1.6217817 0.37866536 0.98848879 9.1835496e-41
1.6216748 0.38380569 0.99042755 1.9079899e-38
1.6229092 0.41019797 0.99724656 4.8856439e-39
1.6228982 0.41615793 0.99929577 1.8367099e-40
1.6256583 0.44015026 1.0026144 1.7488471e-39
1.6255988 0.46512559 1.0112255 9.2160738e-40
1.6283973 0.49651527 1.0169958 4.6062782e-40
1.6284146 0.50150305 1.0186644 5.5174025e-40
1.628199 0.50744259 1.0210667 4.6026489e-40
1.6278572 0.52039701 1.0260797 5.5318779e-40
1.6294359 0.54348457 1.0311673 0
1.6296898 0.54950792 1.0327723 0
1.6316622 0.56271267 1.0338019 1.2998163e-38
1.6254917 0.37119117 0.97942001 3.408353e-39
1.6246501 0.3698447 0.98044109 3.0388502e-39
1.6247455 0.37217686 0.98106796 2.6711551e-39
1.6239704 0.37088731 0.98199147 2.7626249e-39
1.6247092 0.37598988 0.98243016 7.3647903e-40
1.6242163 0.37863845 0.98419905 6.9982036e-39
1.6240081 0.38443542 0.98653948 2.3509886e-38
1.6264958 0.39422694 0.98550034 2.3509886e-38
1.6262983 0.40036297 0.98793745 2.3509886e-38
1.626464 0.41456416 0.99248296 2.0652918e-38
1.6266272 0.42884621 0.9970606 1.4297892e-38
1.6266083 0.4339239 0.99882323 7.4642475e-39
1.6273986 0.43954033 0.99934638 0
1.6276474 0.44543821 1.0009179 0
1.6284517 0.45923468 1.0042028 6.4285268e-40
1.6286957 0.47325918 1.0085502 7.1887494e-39
1.6296587 0.48114607 1.0095433 4.9756956e-39
1.6294434 0.48706126 1.0119365 1.2885892e-39
1.6293689 0.49243084 1.0138961 9.1835496e-41
1.6323711 0.5325976 1.0222983 1.327187e-38
1.6323786 0.53939754 1.0246012 1.1242618e-41
1.6355222 0.59964216 1.0395926 2.1845688e-38
1.6298019 0.37641299 0.97361958 3.5895017e-39
1.6288418 0.37422279 0.97456211 3.4994669e-39
1.6282294 0.3757759 0.9761678 3.0384957e-39
1.6274896 0.37548733 0.97737038 2.7619074e-39
1.6282293 0.38061669 0.97781628 6.4284847e-40
1.6277924 0.38954347 0.98162526 2.3509886e-38
1.6284736 0.39697447 0.98295867 2.3509886e-38
1.6298108 0.40477613 0.98326427 2.3325496e-38
1.6296932 0.41191402 0.98590237 2.3509886e-38
1.6294804 0.4177644 0.98826915 2.3509886e-38
1.6303542 0.42457163 0.98905134 2.3509886e-38
1.6302768 0.43172491 0.9916237 2.3509886e-38
1.6300628 0.43758836 0.9939971 2.3509511e-38
1.6307775 0.4473342 0.99606013 2.3509886e-38
1.6324452 0.45491385 0.99570894 2.3049632e-38
1.6323818 0.46255255 0.99842238 2.2587192e-38
1.6332368 0.47735098 1.0019593 2.1851812e-38
1.6331216 0.48469415 1.0046628 2.1758526e-38
1.6347936 0.51917773 1.0134677 2.2215893e-38
1.6353251 0.5274834 1.0153624 2.2401744e-38
1.6357729 0.53545511 1.0172901 2.2309186e-38
1.6357582 0.54480308 1.0205002 2.2308468e-38
1.6359076 0.55515075 1.0237616 2.2584334e-38
1.6398307 0.60417742 1.0335617 2.0183637e-38
1.6388233 0.60339296 1.035066 2.0833341e-38
1.6319319 0.37117991 0.9680922 3.317242e-39
1.6319394 0.37338215 0.96882921 3.7706573e-39
1.6314391 0.37634149 0.97071671 2.9466546e-39
1.6309111 0.37912273 0.97259229 1.1034651e-39
1.6315085 0.38244522 0.97267371 5.3387328e-39
1.6311307 0.38750392 0.975061 2.3509886e-38
1.6310426 0.39358765 0.97728783 2.2956355e-38
1.6309146 0.40024936 0.97978175 2.2956716e-38
1.6321666 0.40794504 0.98020154 2.2864526e-38
1.6332248 0.41876382 0.9820255 2.3233303e-38
1.632241 0.42215759 0.98491138 2.295636e-38
1.6338437 0.42916116 0.98447871 2.2956356e-38
1.6337135 0.43587926 0.986996 2.2956356e-38
1.6336238 0.4426856 0.98947179 2.3325138e-38
1.6357323 0.46466392 0.99325037 2.3047474e-38
1.6356093 0.47183138 0.9959076 2.3508092e-38
1.6361923 0.47930977 0.99742949 2.3417333e-38
1.6364896 0.48682639 0.99946678 2.2679052e-38
1.6363132 0.49298066 1.0018734 2.3415538e-38
1.636153 0.49527299 1.0029358 2.2863443e-38
1.6362834 0.50511223 1.0060579 2.3324061e-38
1.6362683 0.51117808 1.0081505 2.3046755e-38
1.6393108 0.54191142 1.0132682 1.9722652e-38
1.6392177 0.5469417 1.0151453 1.9260597e-38
1.6394892 0.55925316 1.0188613 1.9260962e-38
1.6400663 0.56953305 1.0213478 1.8799614e-38
1.6340611 0.36941719 0.96374798 3.1285572e-39
1.6342417 0.37241837 0.96445239 3.0388558e-39
1.6336863 0.37484199 0.96625465 2.6700789e-39
1.6333039 0.37924206 0.96842581 0
1.6345923 0.38444737 0.96793312 2.1659837e-38
1.6349291 0.38975191 0.96914786 2.2952404e-38
1.6348114 0.39652041 0.97165996 2.2308833e-38
1.6342477 0.40281448 0.97479469 2.25865e-38
1.6346025 0.40879714 0.97620863 2.3048197e-38
1.6371673 0.43519649 0.98069042 2.2401388e-38
1.6368781 0.44418094 0.98425919 2.2309553e-38
1.637007 0.45080182 0.98628753 2.2954568e-38
1.6372144 0.45923674 0.98879564 2.286345e-38
1.6375347 0.46292204 0.98948753 2.1942225e-38
1.6398069 0.48901013 0.99437821 1.8714946e-38
1.6391393 0.49285322 0.9968608 2.1295763e-38
1.6427796 0.54406887 1.0079039 1.6119052e-38
1.6429417 0.55203331 1.0103316 1.6118343e-38
1.6434268 0.56385624 1.0135055 1.4552798e-38
1.6364331 0.37567228 0.96170753 7.9234964e-39
1.6364092 0.38227248 0.96399796 1.483562e-38
1.6369258 0.38735271 0.96481991 2.1479076e-38
1.6381425 0.39886698 0.96660221 2.0097194e-38
1.6376746 0.40208101 0.96851957 2.1014099e-38
1.6375597 0.40884683 0.97102594 2.0368336e-38
1.6383153 0.41437793 0.9715808 2.0095773e-38
1.6394371 0.42800975 0.97425157 1.5031825e-38
1.6390581 0.43199012 0.97627372 2.0742241e-38
1.6398996 0.43573987 0.97607124 8.5874695e-39
1.6403388 0.45251253 0.98101175 9.4993771e-39
1.6402477 0.45758632 0.98290002 1.0425998e-38
1.640045 0.4697485 0.98739868 1.6135642e-38
1.6408639 0.47883162 0.98905265 1.6502613e-38
1.6432776 0.43783703 0.970846 1.346059e-38
1.6439054 0.45612395 0.97597051 9.8689219e-39
1.4155377 0.60378087 1.4278057 2.1849665e-38
1.4162486 0.60506666 1.4269938 2.2218446e-38
1.4168857 0.60671961 1.4264363 2.2218446e-38
1.4166911 0.61323172 1.4289968 2.2033696e-38
1.4164963 0.61974382 1.4315572 2.1757465e-38
1.4154652 0.63125807 1.4372919 2.1756389e-38
1.4195368 0.6481905 1.4359001 2.1205017e-38
1.4193419 0.65470266 1.4384605 2.092807e-38
1.4149504 0.73074716 1.4720829 1.4933914e-38
1.4137709 0.74389136 1.4786336 1.5026112e-38
1.4135715 0.75055927 1.4812554 1.493427e-38
1.4133719 0.7572273 1.4838771 1.253429e-38
1.4131726 0.76389521 1.486499 9.8559291e-39
1.4129733 0.77056336 1.4891206 1.1426495e-38
1.4118621 0.78344303 1.4954611 1.1335021e-38
1.4095566 0.80996054 1.5085466 1.1428662e-38
1.4383003 0.60292679 1.3874907 2.3046391e-38
1.4422444 0.59888458 1.3791791 2.157161e-38
1.4411288 0.6077264 1.3841523 2.0096831e-38
1.4404835 0.6319899 1.3935509 2.0190826e-38
1.4399159 0.64020991 1.3973488 2.0374143e-38
1.4478244 0.55811352 1.3554813 1.5951216e-38
1.4488091 0.5585838 1.3539099 1.6595906e-38
1.4476113 0.5743137 1.3613735 1.6137055e-38
1.4472717 0.58034492 1.3640251 1.6871027e-38
1.4445605 0.6235671 1.3835135 1.6963936e-38
1.4438772 0.65962452 1.3969957 1.6779563e-38
1.441746 0.69987553 1.4144528 1.6501525e-38
1.4411188 0.70808673 1.4183521 1.6412563e-38
1.440563 0.71608084 1.4220525 1.7056868e-38
1.4399332 0.72433913 1.4259723 1.6410075e-38
1.4372313 0.77718592 1.4487228 1.7608624e-38
1.4363868 0.78748214 1.4537145 1.7424596e-38
1.4364136 0.79398108 1.4558808 1.7607544e-38
1.4517463 0.55409402 1.3472162 1.7886693e-38
1.4405266 0.76141781 1.4375582 1.4196677e-38
1.4554782 0.55643725 1.3414526 1.9822433e-38
1.4592098 0.55878043 1.3356891 2.3140391e-38
1.4629416 0.56112373 1.3299255 2.3509886e-38
1.4743272 0.5617907 1.3101333 2.3044957e-38
1.5625052 0.39640024 1.0987566 0
1.5623201 0.40258434 1.1011881 2.1019477e-44
1.5620972 0.41277936 1.1050528 1.8464742e-39
1.562495 0.42148408 1.1073178 4.7009121e-39
1.5621823 0.4264791 1.1095691 5.7147053e-39
1.5618297 0.43330321 1.1125134 7.281308e-39
1.5614895 0.43689588 1.1143353 9.3985536e-39
1.5595795 0.5021807 1.1399297 7.0972642e-39
1.5659618 0.40123594 1.0943255 1.3914723e-38
1.565778 0.4073875 1.0967443 1.5751796e-38
1.5660963 0.41515803 1.0988309 1.3917241e-38
1.5649521 0.43910465 1.1089989 1.5207243e-38
1.5633441 0.49411663 1.1305636 7.2801995e-39
1.5710416 0.3542887 1.0694035 1.8155352e-38
1.5695275 0.41503358 1.0927553 1.5208316e-38
1.568441 0.43505439 1.1014848 6.4518906e-39
1.5694908 0.4409278 1.1016397 0
1.5678854 0.49924749 1.1243258 0
1.5675315 0.50005651 1.1252235 0
1.578334 0.34559235 1.0536193 1.6685632e-38
1.5898777 0.33125529 1.0284386 9.0287131e-39
1.5936092 0.3371236 1.0238763 5.5259743e-39
1.5944319 0.3450745 1.0251378 3.2239576e-39
1.6388515 0.39493185 0.96401536 1.9817355e-38
1.6437674 0.54010046 1.0048157 1.5096944e-38
1.429075 0.45995218 1.3550152 1.2080167e-38
1.4321132 0.46019214 1.3497547 1.208087e-38
1.4322553 0.46203578 1.3501329 1.1896479e-38
1.4353095 0.46228626 1.3448479 1.3549884e-38
1.4354355 0.46411943 1.3452507 1.3271855e-38
1.4288818 0.53427362 1.3806686 1.2356382e-38
1.4271194 0.55062711 1.3893374 1.2172717e-38
1.4383236 0.4629117 1.3397613 1.2345875e-38
1.4242922 0.59911579 1.4108237 1.761153e-38
1.4249068 0.62232101 1.4176464 1.7242403e-38
1.4319962 0.59333843 1.3953096 1.4383614e-38
1.4252887 0.64520353 1.424769 1.7243472e-38
1.4254503 0.64622653 1.4248331 1.6690296e-38
1.4248474 0.65182352 1.4277998 1.6873964e-38
1.4242754 0.6866942 1.4406822 1.6505539e-38
1.4228104 0.69766122 1.4469936 1.6413343e-38
1.4294658 0.67282599 1.4268322 1.4752027e-38
1.4281118 0.68318564 1.4327416 1.4937154e-38
1.4221529 0.73357779 1.4603827 1.1618091e-38
1.4458082 0.56175214 1.3602659 1.7610069e-38
1.4438641 0.57751751 1.3690536 1.8163237e-38
1.4432702 0.5830276 1.3719745 1.8347972e-38
1.4214976 0.76982808 1.4738817 8.2050383e-39
1.4200213 0.78125286 1.4803686 8.9408055e-39
1.4161818 0.81005746 1.4969304 9.2180986e-39
1.439513 0.64345592 1.3991628 1.8347618e-38
1.4363904 0.67054355 1.4138792 1.7886636e-38
1.4349921 0.68142158 1.420043 1.8163226e-38
1.4343827 0.68707752 1.4230409 1.8346182e-38
1.451925 0.56385905 1.3502278 1.1251439e-38
1.4513282 0.56939697 1.3531637 1.125181e-38
1.4500827 0.57922649 1.3587016 1.2449264e-38
1.4494829 0.58479244 1.3616519 1.3094631e-38
1.4488831 0.59035838 1.3646023 1.3371594e-38
1.4439334 0.63436759 1.3882948 1.7241289e-38
1.440833 0.66141009 1.4029571 1.7887012e-38
1.4402266 0.66703498 1.4059389 1.8071043e-38
1.4388497 0.67789358 1.4120586 1.8071746e-38
1.4477506 0.63087648 1.3803939 1.3647808e-38
1.4471475 0.63647342 1.3833609 1.3557055e-38
1.4465443 0.64207041 1.3863276 1.4479739e-38
1.445941 0.64766753 1.3892945 1.5124024e-38
1.4401187 0.69664091 1.4162123 1.7610069e-38
1.4342623 0.74749875 1.4438319 1.760897e-38
1.4137337 0.92526495 1.5404743 8.4801833e-39
1.4122262 0.93750972 1.5472956 8.4801833e-39
1.445223 0.68171978 1.4021552 1.3094648e-38
1.4446102 0.68740678 1.4051698 1.3465565e-38
1.4439974 0.69309366 1.4081845 1.438537e-38
1.4401777 0.72697163 1.4264393 1.6411523e-38
1.4361752 0.7609781 1.4450592 1.7332759e-38
1.4322754 0.79560095 1.463709 1.6780291e-38
1.4440774 0.723405 1.4183676 1.4198107e-38
1.4434611 0.729123 1.4213986 1.4659436e-38
1.4421041 0.74032688 1.4276007 1.4476124e-38
1.4434366 0.75954753 1.4318043 1.189429e-38
1.4420805 0.77091825 1.4380616 1.2908089e-38
1.4414544 0.7767294 1.4411418 1.3553809e-38
1.4408282 0.78254044 1.4442222 1.3647805e-38
1.4396994 0.79422778 1.4501877 1.4936749e-38
1.4383231 0.80578464 1.4565437 1.5121137e-38
1.4376971 0.81159568 1.4596241 1.548992e-38
1.4363164 0.85538411 1.4769657 1.5028944e-38
1.4315349 0.93053067 1.5109677 1.5397001e-38
1.5102392 0.49804571 1.2252767 7.3827129e-40
1.5231111 0.51195365 1.2073812 7.1746481e-43
1.5280008 0.52301645 1.2025515 8.279544e-40
1.5648043 0.36401787 1.0836846 9.1835496e-41
1.5642915 0.36620614 1.0853319 0
1.5577483 0.44293079 1.1229689 4.5917748e-40
1.5667698 0.37703747 1.084663 0
1.5659701 0.39296085 1.0914929 0
1.5652215 0.40567294 1.0971384 0
1.5609784 0.44504714 1.11801 4.6036662e-39
1.5603722 0.45067203 1.1209918 6.0802424e-39
1.5717268 0.35940582 1.0699418 7.6450444e-39
1.5693257 0.38457799 1.0827372 1.0409822e-38
1.5686749 0.39382997 1.0870327 1.1147034e-38
1.5678456 0.41341415 1.0951613 1.1977869e-38
1.5672996 0.41558772 1.0968615 1.2439573e-38
1.5655673 0.42845064 1.1042888 1.2809803e-38
1.5636806 0.44916949 1.1146628 1.3177494e-38
1.5630774 0.45476651 1.1176295 1.2441738e-38
1.5766053 0.34828582 1.0575763 1.5296559e-38
1.576015 0.35376492 1.0604806 1.5941212e-38
1.574834 0.36472315 1.0662894 1.5018886e-38
1.5675638 0.44167665 1.1052829 1.3640632e-38
1.5663643 0.45280859 1.1111836 1.2902713e-38
1.5657643 0.45837456 1.1141342 1.2535736e-38
1.5652359 0.46022731 1.1156944 1.2351712e-38
1.5638015 0.48302928 1.1259828 1.2259148e-38
1.5803424 0.34486821 1.0498416 1.6133159e-38
1.5797516 0.35034734 1.0527462 1.8618457e-38
1.5791613 0.35582638 1.0556505 1.8985466e-38
1.5702529 0.44205695 1.1006842 0
1.5696098 0.45123491 1.104941 0
1.569013 0.45677292 1.1078767 0
1.567093 0.48136604 1.1196289 0
1.5665613 0.48273245 1.1210289 4.5122133e-39
1.5658866 0.49256 1.1255627 7.188741e-39
1.5652835 0.49815696 1.1285294 7.1833306e-39
1.5924176 0.34216219 1.0276877 1.9361082e-39
1.6307198 0.34945935 0.96282524 1.1619896e-38
1.6342672 0.3550311 0.95848572 7.892113e-42
1.6397216 0.38824189 0.96020639 2.009359e-38
1.6402235 0.409437 0.96654296 1.3372708e-38
1.6360013 0.44861594 0.98731112 2.1480507e-38
1.417516 0.48368603 1.3834231 9.4043424e-39
1.4180322 0.48772815 1.3838923 9.5876435e-39
1.4211291 0.48907465 1.3789058 6.9067661e-39
1.4310076 0.49654913 1.3640819 2.3493639e-38
1.4398178 0.50467551 1.3513585 2.0093216e-38
1.5630538 0.51178771 1.1370926 5.7081809e-39
1.5628533 0.51903379 1.1399131 4.9720634e-39
1.5626487 0.52642816 1.1427915 4.7883966e-39
1.5624694 0.53251207 1.1451787 5.8987056e-39
1.5661981 0.51906109 1.1340412 2.7550789e-40
1.5659242 0.52879047 1.1378367 9.1835496e-41
1.5656675 0.53435695 1.1401839 1.7546359e-39
1.5659897 0.54129672 1.1419809 4.6112879e-39
1.5689183 0.52778715 1.1322303 2.7623797e-40
1.5694193 0.52833408 1.1315358 4.5954742e-40
1.568727 0.5400762 1.1367522 5.2573397e-39
1.5700433 0.54738593 1.1369274 3.2287556e-39
1.6311806 0.57273084 1.0380607 8.6656802e-39
1.6310619 0.57797956 1.0400574 0
1.6321498 0.58939844 1.0420337 1.4477252e-38
1.631966 0.59375364 1.0438402 1.032528e-38
1.633979 0.57423604 1.033653 2.1387944e-38
1.6339325 0.58019578 1.0357648 2.0465991e-38
1.6349034 0.59039813 1.0375326 2.1021699e-38
1.6359355 0.56421268 1.0267988 2.2214473e-38
1.636977 0.56976414 1.0268587 2.1569108e-38
1.6372322 0.575818 1.0284717 2.0738992e-38
1.6386143 0.593081 1.031921 1.9724103e-38
1.6412992 0.58625746 1.024876 1.8246075e-38
1.641332 0.59512585 1.0278392 1.8336477e-38
1.5593911 0.50846869 1.1424021 1.3263165e-38
1.487667 0.49123299 1.2626461 3.40763e-39
1.4923728 0.49048284 1.2541161 2.9484525e-39
1.4956743 0.4905647 1.2483389 3.039932e-39
1.4994339 0.49024761 1.2416205 2.4878289e-39
1.4996722 0.49185491 1.2417486 1.5669544e-39
1.4997616 0.4954088 1.242802 1.3825575e-39
1.5030617 0.49106574 1.2355202 2.1172625e-39
1.5033966 0.4913969 1.2350438 2.0268647e-39
1.5033518 0.49619791 1.2367579 1.3818611e-39
1.5062424 0.49726915 1.2320405 2.8552031e-39
1.5068254 0.49723348 1.231003 2.3020307e-39
1.5067232 0.50303775 1.2331597 1.7499219e-39
1.5093802 0.50110781 1.2278304 2.7633522e-39
1.510008 0.50387377 1.2276686 1.6566487e-39
1.5102062 0.50785732 1.2286768 1.564453e-39
1.5114094 0.50043494 1.2240332 1.3804219e-39
1.5131007 0.50969046 1.2242117 1.2878704e-39
1.5164152 0.50690347 1.2174345 7.3613011e-40
1.5165476 0.51177847 1.2188622 1.7481423e-39
1.52009 0.51055628 1.2122175 8.2904461e-40
1.5251346 0.51599145 1.2051986 8.2868167e-40
1.5286378 0.51342326 1.1981642 7.3649024e-40
1.5279877 0.51730603 1.2006297 1.1949685e-39
1.5289538 0.5158878 1.1984478 9.1944097e-40
1.4916047 0.48267505 1.2528074 3.316149e-39
1.4812566 0.48047233 1.2702523 1.841742e-39
1.4949564 0.48007703 1.2460293 1.4765552e-39
1.5065938 0.49888343 1.2319721 6.4284847e-40
1.4232981 0.47728476 1.3710763 3.3082961e-39
1.417091 0.47704834 1.38191 0
1.4221631 0.47996399 1.3739846 3.4116153e-39
1.4295578 0.48003021 1.3610047 1.8888577e-38
1.4538833 0.50228846 1.3258138 2.3494348e-38
1.5396378 0.5574587 1.1938207 1.3536114e-38
1.5430155 0.55265993 1.1862471 7.1804537e-39
1.4353803 0.49149027 1.35467 1.8692947e-38
1.4099877 1.1154634 1.6118419 1.7515725e-38
1.4140885 1.1179917 1.6054928 1.8530236e-38
1.4183019 1.1168278 1.597688 1.7700472e-38
1.4098148 0.88862222 1.5348846 1.2257355e-38
1.4102479 0.89562678 1.536509 1.1432269e-38
1.4124047 0.9112314 1.5380316 1.0784731e-38
1.4124779 0.91390228 1.5388124 9.0362577e-39
1.4129791 0.87211704 1.5236993 1.1339716e-38
1.4144081 0.87725276 1.5229357 1.0968759e-38
1.4141138 0.88638616 1.5265641 1.0692179e-38
1.4136336 0.89769912 1.5312616 1.1153515e-38
1.4168169 0.90177947 1.527054 1.4747698e-38
1.4147559 0.91210538 1.5341948 1.1247152e-38
1.4167508 0.91917473 1.533095 1.8437691e-38
1.416492 0.86803079 1.5161307 1.2996708e-38
1.4178668 0.87904209 1.5174636 1.7238791e-38
1.418183 0.88510716 1.5189735 1.6132795e-38
1.4173357 0.89996898 1.5255252 1.8529166e-38
1.4176641 0.90226334 1.5257293 1.6872194e-38
1.4192474 0.90563571 1.5240939 1.419524e-38
1.4192154 0.91192138 1.526291 1.3827527e-38
1.4200653 0.86460501 1.5086811 1.6315384e-38
1.4200177 0.87048191 1.5107661 1.3550232e-38
1.4215227 0.88535869 1.5131868 1.9175599e-38
1.4211007 0.89016229 1.5155649 1.5486335e-38
1.4218855 0.89766371 1.5167402 2.0005733e-38
1.4224359 0.9035418 1.5177743 1.9544748e-38
1.4220558 0.91374755 1.5219187 1.9544027e-38
1.4220705 0.92050332 1.5241938 1.9359276e-38
1.4232528 0.87068313 1.5051464 1.963694e-38
1.4232033 0.87839401 1.5078598 1.8253639e-38
1.4240313 0.88552803 1.5088336 1.8345118e-38
1.4247262 0.89277333 1.5100795 1.7055464e-38
1.4263781 0.90134454 1.5100944 1.9359998e-38
1.4262803 0.90906525 1.5128961 1.9267802e-38
1.4259943 0.9182809 1.5165377 1.9267803e-38
1.4271884 0.87199241 1.4986724 1.9820613e-38
1.42709 0.87964475 1.5014516 1.9544745e-38
1.4270269 0.89281011 1.5060467 1.9267796e-38
1.4300336 0.89828479 1.5026248 1.7514999e-38
1.4291345 0.91814148 1.5109686 1.8253656e-38
1.4306085 0.91848487 1.5084938 1.7330246e-38
1.4300624 0.92696029 1.5123408 1.6224616e-38
1.4305356 0.87190944 1.4927588 1.9082689e-38
1.431465 0.88132709 1.4943318 1.8252926e-38
1.4314692 0.88800311 1.4965985 1.797634e-38
1.4309658 0.90060765 1.5017765 1.751716e-38
1.4339033 0.90049219 1.4965723 1.401408e-38
1.4309497 0.9078908 1.5042856 1.6040226e-38
1.4328659 0.93016911 1.5085042 1.2718661e-38
1.4344023 0.88448578 1.490243 1.2352768e-38
1.4350711 0.8910324 1.4912968 1.0507786e-38
1.435757 0.89505523 1.491461 1.2170172e-38
1.4364403 0.91714376 1.4977826 8.9408475e-39
1.4371555 0.88608658 1.4859476 9.5869358e-39
1.43909 0.87988341 1.480433 9.6787657e-39
1.4397516 0.88635975 1.4814755 9.8613591e-39
1.4404132 0.89283597 1.4825181 9.7691621e-39
1.4410747 0.8993122 1.4835606 9.1255919e-39
1.4417365 0.90578848 1.484603 8.6660417e-39
1.4051534 0.90982944 1.5503041 1.2809081e-38
1.4073547 0.85975194 1.5293773 1.2626127e-38
1.4073558 0.8668462 1.5317914 1.2350257e-38
1.4099396 0.87153429 1.5288452 1.2441732e-38
1.4104432 0.87498444 1.5291348 1.2716879e-38
1.4105173 0.90711868 1.5399493 1.1152793e-38
1.4131169 0.86409605 1.5207253 1.2444615e-38
1.432945 0.89695764 1.4970535 1.8433716e-38
1.4097571 0.88797295 1.5347648 1.1610166e-38
1.4102052 0.89079529 1.5349382 1.0596371e-38
1.4093462 0.90171814 1.5401691 1.13325e-38
1.4091407 0.90859073 1.5428712 1.105627e-38
1.4089351 0.91546333 1.5455736 1.0873677e-38
1.4156446 0.87958699 1.5215563 8.7556912e-39
1.430248 0.90952039 1.5060743 1.5950901e-38
1.4287474 0.9223069 1.5130681 1.6317512e-38
1.4362209 0.8879903 1.4882389 1.3371212e-38
1.4364067 0.88721019 1.4876466 1.355596e-38
1.4100336 1.1228037 1.6142614 1.7517158e-38
1.4174936 0.82466507 1.4995993 1.15223e-38
1.41732 0.83099604 1.5020607 9.8656625e-39
1.420069 0.83333504 1.4980239 1.6504851e-38
1.4214756 0.84276015 1.4987608 1.8806104e-38
1.4243182 0.83430696 1.4908836 1.6595184e-38
1.4255617 0.84607482 1.4927053 2.0374151e-38
1.4267825 0.82654744 1.4839075 2.0374511e-38
1.4260918 0.83871698 1.4892668 2.0374868e-38
1.4276369 0.84360558 1.4882152 1.7886338e-38
1.4296132 0.84624964 1.4856406 1.9820973e-38
1.4304934 0.83192766 1.4792154 1.9729861e-38
1.4304272 0.83655065 1.4809061 1.9729143e-38
1.4340061 0.83623189 1.4745045 1.7514999e-38
1.4335495 0.84734601 1.4790926 1.6870706e-38
1.4331357 0.83416688 1.4753315 1.6039166e-38
1.4342215 0.84569764 1.4773496 1.7608275e-38
1.4081364 0.82478166 1.5160921 1.244246e-38
1.4129423 0.82053924 1.5061969 1.2533925e-38
1.4134793 0.82396197 1.506418 1.2349541e-38
1.4135253 0.83087832 1.5086929 1.2440651e-38
1.417346 0.83334255 1.5028142 1.2995635e-38
1.4212097 0.83571422 1.4968284 2.0189402e-38
1.4098651 0.82391828 1.5127581 1.1703805e-38
1.4381702 0.84001243 1.4684702 1.3458023e-38
1.4376084 0.84835577 1.4723002 1.3458736e-38
1.4137251 0.82807928 1.5073884 9.1255527e-39
1.4216323 0.82613766 1.4928236 1.0044614e-38
1.4382161 0.8377555 1.467621 1.392295e-38
1.4403241 0.85171878 1.4686705 1.16177e-38
1.4040034 1.0706261 1.607093 9.4914583e-39
1.4040494 1.0779437 1.6095043 9.5832896e-39
1.4143128 1.0715183 1.5892698 1.9820628e-38
1.4225833 0.55012918 1.3971436 1.724026e-38
1.4241523 0.56015742 1.3978006 1.0695116e-38
1.4241929 0.56667614 1.3999493 2.2957438e-38
1.4237758 0.57704407 1.404214 2.3509886e-38
1.4240575 0.58372539 1.4059943 2.3509886e-38
1.429034 0.54997122 1.3857477 1.6223576e-38
1.4281995 0.56656247 1.3928658 1.99139e-38
1.4289612 0.57236105 1.3935015 2.0559635e-38
1.4288782 0.59315151 1.4007287 1.9638399e-38
1.4325844 0.54147106 1.3766096 1.816074e-38
1.4327524 0.55643147 1.3814098 1.8068184e-38
1.4321821 0.56562155 1.3855425 1.9267803e-38
1.4326248 0.5733068 1.3873818 1.8898294e-38
1.4325199 0.57957625 1.3897016 1.9634788e-38
1.4320931 0.58819366 1.393387 1.9727345e-38
1.4354812 0.54214185 1.3717445 2.3509886e-38
1.4369017 0.54654711 1.3707472 2.2125858e-38
1.4367965 0.55277234 1.3730525 2.1940751e-38
1.4367994 0.56348103 1.3766952 2.2033667e-38
1.4365288 0.57071817 1.3796356 2.2033668e-38
1.4403391 0.54602551 1.3645258 2.1573769e-38
1.4402983 0.55492622 1.3676287 2.203403e-38
1.4404385 0.56465787 1.3706968 2.194255e-38
1.4400529 0.57288241 1.3741764 2.2126581e-38
1.4430121 0.54035336 1.3578936 2.212622e-38
1.4429024 0.5465467 1.3601959 2.2125861e-38
1.4434701 0.56086373 1.3640742 2.249429e-38
1.4439896 0.57197309 1.3669446 2.1296822e-38
1.4457568 0.54422033 1.3543847 2.2125508e-38
1.4493849 0.54293817 1.3475685 1.6688439e-38
1.4534597 0.54834116 1.342244 2.3509886e-38
1.4575176 0.54563898 1.3341885 2.3509886e-38
1.4729124 0.48996526 1.2881572 2.1147345e-39
1.4734641 0.49073529 1.2874497 1.3778912e-39
1.4745846 0.49847749 1.2881166 4.0547944e-39
1.4196658 0.56386894 1.4069535 9.8646395e-39
1.4246726 0.56950486 1.4000694 2.2220243e-38
1.4236722 0.58070427 1.4056427 2.2402837e-38
1.4841632 0.48716101 1.2674197 1.4733196e-39
1.4835728 0.49264005 1.270324 1.4736727e-39
1.4520825 0.49967578 1.3280904 1.5100195e-38
1.4528589 0.4997783 1.3267601 1.5008e-38
1.453542 0.50069427 1.3258706 1.565301e-38
1.4564776 0.50168723 1.3210473 1.4915456e-38
1.4126595 0.94045579 1.547537 1.2815585e-38
1.4145811 0.94301951 1.5450319 1.3919746e-38
1.404417 0.95429903 1.5667449 1.2626488e-38
1.4056644 0.9540621 1.564471 1.2626485e-38
1.4059711 0.96133018 1.5664077 1.2534643e-38
1.4099892 0.9624095 1.5597097 1.0690364e-38
1.4100342 0.96952116 1.5620526 1.0414128e-38
1.4139174 0.95774698 1.5512148 1.613172e-38
1.4139616 0.96485817 1.5535591 1.6776366e-38
1.414006 0.97196949 1.5559032 1.7144786e-38
1.4185452 0.95957071 1.5436985 2.0189046e-38
1.4179783 0.97441822 1.549753 2.0464553e-38
1.4180217 0.98152936 1.5520983 2.0372357e-38
1.4234514 0.95717239 1.5342551 1.9359631e-38
1.4220586 0.97328848 1.5421933 2.0189402e-38
1.4279778 0.94789028 1.5231348 1.8437313e-38
1.4274883 0.9577499 1.5273536 1.8253276e-38
1.42646 0.9717046 1.5339147 1.8621347e-38
1.4265003 0.978791 1.5362573 1.8437676e-38
1.4315578 0.96117431 1.5213646 1.3642054e-38
1.4305568 0.9740088 1.527496 1.3363675e-38
1.4702239 0.49424946 1.2943439 4.6000411e-39
1.4759269 0.49626595 1.2850027 3.1299641e-39
1.4762433 0.49883515 1.2853218 2.8515737e-39
1.4774318 0.50098705 1.2839648 1.7459576e-39
1.4810498 0.50169319 1.2778437 1.8395868e-39
1.4813466 0.50772268 1.2793756 0
1.4847603 0.50447088 1.2722658 2.1165338e-39
1.4851329 0.50566792 1.272018 2.7586942e-40
1.4885628 0.50781083 1.266717 1.1041938e-39
1.496483 0.51475537 1.2551562 1.2878704e-39
1.4991736 0.51329863 1.249929 3.1303396e-39
1.5206612 0.53152865 1.2183557 1.836752e-40
1.5231595 0.53182018 1.2140625 7.3470919e-40
1.5264949 0.53384054 1.2088861 9.1835496e-41
1.5294075 0.53459984 1.2040232 1.1038294e-39
1.5312438 0.53088832 1.1995301 5.5209898e-40
1.5301635 0.53067702 1.201358 1.011631e-39
1.5317907 0.53179967 1.1988791 1.0116296e-39
1.531919 0.53154421 1.1985664 1.1960251e-39
1.5321566 0.53722256 1.2000828 1.9317852e-39
1.5326027 0.54046834 1.2004039 1.0119841e-39
1.5352416 0.53990954 1.1955736 1.1960237e-39
1.558823 0.54755908 1.1567154 1.169584e-38
1.5586367 0.5517934 1.1584851 1.1513983e-38
1.5621865 0.54935455 1.1514126 1.4468278e-38
1.5662401 0.55886793 1.1475254 2.239741e-38
1.5716497 0.56548393 1.140267 2.3509886e-38
1.5765104 0.56181967 1.1304722 2.3048912e-38
1.577045 0.56885892 1.13193 2.3509886e-38
1.6318475 0.60354465 1.0473835 2.3047475e-38
1.632444 0.60669547 1.0474077 2.3507733e-38
1.4301498 0.46990433 1.3565149 0
1.4331398 0.46998733 1.3512858 1.0959698e-38
1.5579978 0.54705435 1.1579944 1.0955716e-38
1.5601537 0.55610096 1.1572847 1.2245726e-38
1.4256746 0.47957301 1.3676771 2.0097246e-38
1.4638629 0.49578598 1.3060521 1.4088202e-38
1.4814261 0.51109368 1.2803837 4.8841669e-39
1.4850005 0.51175278 1.2743232 1.6555879e-39
1.5242914 0.53650391 1.2136674 2.941247e-39
1.5291772 0.54185951 1.206901 0
1.5292079 0.54265642 1.2071183 8.1005365e-39
1.5329952 0.54526514 1.2013474 2.7550649e-40
1.5327007 0.54537308 1.2019023 9.39199e-39
1.5349337 0.54262602 1.1970402 1.3793387e-39
1.5350367 0.5422467 1.1967298 1.563723e-39
1.5360092 0.54608881 1.1963285 1.0101961e-39
1.5393324 0.55285311 1.1927891 3.6798868e-39
1.5549099 0.55622661 1.1665478 1.2246822e-38
1.5592915 0.55988008 1.1600881 1.2432326e-38
1.5629568 0.56338131 1.1548358 1.990854e-38
1.5634851 0.56027877 1.1528502 1.4830802e-38
1.5660801 0.56357038 1.1494083 1.7780374e-38
1.5753813 0.569242 1.1349857 2.3416597e-38
1.6307005 0.60794657 1.0508994 2.3507003e-38
1.4343799 0.476917 1.3514657 1.1694392e-38
1.4405023 0.47760648 1.3409352 1.1971325e-38
1.4203368 0.4725402 1.3746672 0
1.4215959 0.47729802 1.3740736 2.9531749e-39
1.4242244 0.4783321 1.3698044 1.7459506e-39
1.4249235 0.48030838 1.3692483 3.8624999e-39
1.4266565 0.48080376 1.3663696 6.8084342e-39
1.4269075 0.47927248 1.3654069 9.6708301e-39
1.4280657 0.47879496 1.3632081 1.1051132e-38
1.429467 0.48101956 1.3615015 1.620946e-38
1.4301348 0.48294947 1.3609844 1.620871e-38
1.430231 0.48204452 1.3605072 1.4457733e-38
1.4320853 0.48191279 1.3572018 1.6483863e-38
1.4329494 0.48273382 1.355962 1.5838858e-38
1.4335763 0.48476022 1.3555499 1.5468988e-38
1.4328413 0.48400411 1.3565849 1.5376435e-38
1.4356096 0.4840923 1.3517475 1.5837775e-38
1.4364488 0.48489106 1.3505435 1.5561904e-38
1.4370552 0.48690525 1.3501636 1.5192034e-38
1.43838 0.48785254 1.3481568 1.5468988e-38
1.4366007 0.48245746 1.3494478 1.5560472e-38
1.4370644 0.48535222 1.3496183 1.5743789e-38
1.4379716 0.48553273 1.3480848 1.5561547e-38
1.4395149 0.48694566 1.3458525 1.5468264e-38
1.4399867 0.48974383 1.3459762 1.5376428e-38
1.4407208 0.49076849 1.345034 1.4915436e-38
1.4421035 0.48908702 1.3420302 1.5560106e-38
1.4430269 0.48911649 1.3404167 1.5098411e-38
1.4437928 0.48998964 1.3393672 1.5283157e-38
1.4450554 0.49254996 1.3380189 1.4913987e-38
1.4467748 0.48965478 1.3340099 1.5098408e-38
1.4482244 0.49109688 1.3319519 1.5468624e-38
1.4487624 0.49303132 1.331665 1.5283497e-38
1.4522278 0.49472249 1.3261478 1.592995e-38
1.535977 0.54967368 1.1976063 4.5067636e-39
1.5364984 0.54906863 1.1964833 1.096005e-38
1.5393755 0.54980481 1.1916751 2.2969748e-39
1.5395955 0.5506748 1.1915846 8.47367e-39
1.5393932 0.55450118 1.1932436 1.1970225e-38
1.542932 0.55446339 1.1870081 7.9161887e-39
