# .PCD v0.7 - Point Cloud Data file format
VERSION 0.7
FIELDS x y z rgb
SIZE 4 4 4 4
TYPE F F F F
COUNT 1 1 1 1
WIDTH 1028
HEIGHT 1
VIEWPOINT 0 0 0 1 0 0 0
POINTS 1028
DATA ascii
-2.4177699 -0.026357552 -0.78569049 3.9647694e-39
-2.4199739 0.0057411599 -0.76166058 3.8729367e-39
-2.4207313 0.0027765823 -0.74655575 4.0569636e-39
-2.4205043 -0.009330797 -0.74472892 4.0569664e-39
-2.421982 0.021397775 -0.73312205 4.2409976e-39
-2.4232671 0.035477214 -0.7168507 4.2409948e-39
-2.4241314 0.040449351 -0.70369381 4.2409962e-39
-2.4286273 0.14970052 -0.67610264 4.8842132e-39
-2.426836 0.082813583 -0.67567152 4.4253874e-39
-2.4296999 0.15785606 -0.66075987 4.4257532e-39
-2.4294257 0.15017748 -0.6619485 4.517946e-39
-2.4291816 0.13996574 -0.66135526 4.425386e-39
-2.4276655 0.085437767 -0.66200775 4.425749e-39
-2.4306045 0.16511634 -0.64800388 3.3183196e-39
-2.4293981 0.11351787 -0.64450788 4.6101374e-39
-2.4287813 0.099290006 -0.64867026 4.5179432e-39
-2.432008 0.18651587 -0.63317126 2.0275822e-39
-2.4314423 0.16438612 -0.63254821 5.6199677e-39
-2.4301028 0.12078519 -0.63535887 4.6101374e-39
-2.4296131 0.099565879 -0.63380879 4.8852824e-39
-2.4329906 0.19469878 -0.61946809 1.92963e-39
-2.4326251 0.18379311 -0.62071991 1.9296328e-39
-2.4314938 0.15562156 -0.62732995 3.8610495e-39
-2.4315233 0.14666839 -0.62241644 5.7121634e-39
-2.4311512 0.12991939 -0.6209321 4.8845635e-39
-2.4325066 0.15272957 -0.60766089 5.7038845e-39
-2.4323337 0.14498027 -0.60698473 5.4308947e-39
-2.5175984 1.2027594 0.41247812 1.5216254e-38
-2.5188117 1.2183795 0.4267028 1.0789085e-38
-2.5194643 1.2183887 0.43846139 8.3008731e-39
-2.5227578 1.2253414 0.49442574 9.0366123e-39
-2.5235813 1.230167 0.5069074 1.793662e-42
-2.5345938 1.4065267 0.61913967 4.8856691e-39
-2.5353193 1.4073877 0.63179922 3.4123341e-39
-2.5365694 1.4233749 0.64651155 3.2290191e-39
-2.535835 1.409997 0.63981485 3.2290191e-39
-2.5373068 1.4257395 0.65864307 3.3208574e-39
-2.5385566 1.4425517 0.67294961 4.2431738e-39
-2.5382094 1.4285127 0.67355973 3.0442691e-39
-2.5394442 1.4435704 0.68844956 3.2290205e-39
-2.5405014 1.4595039 0.69970977 3.3215776e-39
-2.5402243 1.444555 0.70202726 2.8602379e-39
-2.5420523 1.490677 0.71241552 2.8598778e-39
-2.5417402 1.4750638 0.71442515 2.6758453e-39
-2.5414381 1.4587932 0.71694386 3.5974456e-39
-2.542896 1.4908853 0.72752243 2.6754851e-39
-2.5441658 1.5049108 0.74354869 2.8598764e-39
-2.5450435 1.5090264 0.75735694 2.8598764e-39
-2.5460558 1.523998 0.76828086 2.6754865e-39
-2.5472279 1.5403463 0.78140765 2.3988969e-39
-2.547087 1.5313367 0.7832787 2.3988969e-39
-2.5483911 1.556452 0.79450035 2.3988941e-39
-2.5480807 1.5406648 0.79662514 2.3066998e-39
-2.5492582 1.5557292 0.81047899 2.5840056e-39
-2.5504556 1.5716348 0.82428366 2.3996129e-39
-2.5519433 1.6024963 0.83599859 2.9524336e-39
-2.5516357 1.5856496 0.83870178 2.1226673e-39
-2.5528479 1.6011388 0.85297489 2.1223086e-39
-2.5545201 1.6321992 0.86792529 2.3985367e-39
-2.5540073 1.6171261 0.8660515 2.1219484e-39
-2.555582 1.6453276 0.88063884 2.1223086e-39
-2.5552545 1.6301353 0.88216662 2.0297514e-39
-2.5567331 1.6618179 0.89332247 1.8457203e-39
-2.5584149 1.6901242 0.90978581 1.8453615e-39
-2.5578291 1.6741246 0.9070583 2.3066998e-39
-2.5576136 1.6611574 0.90951407 1.9375558e-39
-2.5591173 1.6909435 0.92205209 1.9375558e-39
-2.5586112 1.6766859 0.91990322 2.02975e-39
-2.5584414 1.6623856 0.9238314 2.0297514e-39
-2.5606863 1.7204423 0.93590176 1.8453601e-39
-2.5603108 1.7071716 0.93562186 2.0301115e-39
-2.5599546 1.6928446 0.93621141 2.4914512e-39
-2.5595047 1.6801337 0.93431896 2.0301087e-39
-2.5621502 1.7363538 0.95450723 1.93719e-39
-2.5613337 1.7169722 0.94926566 2.0293913e-39
-2.5627465 1.7388175 0.96404916 1.8449958e-39
-2.5624139 1.7249322 0.96484572 2.1219442e-39
-2.5631232 1.7267463 0.97674209 1.8453573e-39
-2.5640604 1.7345726 0.98980373 1.8457147e-39
-2.5648561 1.7365402 1.0031867 1.7535204e-39
-2.5658879 1.7465117 1.0169064 1.4769321e-39
-2.5673759 1.7777225 1.0284623 1.661329e-39
-2.566612 1.7472638 1.0295882 1.2932598e-39
-2.5685556 1.7892909 1.0440681 1.938276e-39
-2.5680854 1.7756934 1.0422367 1.8453601e-39
-2.5678608 1.7627277 1.0445392 1.4772937e-39
-2.5671127 1.7498311 1.0373595 1.4772909e-39
-2.5693626 1.7933135 1.0566461 1.4772951e-39
-2.5705702 1.8079791 1.071234 1.4776538e-39
-2.570317 1.7917562 1.0746126 1.5694893e-39
-2.5714233 1.8101308 1.0855613 1.476935e-39
-2.5728714 1.8365147 1.09876 1.4769335e-39
-2.5725 1.8238991 1.098233 1.476935e-39
-2.5741498 1.853554 1.1134685 1.6602472e-39
-2.573741 1.8425415 1.1114808 1.4762147e-39
-2.5734727 1.8285127 1.1135125 1.4765762e-39
-2.5753052 1.8711187 1.1256986 1.3843778e-39
-2.5749836 1.8563724 1.1271113 1.5684117e-39
-2.5745916 1.8430021 1.1265869 1.4765748e-39
-2.5742717 1.8274453 1.1284362 1.7524442e-39
-2.576108 1.8716304 1.1399195 1.2918248e-39
-2.5787287 1.9347581 1.1562749 1.9371956e-39
-2.5785177 1.9261581 1.15668 1.7528044e-39
-2.5780573 1.9126971 1.1549656 1.9368341e-39
-2.5772998 1.8870455 1.1538625 1.4758545e-39
-2.5791633 1.9263389 1.1682326 1.7528016e-39
-2.578963 1.9132375 1.1710304 2.1215869e-39
-2.5784683 1.9013979 1.1678988 1.3840177e-39
-2.5800083 1.9296139 1.1818537 1.9375544e-39
-2.579788 1.9145666 1.1852494 2.02975e-39
-2.5812035 1.9486532 1.1940868 1.9375544e-39
-2.5808938 1.9318639 1.1967195 2.0293899e-39
-2.5820489 1.9487047 1.2093036 1.9379117e-39
-2.5843792 1.9909234 1.2306499 1.6609661e-39
-2.5836504 1.9781016 1.2237896 1.6609647e-39
-2.5831251 1.9622289 1.2220846 1.6609647e-39
-2.5851223 2.0034344 1.2379265 1.6609661e-39
-2.5848739 1.9903136 1.2398663 1.8457147e-39
-2.5862229 2.0194993 1.2499089 1.4769335e-39
-2.5858781 2.0058537 1.2503679 1.3850981e-39
-2.6013825 2.2063138 1.4317765 4.8856299e-39
-2.6025116 2.2250159 1.4429812 4.8856271e-39
-2.6021671 2.2104683 1.443884 4.6094003e-39
-2.6016691 2.1961987 1.4418899 4.7934329e-39
-2.6012428 2.1823733 1.440967 4.8859886e-39
-2.6009009 2.1704707 1.4406313 5.346608e-39
-2.6008079 2.1591551 1.4444847 6.2685657e-39
-2.396004 -0.27224195 -1.0577362 2.7665948e-39
-2.3956876 -0.28786862 -1.0557994 3.0431775e-39
-2.3951154 -0.30161467 -1.0593845 2.7669479e-39
-2.3946898 -0.31490836 -1.0605557 2.582921e-39
-2.3966115 -0.28446794 -1.0408037 3.5956324e-39
-2.3977599 -0.2716341 -1.0263815 3.5034353e-39
-2.3988605 -0.25484911 -1.0147574 3.4116012e-39
-2.3996966 -0.2522563 -1.000958 3.3194042e-39
-2.400723 -0.23949055 -0.98869759 3.5037955e-39
-2.4005318 -0.25321367 -0.98542953 3.595631e-39
-2.4015367 -0.2370705 -0.97521412 3.5030766e-39
-2.4013419 -0.25132698 -0.97175491 3.1350115e-39
-2.4024622 -0.23316213 -0.9604426 3.6874665e-39
-2.4036968 -0.21806096 -0.94557726 3.6871091e-39
-2.4047372 -0.19950195 -0.93590206 3.5952722e-39
-2.4045148 -0.21569361 -0.93199229 3.5952722e-39
-2.4063039 -0.17100896 -0.92160219 3.871499e-39
-2.4055533 -0.19784875 -0.92199969 3.8718577e-39
-2.4054098 -0.20747308 -0.91988087 3.7796607e-39
-2.407717 -0.15743446 -0.9027729 3.7807383e-39
-2.4071424 -0.17018622 -0.9068886 3.8718549e-39
-2.4067972 -0.18645903 -0.90515178 3.8718563e-39
-2.4063272 -0.19877282 -0.90759581 3.8718577e-39
-2.4086781 -0.14054754 -0.89370716 3.8725752e-39
-2.4084647 -0.15472369 -0.89062321 3.8725738e-39
-2.407913 -0.17007776 -0.89305079 3.9640505e-39
-2.4076712 -0.18520857 -0.89000529 3.7800194e-39
-2.4092829 -0.1522475 -0.87708199 3.8725752e-39
-2.4103255 -0.13866116 -0.86493379 3.8718563e-39
-2.411675 -0.12489012 -0.84734529 3.8725752e-39
-2.4127667 -0.10841536 -0.83573067 3.8722151e-39
-2.4139004 -0.092747763 -0.82295942 4.0558874e-39
-2.4150109 -0.074544378 -0.81184524 3.8722179e-39
-2.4147768 -0.089753553 -0.80862725 3.8718577e-39
-2.4166553 -0.049905483 -0.79425526 3.8722165e-39
-2.4162078 -0.062924065 -0.79595429 3.8725752e-39
-2.4158959 -0.075164802 -0.79558778 3.964052e-39
-2.4186711 -0.031130001 -0.76710403 3.8722165e-39
-2.4193623 -0.026243167 -0.757034 3.5963484e-39
-2.4191549 -0.039141022 -0.75446963 3.7800208e-39
-2.4202428 -0.027025353 -0.74078429 3.9647708e-39
-2.4199407 -0.043091115 -0.73836815 3.780018e-39
-2.4229074 0.014890468 -0.71326089 4.1491579e-39
-2.4224958 0.0030013924 -0.71486187 4.2409934e-39
-2.4238238 0.019028662 -0.69876403 4.2409976e-39
-2.4234858 0.0032066624 -0.69711745 4.3328317e-39
-2.4231098 -0.01018964 -0.69733918 4.3328317e-39
-2.4249296 0.036241889 -0.68725306 4.4250301e-39
-2.4246941 0.023349794 -0.68519622 4.4246714e-39
-2.4257591 0.036111429 -0.67224014 4.5161453e-39
-2.4284446 0.078199677 -0.64442044 4.60942e-39
-2.4281154 0.066473529 -0.64461738 4.70161e-39
-2.4300344 0.1112851 -0.63194901 4.9771207e-39
-2.4292433 0.082564481 -0.63215762 4.8849264e-39
-2.431706 0.14974706 -0.62063497 5.7856489e-39
-2.4318442 0.14375553 -0.61520863 4.9749599e-39
-2.4307988 0.10922834 -0.61716515 4.7920077e-39
-2.4305 0.097110353 -0.61662 4.9763962e-39
-2.432543 0.13677919 -0.59920323 4.417103e-39
-2.4321225 0.1270345 -0.60201097 5.0664296e-39
-2.4333305 0.14419241 -0.58863539 3.4897489e-39
-2.4329717 0.13018373 -0.58824939 5.9739876e-39
-2.51934 1.2004266 0.4450109 1.4386851e-38
-2.5205817 1.216081 0.45973116 1.2081251e-38
-2.5231688 1.2244104 0.50229263 7.929899e-39
-2.5236428 1.2206804 0.51265997 1.7059443e-38
-2.5343199 1.3899957 0.62229365 4.3339429e-39
-2.5339637 1.3738433 0.62377119 4.0580707e-39
-2.5351629 1.3898325 0.63756579 3.5974442e-39
-2.5348856 1.3736199 0.64049828 2.9527951e-39
-2.5362775 1.4045147 0.65047163 3.2286589e-39
-2.5360656 1.3891196 0.65418297 3.2282988e-39
-2.5370495 1.4051884 0.66406274 3.0442705e-39
-2.5379252 1.4113098 0.6768508 2.9517147e-39
-2.537703 1.3974787 0.67961228 2.9520734e-39
-2.5393252 1.4262574 0.69477338 3.3204986e-39
-2.5387816 1.412024 0.6919381 2.8595191e-39
-2.540045 1.4282192 0.70678556 3.3204986e-39
-2.541122 1.4426776 0.71912831 2.8595177e-39
-2.5427003 1.4706377 0.73390001 2.767322e-39
-2.5419521 1.456573 0.72729373 2.767322e-39
-2.544075 1.487425 0.75046849 2.5829294e-39
-2.5435255 1.4728745 0.74767852 2.7673206e-39
-2.5447769 1.4898639 0.76192534 2.4910925e-39
-2.5458176 1.5060679 0.77275753 2.5829294e-39
-2.545471 1.4903458 0.7742033 2.3988983e-39
-2.5470898 1.5191487 0.78929299 2.399257e-39
-2.5465622 1.5046057 0.7868939 2.3992584e-39
-2.5477943 1.5199648 0.80158758 2.2152245e-39
-2.5489783 1.5392772 0.81348574 2.3070614e-39
-2.5486407 1.5234604 0.81513369 2.1230302e-39
-2.5501649 1.5545313 0.82741004 2.6765655e-39
-2.5498378 1.5390998 0.82906562 2.2148643e-39
-2.5514729 1.5669907 0.84489375 2.3074201e-39
-2.5506856 1.5531169 0.83748901 2.7691199e-39
-2.5527356 1.5840186 0.85932344 2.3988955e-39
-2.5523105 1.5710011 0.85802704 2.3999745e-39
-2.553833 1.5969344 0.87278366 2.1219484e-39
-2.5534718 1.5823336 0.87341887 2.1223086e-39
-2.5549595 1.6133752 0.8850531 2.0301101e-39
-2.5546613 1.5974782 0.88745028 2.1223072e-39
-2.556489 1.6436069 0.89783186 2.5832895e-39
-2.5561659 1.6298213 0.89874566 2.1215883e-39
-2.5558417 1.6129584 0.90115392 2.2134238e-39
-2.5572548 1.6428785 0.91199392 2.3063411e-39
-2.5570323 1.6280675 0.91522008 2.2134238e-39
-2.5580783 1.6468295 0.92490238 2.6754837e-39
-2.5592873 1.6627922 0.93888092 1.9379145e-39
-2.5612288 1.7048644 0.95329446 1.7535232e-39
-2.5608928 1.6905286 0.9542582 1.9375544e-39
-2.5603871 1.6759278 0.9522835 2.2148615e-39
-2.5623815 1.7213613 0.9660055 1.7531659e-39
-2.5620024 1.7037874 0.9677735 2.0304717e-39
-2.5617421 1.690408 0.969625 2.6762026e-39
-2.5613525 1.6775233 0.96890366 1.9379145e-39
-2.5627637 1.7088083 0.97903365 1.7535246e-39
-2.5644367 1.7362105 0.99578661 1.8449986e-39
-2.5641129 1.7243149 0.99577063 1.8457175e-39
-2.565233 1.7382505 1.0091404 1.7531617e-39
-2.5651944 1.7260331 1.0144212 1.7535204e-39
-2.5656905 1.7262572 1.023257 1.7535204e-39
-2.5669174 1.7414503 1.0379411 1.5694879e-39
-2.5678961 1.7533442 1.0497664 1.477651e-39
-2.5695457 1.7874632 1.0628091 1.8457189e-39
-2.568871 1.7724305 1.0579963 2.1223072e-39
-2.568898 1.7601697 1.0644826 1.5694865e-39
-2.57073 1.7896169 1.0830979 1.5691306e-39
-2.5700827 1.7753164 1.0784255 1.5691292e-39
-2.5714741 1.8003085 1.0912817 1.5691306e-39
-2.5724273 1.8057194 1.105817 1.5691306e-39
-2.5734038 1.8159014 1.1184354 1.5687704e-39
-2.5740404 1.8108498 1.1323825 1.8442797e-39
-2.5759747 1.8530196 1.146616 1.6606073e-39
-2.5756531 1.8406351 1.1468811 2.2137825e-39
-2.5751743 1.8258538 1.145485 2.2134238e-39
-2.5771253 1.8672454 1.1603979 1.8449986e-39
-2.5768061 1.8519915 1.1621076 2.1215883e-39
-2.57827 1.8838203 1.1729239 2.1223058e-39
-2.578001 1.8669298 1.1763405 2.3063383e-39
-2.5794935 1.8986737 1.1877152 2.1219456e-39
-2.5806236 1.9144703 1.2003574 1.9379131e-39
-2.581851 1.9291846 1.2152841 1.937553e-39
-2.5830114 1.9445544 1.2286783 1.7535204e-39
-2.5847123 1.9738897 1.2449884 1.5684075e-39
-2.584224 1.9597504 1.2431064 1.5687676e-39
-2.5856714 1.9864304 1.256146 1.1999837e-39
-2.5874152 2.0179181 1.2721722 7.3828531e-40
-2.5868642 2.0046706 1.2687243 6.4644981e-40
-2.5863533 1.9898359 1.2667729 1.1985446e-39
-2.6008379 2.1748235 1.4373652 4.9781829e-39
-2.6010678 2.1633096 1.447136 6.2685629e-39
-2.6000538 2.1252666 1.4474708 7.8344537e-39
-2.3939061 -0.33477366 -1.0649579 2.2141385e-39
-2.393539 -0.3483313 -1.0649471 4.0555343e-39
-2.3953893 -0.30410209 -1.053231 3.6874665e-39
-2.3951519 -0.32014456 -1.0496634 3.5034367e-39
-2.3963561 -0.30417362 -1.0357724 3.595631e-39
-2.3959217 -0.31725872 -1.0371971 3.595631e-39
-2.3976891 -0.2815367 -1.0228167 3.687828e-39
-2.3970771 -0.29060033 -1.0294163 3.687828e-39
-2.39854 -0.27529541 -1.0105312 3.5952722e-39
-2.3983316 -0.29010054 -1.0070492 3.5952708e-39
-2.3994036 -0.27268127 -0.99624574 3.5037941e-39
-2.4002819 -0.27025405 -0.98159951 3.5034339e-39
-2.401243 -0.26087809 -0.96885955 3.5034325e-39
-2.4022238 -0.25200966 -0.95552039 3.1350115e-39
-2.4034131 -0.23706859 -0.94139427 3.8714976e-39
-2.404511 -0.22460729 -0.92770022 3.8714976e-39
-2.4053204 -0.21956973 -0.91557473 3.2275645e-39
-2.4062138 -0.21733111 -0.90057009 3.6878238e-39
-2.4073858 -0.20174184 -0.88706583 3.9636932e-39
-2.4089074 -0.17178333 -0.87429494 3.9640491e-39
-2.4085495 -0.18548122 -0.87404209 3.8718549e-39
-2.4101088 -0.15707545 -0.85983688 3.8722165e-39
-2.4098041 -0.17175958 -0.85814232 3.8722137e-39
-2.4112861 -0.14228152 -0.84584939 3.964052e-39
-2.4109807 -0.15494442 -0.84516388 3.7796607e-39
-2.412534 -0.12752402 -0.83057588 3.8722165e-39
-2.412173 -0.14245148 -0.82977992 3.871499e-39
-2.413573 -0.11329217 -0.81880713 3.8722165e-39
-2.4144168 -0.10901837 -0.80568933 4.0558874e-39
-2.4156544 -0.094232962 -0.7906127 3.9640534e-39
-2.4183626 -0.048407756 -0.76420999 4.0569664e-39
-2.4182079 -0.062487241 -0.7601158 3.9647694e-39
-2.4176579 -0.076744944 -0.76305848 3.9640491e-39
-2.4173508 -0.092867836 -0.76070428 4.0566049e-39
-2.4192257 -0.048376374 -0.74867111 4.0562448e-39
-2.418885 -0.063170925 -0.74757987 4.0566063e-39
-2.4203012 -0.045463666 -0.73071289 4.1491593e-39
-2.4198229 -0.053191118 -0.7355516 4.056965e-39
-2.4212115 -0.030320721 -0.72170919 4.1487991e-39
-2.4221027 -0.02814254 -0.70671242 4.1488005e-39
-2.4230049 -0.019887984 -0.69449103 4.1484418e-39
-2.4243698 0.0026857969 -0.6809265 4.3328317e-39
-2.4254496 0.016028961 -0.66799164 4.4246658e-39
-2.4263396 0.01952178 -0.65365797 4.4250273e-39
-2.4278159 0.045799095 -0.63990265 4.6094158e-39
-2.4274633 0.033886909 -0.64043134 4.5172229e-39
-2.4290578 0.065512359 -0.6271615 4.7930867e-39
-2.4286366 0.048566509 -0.62646472 4.7008911e-39
-2.431705 0.13091379 -0.61143851 4.7909259e-39
-2.4302921 0.078581929 -0.61130762 5.066794e-39
-2.4299238 0.064743638 -0.61117715 5.0664324e-39
-2.4325745 0.13184194 -0.59621948 4.8863572e-39
-2.4308338 0.071787581 -0.59821808 5.5256099e-39
-2.4333472 0.13536783 -0.58401364 4.5942957e-39
-2.4326189 0.10637496 -0.58296013 6.6143165e-39
-2.4321451 0.097280458 -0.58704853 4.2276712e-39
-2.5202911 1.1992246 0.46274027 1.3832608e-38
-2.5200832 1.1882143 0.46437803 1.3371624e-38
-2.5233691 1.2251154 0.50555837 1.6504457e-38
-2.5239336 1.219725 0.51836675 1.7059443e-38
-2.5262058 1.2465056 0.54622257 9.9611175e-39
-2.5261476 1.2357403 0.55044216 6.1807085e-39
-2.5256727 1.223848 0.54769951 1.0789998e-42
-2.5253377 1.2108004 0.54804039 1.1162861e-38
-2.5248687 1.19739 0.54615206 1.5771567e-38
-2.5266755 1.2405608 0.55760008 5.719715e-39
-2.5266597 1.2265284 0.56417668 7.6533275e-39
-2.5278068 1.2528002 0.57200533 9.0351745e-39
-2.5275478 1.2417709 0.57273543 8.2979738e-39
-2.5263894 1.2136571 0.5656029 9.6841467e-39
-2.5347865 1.3641139 0.64335853 3.1364675e-39
-2.5357111 1.3712248 0.65655029 3.2286589e-39
-2.5369112 1.3896765 0.66915631 3.135743e-39
-2.5365195 1.3756487 0.66895568 2.8598778e-39
-2.5375984 1.3846642 0.68399465 2.8598792e-39
-2.538578 1.3919219 0.69810385 2.8598792e-39
-2.5397315 1.4079434 0.71105194 2.9517147e-39
-2.5410023 1.4222879 0.72694242 2.7673248e-39
-2.5423827 1.449651 0.7384389 3.2286617e-39
-2.5419858 1.4372916 0.73732889 2.6754865e-39
-2.5432208 1.4525464 0.75213164 2.6754837e-39
-2.5444279 1.4710361 0.76484293 2.3985353e-39
-2.5440948 1.456028 0.76618248 2.6758453e-39
-2.5452826 1.4712948 0.78012091 2.30706e-39
-2.5463483 1.4844933 0.79288024 2.2148657e-39
-2.5476022 1.5037408 0.80606413 2.2148643e-39
-2.5472684 1.4895077 0.80700845 2.5843713e-39
-2.5485325 1.5050387 0.82219541 2.2148643e-39
-2.5481105 1.4921582 0.8208921 2.2148671e-39
-2.5495665 1.5196964 0.83366346 2.3992598e-39
-2.5511205 1.5510243 0.84635186 2.9538727e-39
-2.5508842 1.5347204 0.85007262 2.1223086e-39
-2.5521424 1.5516917 0.86444086 2.6762054e-39
-2.5517185 1.5388857 0.86306465 2.2145042e-39
-2.5530796 1.5642316 0.87520522 2.3996171e-39
-2.5528529 1.5506352 0.87776589 2.2145056e-39
-2.5524485 1.5382891 0.87651849 2.1226687e-39
-2.5542893 1.5839427 0.88736445 2.1219498e-39
-2.5539901 1.5677137 0.88991135 2.1219498e-39
-2.5536833 1.5517637 0.89218092 2.2137839e-39
-2.5556571 1.5973905 0.90544486 2.0297514e-39
-2.5551839 1.5837194 0.90360123 2.1219498e-39
-2.5567834 1.6104317 0.91936111 1.9371984e-39
-2.5564177 1.5962031 0.91972947 2.2137853e-39
-2.5579228 1.6269994 0.93179595 1.937197e-39
-2.5575864 1.6121045 0.93302166 2.0290339e-39
-2.5590057 1.6404494 0.94473904 2.2148643e-39
-2.5587652 1.6276475 0.94666392 1.937197e-39
-2.5584188 1.613166 0.94750214 2.0293927e-39
-2.5604348 1.6585796 0.96162683 2.2148629e-39
-2.5598772 1.6430869 0.95915544 2.1223086e-39
-2.5611534 1.6607161 0.97353846 2.2145028e-39
-2.5628099 1.6899043 0.98911518 2.2145028e-39
-2.5622756 1.6752371 0.98666131 2.0304703e-39
-2.5637696 1.7034234 0.99980325 2.2148615e-39
-2.56352 1.6883317 1.0026867 2.0297486e-39
-2.5650198 1.7192925 1.0145767 1.7535246e-39
-2.5646152 1.705301 1.0141289 1.9386348e-39
-2.5643139 1.6908134 1.0157801 1.8460776e-39
-2.5654488 1.7081165 1.0277728 1.8464377e-39
-2.5670476 1.7350551 1.0434146 1.7535218e-39
-2.5663707 1.722778 1.037219 1.8457175e-39
-2.568233 1.7501854 1.0573797 1.6609647e-39
-2.5678849 1.7361472 1.0579724 1.7531631e-39
-2.5692866 1.7661035 1.0685872 1.8457175e-39
-2.5703919 1.7701114 1.0865481 1.7524428e-39
-2.5697825 1.7562449 1.0823467 1.6613248e-39
-2.5714619 1.7859683 1.0980746 1.9371928e-39
-2.5710208 1.7702726 1.0978057 1.9382704e-39
-2.5706544 1.7591734 1.0966281 1.4769321e-39
-2.5725131 1.8000209 1.1101512 1.6606073e-39
-2.5721929 1.7857203 1.1113743 1.6606059e-39
-2.5718341 1.7720413 1.1115953 2.0301059e-39
-2.5732195 1.8006097 1.1225955 1.7528016e-39
-2.5730281 1.7870148 1.1257939 1.7528002e-39
-2.5745478 1.8056732 1.1440614 2.4907309e-39
-2.5738208 1.7921382 1.1375813 1.7528044e-39
-2.5750704 1.8082829 1.1522043 2.4907324e-39
-2.5764418 1.8381698 1.1623012 2.3059796e-39
-2.5760808 1.822348 1.1635382 2.4903708e-39
-2.5784452 1.8778 1.1790293 2.3056194e-39
-2.5776589 1.8522862 1.1773368 2.4900121e-39
-2.5772893 1.8390875 1.1771334 2.3981752e-39
-2.5792961 1.8790909 1.1937354 2.2137825e-39
-2.578757 1.8645467 1.1911346 2.121947e-39
-2.5783758 1.8510756 1.190851 2.2141427e-39
-2.5814495 1.9215168 1.2117957 2.2141413e-39
-2.5804858 1.8934667 1.2081467 2.2137825e-39
-2.580112 1.8798341 1.208077 2.2145028e-39
-2.5822225 1.9301146 1.2215267 2.2141413e-39
-2.582058 1.9215857 1.222733 2.4903694e-39
-2.5815742 1.9084302 1.220445 2.2137825e-39
-2.5830414 1.9328784 1.2349361 2.2141413e-39
-2.5839643 1.9420502 1.2470862 1.5680502e-39
-2.5836105 1.9272741 1.2479296 1.4762119e-39
-2.5852675 1.9588376 1.2623587 1.0148736e-39
-2.5847378 1.9436215 1.2602519 1.3840148e-39
-2.5867712 1.9855583 1.2763969 1.1067091e-39
-2.5990469 2.0906839 1.4462364 8.1114007e-39
-2.5986824 2.0775571 1.4460895 7.558943e-39
-2.6001506 2.1179571 1.4527931 8.1110434e-39
-2.5996652 2.1059389 1.449918 7.4663943e-39
-2.3937504 -0.35463473 -1.0580527 3.7792992e-39
-2.3934488 -0.36688247 -1.0574992 3.503071e-39
-2.393029 -0.37997898 -1.0586579 3.779302e-39
-2.3924167 -0.39262497 -1.0635129 4.3321198e-39
-2.394788 -0.3364636 -1.048236 3.3190441e-39
-2.3945968 -0.35157296 -1.0442977 3.7793006e-39
-2.3956466 -0.33701956 -1.0324907 3.5952708e-39
-2.3975923 -0.29459816 -1.0181739 3.7796607e-39
-2.3973341 -0.30761316 -1.0164605 3.7796607e-39
-2.3969154 -0.32233095 -1.0168068 3.7796593e-39
-2.3982482 -0.29935026 -1.0040238 3.8718549e-39
-2.3981142 -0.30935875 -1.0015464 3.8722137e-39
-2.3977361 -0.3226791 -1.0018424 4.0551644e-39
-2.3991537 -0.29099447 -0.99178773 3.8722137e-39
-2.3988781 -0.30577934 -0.98952502 3.8722137e-39
-2.4007676 -0.27489015 -0.97058094 3.8722137e-39
-2.4000378 -0.28867745 -0.97698706 3.8718535e-39
-2.4012675 -0.27275157 -0.96261561 3.7800194e-39
-2.4020844 -0.27070668 -0.94889152 3.8714962e-39
-2.4031327 -0.25389194 -0.93821615 3.5959883e-39
-2.4027908 -0.26984805 -0.93657458 3.6878224e-39
-2.4043155 -0.23850001 -0.92442608 4.0558874e-39
-2.4039567 -0.2535677 -0.92352843 3.5037927e-39
-2.4051867 -0.23867913 -0.90863973 3.7800194e-39
-2.4048712 -0.25450739 -0.90658104 3.3194028e-39
-2.4062932 -0.2226512 -0.89652979 3.4108796e-39
-2.4060316 -0.23829518 -0.89359218 4.0562462e-39
-2.4056747 -0.25238374 -0.89313799 3.7796607e-39
-2.4073691 -0.2140795 -0.88132918 3.871499e-39
-2.4072216 -0.22315659 -0.87955481 3.3190483e-39
-2.4082427 -0.20758937 -0.86876452 4.0558888e-39
-2.4094944 -0.18895149 -0.8553161 4.0558846e-39
-2.4091516 -0.20343448 -0.85441077 3.9640505e-39
-2.4108677 -0.17318544 -0.83827537 3.8722179e-39
-2.4103985 -0.18826503 -0.83935285 3.9640505e-39
-2.4119484 -0.15996335 -0.82525909 3.8718577e-39
-2.4115975 -0.17575186 -0.82386827 3.872578e-39
-2.4111903 -0.18799511 -0.82521611 3.8722151e-39
-2.4135659 -0.12991199 -0.81080812 3.8722165e-39
-2.413203 -0.14295633 -0.81096786 4.0558874e-39
-2.4128208 -0.15532982 -0.81180358 3.8722151e-39
-2.4143643 -0.12793876 -0.79738182 3.8722165e-39
-2.4135728 -0.15784702 -0.79701543 3.9647694e-39
-2.4153621 -0.11533365 -0.78556418 3.9644107e-39
-2.4174793 -0.098744541 -0.75551355 4.0562476e-39
-2.4186084 -0.080234341 -0.74421501 4.0562504e-39
-2.4198229 -0.065299541 -0.72963011 3.780381e-39
-2.4210339 -0.05055052 -0.71502 3.8722151e-39
-2.4206855 -0.066092446 -0.71369272 4.1484418e-39
-2.4219856 -0.041176483 -0.70244849 4.0566049e-39
-2.4228613 -0.033853937 -0.69024438 4.3328317e-39
-2.4237561 -0.030312201 -0.6758461 4.2402801e-39
-2.4252911 0.00012883835 -0.66307777 4.6086969e-39
-2.4247704 -0.021573825 -0.6618439 4.42467e-39
-2.4260881 0.00091570156 -0.64909118 4.6090528e-39
-2.4257815 -0.012452263 -0.64807743 4.4250273e-39
-2.4270144 0.0033654144 -0.63358933 4.6086955e-39
-2.4284878 0.032000441 -0.62104303 5.0682345e-39
-2.4300725 0.05960504 -0.60598326 5.1571875e-39
-2.4300547 0.047400009 -0.60033453 4.7866029e-39
-2.4293656 0.034833428 -0.6066038 5.0649863e-39
-2.4288685 0.021074707 -0.60883379 4.9753116e-39
-2.4323189 0.11389882 -0.59204966 3.6816973e-39
-2.4312708 0.074877314 -0.59184992 5.332937e-39
-2.4331286 0.11965717 -0.58026969 8.9084061e-39
-2.4326339 0.10295478 -0.58101803 9.0927973e-39
-2.4323857 0.090143561 -0.57922328 5.9714709e-39
-2.5227482 1.1843629 0.51430291 1.2911713e-38
-2.5237145 1.1998419 0.52414292 1.3373404e-38
-2.5232351 1.1847581 0.52288258 1.3373045e-38
-2.5246375 1.2032865 0.53909862 1.3925858e-38
-2.5237439 1.1878843 0.53052443 1.3832944e-38
-2.5256727 1.2185125 0.55031055 1.6231823e-38
-2.5252485 1.2069056 0.54834116 1.4751668e-38
-2.5251129 1.1971827 0.55064934 1.3831512e-38
-2.5272682 1.2338681 0.57155639 8.2065013e-39
-2.5259058 1.1990641 0.5640294 9.8696225e-39
-2.5286484 1.2618912 0.58272564 4.6090836e-39
-2.52844 1.2491881 0.58518493 3.8729521e-39
-2.5278566 1.2408689 0.57873803 8.2065013e-39
-2.5265343 1.2076006 0.57117939 9.2224441e-39
-2.5308139 1.2920139 0.60702944 4.0569945e-39
-2.5305171 1.2758913 0.60956115 4.2417389e-39
-2.5319676 1.3086857 0.6196605 5.4381212e-39
-2.5316219 1.2941214 0.62055546 4.5197635e-39
-2.5313091 1.2784352 0.62259382 5.2558936e-39
-2.5327475 1.309189 0.63347352 4.5190474e-39
-2.5352008 1.3392047 0.66301566 3.0442719e-39
-2.5364366 1.3561447 0.67700493 3.5981673e-39
-2.5359468 1.3422626 0.67496842 3.3208602e-39
-2.5374625 1.3692493 0.68908846 3.5981673e-39
-2.5371912 1.3565699 0.69039589 4.0591483e-39
-2.5368531 1.3417822 0.69153267 2.7680423e-39
-2.5383415 1.371884 0.70363915 2.7676836e-39
-2.5379975 1.3585837 0.70394629 2.9520776e-39
-2.5395441 1.3874176 0.71772057 2.6754879e-39
-2.5391955 1.3734096 0.7182889 3.4134173e-39
-2.540777 1.403223 0.73220789 2.6754865e-39
-2.5420177 1.4235537 0.74462688 2.3985409e-39
-2.5430048 1.4372393 0.75572258 2.9520734e-39
-2.5426791 1.4206083 0.75799197 2.7680437e-39
-2.5437961 1.4363993 0.77039844 2.5836482e-39
-2.5450037 1.4542786 0.78342062 2.4910939e-39
-2.5447512 1.438785 0.78644818 2.3988983e-39
-2.5461707 1.470258 0.79663676 3.0449921e-39
-2.5458157 1.4560879 0.79717064 2.3988983e-39
-2.5455983 1.4426129 0.79984576 2.3988983e-39
-2.5470743 1.469077 0.81350285 2.491454e-39
-2.5465302 1.4547397 0.81070715 2.6754865e-39
-2.5479271 1.4725496 0.82717955 2.5836482e-39
-2.5495946 1.5013527 0.84314173 2.2137881e-39
-2.5490544 1.4865878 0.84062922 2.12231e-39
-2.5505373 1.5180067 0.85198754 2.2141469e-39
-2.5502737 1.5037204 0.85422367 2.2137881e-39
-2.5513601 1.5182012 0.86672443 2.3063439e-39
-2.5522993 1.5213057 0.88213712 2.2141469e-39
-2.553422 1.5353606 0.89549851 2.12231e-39
-2.5549037 1.5657556 0.90733802 2.9517133e-39
-2.5545712 1.5508101 0.90865284 2.4910939e-39
-2.554225 1.5362645 0.90952981 2.1223086e-39
-2.5560663 1.5818961 0.9203971 2.2134252e-39
-2.5557194 1.5664123 0.92172033 2.1219484e-39
-2.5572591 1.5969187 0.93454754 2.7669619e-39
-2.5568843 1.583485 0.93436217 2.1215883e-39
-2.5565884 1.5686657 0.93627965 2.3066998e-39
-2.5580835 1.5972775 0.94923061 2.5825692e-39
-2.5575726 1.5821693 0.94741684 2.0293941e-39
-2.5596213 1.6278197 0.96201295 2.6758453e-39
-2.5593109 1.612618 0.9638558 1.8453601e-39
-2.5608399 1.6418896 0.97709394 1.8453601e-39
-2.5604348 1.6278994 0.97663522 2.2148629e-39
-2.5620632 1.656117 0.99218535 1.8457175e-39
-2.5615535 1.6419592 0.98992258 2.2141441e-39
-2.5631733 1.6738665 1.0035088 1.9379145e-39
-2.5629275 1.6574043 1.0071306 1.9379145e-39
-2.5647769 1.6877245 1.0256406 1.7538848e-39
-2.5639663 1.6718465 1.0187949 1.9379131e-39
-2.5637078 1.6586311 1.0206002 1.9379145e-39
-2.565614 1.7016147 1.0339345 1.9379173e-39
-2.5652862 1.6866843 1.0353295 1.9375558e-39
-2.5646617 1.6746632 1.0299559 1.846079e-39
-2.5667298 1.7170197 1.0465041 1.9375572e-39
-2.5661032 1.688314 1.049255 1.9379131e-39
-2.5657115 1.675498 1.0484663 1.9379131e-39
-2.5674946 1.7198489 1.0589108 1.9375544e-39
-2.5691636 1.7482886 1.0750828 1.6613262e-39
-2.5686443 1.7334421 1.0729872 1.845e-39
-2.5684664 1.7191805 1.0767542 2.3063397e-39
-2.5695379 1.7377514 1.0869821 2.3070558e-39
-2.5693734 1.7300901 1.0877639 1.9375544e-39
-2.5718422 1.7797369 1.1079786 1.6598871e-39
-2.5707459 1.7530844 1.1012577 2.0301059e-39
-2.570446 1.7369434 1.1037458 2.02975e-39
-2.5725143 1.782232 1.1188738 1.7520813e-39
-2.5721371 1.7744683 1.1158757 2.0301059e-39
-2.5716248 1.7557906 1.1157744 2.12194e-39
-2.5727317 1.7702733 1.1286415 1.6606059e-39
-2.573976 1.7825314 1.1450741 2.4907324e-39
-2.5736055 1.7701963 1.1444311 2.1226673e-39
-2.5749648 1.7955487 1.1565295 2.5829294e-39
-2.5758557 1.8052453 1.167846 2.4910911e-39
-2.5755918 1.7907088 1.1701993 2.4914512e-39
-2.5774097 1.8342088 1.1816864 2.3985353e-39
-2.5770907 1.8181674 1.183782 2.3066998e-39
-2.5767484 1.80485 1.18413 2.3988955e-39
-2.5784094 1.8346682 1.1994823 2.2141427e-39
-2.577904 1.8204823 1.1973128 2.30706e-39
-2.5776019 1.8043453 1.199759 2.3985353e-39
-2.5799913 1.8633821 1.2139518 2.3059796e-39
-2.5794644 1.8486042 1.2116832 2.0293927e-39
-2.5814095 1.8915544 1.2257282 2.3985339e-39
-2.581111 1.8780625 1.2269479 2.2137825e-39
-2.5829291 1.9212118 1.2386152 2.0293913e-39
-2.5825098 1.9045109 1.2392255 2.0293913e-39
-2.5834048 1.9069157 1.2541808 1.752803e-39
-2.5843668 1.9229894 1.2636578 1.2003439e-39
-2.5997436 2.1129203 1.4479221 7.0979691e-39
-2.5994551 2.0974803 1.4502723 7.5589472e-39
-2.5991676 2.0845618 1.4514081 8.2954347e-39
-2.5983922 2.0581815 1.4503386 8.387989e-39
-2.5992692 2.0726421 1.4590718 8.0192079e-39
-2.5982556 2.0456734 1.4539956 7.1905248e-39
-2.3931911 -0.38902974 -1.0513109 3.6874665e-39
-2.3923974 -0.40117183 -1.0596757 3.6874665e-39
-2.3941717 -0.37228274 -1.0418307 3.6874651e-39
-2.3954909 -0.35616437 -1.0259328 3.7792992e-39
-2.3951366 -0.36987531 -1.0256085 3.7789404e-39
-2.3965509 -0.34253785 -1.0134903 3.8711347e-39
-2.3963332 -0.35721543 -1.0102406 4.0551644e-39
-2.3959315 -0.36965913 -1.0113927 3.6871049e-39
-2.3973875 -0.33938795 -0.99995226 3.9633289e-39
-2.3985667 -0.32154909 -0.98742884 4.055886e-39
-2.3983207 -0.33698303 -0.98430806 4.0551658e-39
-2.3997495 -0.30914798 -0.97217041 4.0558846e-39
-2.3995738 -0.32007596 -0.96999347 4.1477201e-39
-2.3992071 -0.32886809 -0.97230315 4.2395556e-39
-2.4009113 -0.29000053 -0.96059591 3.8725724e-39
-2.4006901 -0.30461735 -0.95743519 4.2395556e-39
-2.4017911 -0.29079902 -0.94434273 4.1477215e-39
-2.4014542 -0.30553043 -0.94321698 4.3317485e-39
-2.4029441 -0.27512169 -0.93122894 4.0558846e-39
-2.402673 -0.29148239 -0.92811477 4.2395584e-39
-2.4039528 -0.26709732 -0.91697764 4.0562462e-39
-2.4048052 -0.26316798 -0.90352958 3.8718549e-39
-2.4058044 -0.2583257 -0.88788962 3.6871063e-39
-2.406925 -0.24020186 -0.87656087 4.0555287e-39
-2.408051 -0.22568083 -0.86336368 3.7793048e-39
-2.4089637 -0.22275029 -0.84834599 4.1477229e-39
-2.4100385 -0.20453201 -0.83788788 3.8714948e-39
-2.4099009 -0.21482261 -0.83533347 4.1480817e-39
-2.4109669 -0.20566355 -0.82059628 4.055886e-39
-2.4124737 -0.17653324 -0.8076871 3.9644121e-39
-2.4120045 -0.19108546 -0.8090294 3.9636918e-39
-2.4139822 -0.14568299 -0.79559004 4.0562462e-39
-2.4133246 -0.17382239 -0.79367715 4.1480817e-39
-2.4160092 -0.13093361 -0.76626837 4.148439e-39
-2.4153414 -0.15958062 -0.76428843 4.2402703e-39
-2.4171443 -0.11252334 -0.75481337 4.1480845e-39
-2.4168472 -0.12856296 -0.7523188 4.1477229e-39
-2.4165339 -0.14454414 -0.75015128 4.2402759e-39
-2.4183807 -0.10050835 -0.73840356 4.0562462e-39
-2.4180069 -0.11358366 -0.73874617 4.1480817e-39
-2.4177182 -0.12921849 -0.73629659 4.4239469e-39
-2.4195676 -0.083459653 -0.72534776 4.2399172e-39
-2.4192133 -0.098066978 -0.72459286 4.4243084e-39
-2.4203568 -0.083064109 -0.71131808 4.2402773e-39
-2.4200506 -0.097198911 -0.70992362 4.3321142e-39
-2.4218981 -0.055215381 -0.69715786 4.1488005e-39
-2.4215038 -0.067647301 -0.69818729 4.2409962e-39
-2.4226933 -0.049370971 -0.68568432 3.9644121e-39
-2.4224751 -0.063001372 -0.68294728 4.2406374e-39
-2.4220545 -0.080342114 -0.68204725 4.055886e-39
-2.4235039 -0.049363147 -0.6710757 4.240636e-39
-2.4246356 -0.035362579 -0.65752512 4.4246686e-39
-2.4255185 -0.03178414 -0.64336473 4.6086983e-39
-2.4267488 -0.016562846 -0.62863237 4.6083368e-39
-2.4279518 -0.0016025607 -0.61426842 4.6068948e-39
-2.430573 0.054494821 -0.59446144 4.5932195e-39
-2.4298706 0.040637229 -0.60034347 5.157898e-39
-2.4287653 0.0026804085 -0.60169882 4.7898441e-39
-2.4321692 0.083104342 -0.57968754 1.0744756e-38
-2.4314721 0.067195743 -0.58446705 6.4328049e-39
-2.431206 0.061396815 -0.58642739 4.5932195e-39
-2.4300768 0.028873166 -0.59086782 4.0443632e-39
-2.4295998 0.015439602 -0.59289837 3.8610495e-39
-2.4327414 0.096796468 -0.57606715 1.0928783e-38
-2.431879 0.070179842 -0.5785898 1.092843e-38
-2.523087 1.1668789 0.52895963 1.161846e-38
-2.5239129 1.1818928 0.53650051 1.2635126e-38
-2.5254996 1.1983399 0.55705857 1.1619899e-38
-2.525131 1.1854247 0.55673045 1.2818079e-38
-2.5265939 1.2119197 0.57013667 1.032988e-38
-2.5262957 1.2000163 0.5705862 1.0975247e-38
-2.5259986 1.1886418 0.57079428 1.1343308e-38
-2.5256798 1.1796446 0.56945139 1.2174148e-38
-2.5302393 1.2604856 0.61209404 3.3190595e-39
-2.5310297 1.2619983 0.62559819 5.0718597e-39
-2.5325251 1.2926015 0.63758075 3.4119768e-39
-2.5322323 1.2771596 0.63985711 3.1361088e-39
-2.5336967 1.3083991 0.65097409 3.6900056e-39
-2.5333707 1.2911477 0.65353298 2.9513574e-39
-2.5330639 1.277212 0.65482223 3.9655149e-39
-2.5348752 1.323953 0.66460592 2.7684024e-39
-2.534471 1.3061388 0.66603416 2.767685e-39
-2.5342553 1.2922889 0.66891974 2.8598806e-39
-2.535661 1.321381 0.68002832 2.8598792e-39
-2.5352206 1.3086175 0.67832983 2.8598792e-39
-2.5365348 1.3254974 0.69376087 3.2286645e-39
-2.5377293 1.3406299 0.70789063 3.4134159e-39
-2.5390682 1.358055 0.7235074 2.767685e-39
-2.5385451 1.3429592 0.72146201 2.5832923e-39
-2.5404308 1.3868654 0.73396963 2.6754879e-39
-2.5401351 1.371358 0.73622406 2.9520776e-39
-2.5417302 1.3992692 0.7513231 2.6762082e-39
-2.5411701 1.3861072 0.74767035 2.4914568e-39
-2.5425048 1.401131 0.76437628 2.3989011e-39
-2.5437143 1.4182467 0.77780527 2.9524336e-39
-2.5447924 1.4311968 0.79090178 2.5836496e-39
-2.5455248 1.4309747 0.8042118 3.1361074e-39
-2.5464149 1.4371827 0.81722105 2.5829322e-39
-2.5476911 1.4535064 0.83223754 2.9520762e-39
-2.5471408 1.4415925 0.82814831 2.3988983e-39
-2.5487635 1.4673585 0.84479201 2.5832895e-39
-2.5501435 1.4848487 0.8611058 2.1219512e-39
-2.5495329 1.470696 0.85702693 2.3063425e-39
-2.5511088 1.5014017 0.87041628 2.2141469e-39
-2.5509145 1.4874084 0.87375653 2.0301157e-39
-2.5518858 1.4991577 0.88551974 2.1219498e-39
-2.5516577 1.4856486 0.88801295 2.12231e-39
-2.5531204 1.5179844 0.89856046 2.2141441e-39
-2.5527301 1.5044109 0.89816737 2.1219498e-39
-2.5538862 1.5187938 0.91197228 2.1223086e-39
-2.5554228 1.5454478 0.92662686 2.0301129e-39
-2.5548103 1.532831 0.92175812 2.0301115e-39
-2.5563159 1.5496434 0.94067246 2.121947e-39
-2.5575771 1.5639232 0.95642036 1.9375572e-39
-2.5572076 1.5487673 0.95717496 1.9379159e-39
-2.5592415 1.5944773 0.97147846 2.0293927e-39
-2.5586739 1.5790696 0.96877837 2.3063397e-39
-2.5583961 1.5639424 0.97117668 1.9379159e-39
-2.5601859 1.6066937 0.98252523 2.0297514e-39
-2.5599194 1.5940461 0.98390388 2.0297514e-39
-2.5595186 1.5822763 0.98244226 2.3981752e-39
-2.5613756 1.6266136 0.99422479 2.2137839e-39
-2.5610013 1.6105412 0.99534142 2.2141427e-39
-2.5607603 1.5947803 0.9987039 2.1215883e-39
-2.5626342 1.6391684 1.0107685 2.1219456e-39
-2.5621941 1.624965 1.0097824 2.3985339e-39
-2.5634489 1.6412717 1.0244212 1.9379145e-39
-2.5645638 1.6557631 1.0374297 1.9379131e-39
-2.5665007 1.7009085 1.0502596 1.7535246e-39
-2.5653312 1.6590081 1.0496746 2.3070572e-39
-2.5672936 1.7034167 1.0633272 1.9368369e-39
-2.5669208 1.6899096 1.0632138 1.9375544e-39
-2.5665734 1.6745932 1.0644422 1.937553e-39
-2.5689213 1.7168047 1.0861167 1.7531631e-39
-2.5681131 1.7049512 1.0773458 2.0290339e-39
-2.5678122 1.6891214 1.0796655 2.0304703e-39
-2.56968 1.7290585 1.0937978 1.7531631e-39
-2.5693996 1.7165059 1.0948833 1.9375558e-39
-2.5689828 1.7063495 1.0923381 1.9375544e-39
-2.5702398 1.7206388 1.1080059 2.3981766e-39
-2.5694907 1.7062129 1.1015564 1.8457175e-39
-2.5712986 1.7372446 1.1189684 1.8449972e-39
-2.5709252 1.7217165 1.1198362 2.3981752e-39
-2.5724795 1.7495333 1.1342422 2.5829252e-39
-2.572165 1.7366958 1.134853 2.767678e-39
-2.5735886 1.7619389 1.1481618 2.4914484e-39
-2.5748065 1.7800366 1.1612648 2.4910911e-39
-2.5742035 1.7675629 1.1564981 2.3988941e-39
-2.5752969 1.7703748 1.174834 2.3988941e-39
-2.5765202 1.7867421 1.188875 2.4914498e-39
-2.5774035 1.7896543 1.2033724 2.5829252e-39
-2.57919 1.832036 1.2148421 2.3063397e-39
-2.5788059 1.8189439 1.2143234 2.1212268e-39
-2.5784767 1.8039941 1.2156969 2.3052593e-39
-2.5809572 1.8611414 1.2324597 1.8449986e-39
-2.5803776 1.847257 1.2287991 2.213421e-39
-2.5800273 1.8321123 1.2298961 2.2137825e-39
-2.5795467 1.8173695 1.2284486 2.2130637e-39
-2.5811787 1.8460349 1.2438406 2.2141399e-39
-2.599314 2.0785089 1.4570066 8.0195667e-39
-2.5986078 2.0523169 1.4570938 7.6504282e-39
-2.5990272 2.0655932 1.4581599 7.5585913e-39
-2.5984085 2.039638 1.4597025 7.7426238e-39
-2.3929636 -0.40294635 -1.0486045 3.7796579e-39
-2.3939791 -0.38843015 -1.0373998 3.8711375e-39
-2.3938229 -0.39878803 -1.0351489 3.8711347e-39
-2.3948214 -0.38860375 -1.0221366 3.9629715e-39
-2.3958201 -0.38085875 -1.0079173 3.8707759e-39
-2.3971605 -0.35598642 -0.99592394 4.2388354e-39
-2.3968148 -0.37052792 -0.99504459 4.1477173e-39
-2.3980205 -0.35613331 -0.98034924 4.2395556e-39
-2.3976676 -0.37020054 -0.97982997 4.4239469e-39
-2.3991051 -0.34146211 -0.96797985 4.3310352e-39
-2.3989017 -0.35670868 -0.96418458 4.6072606e-39
-2.3984952 -0.36896268 -0.96552187 4.6076179e-39
-2.4003851 -0.32585984 -0.95253766 4.239557e-39
-2.3998318 -0.33960956 -0.95578951 4.3313897e-39
-2.4013033 -0.32182628 -0.93795896 4.3313925e-39
-2.4024389 -0.3082768 -0.92411667 4.4235882e-39
-2.4020474 -0.32294151 -0.9240011 4.4239497e-39
-2.4038947 -0.27752742 -0.91292143 4.2395584e-39
-2.4035573 -0.29234436 -0.91175318 4.3321114e-39
-2.4032223 -0.30725095 -0.91050285 4.3321114e-39
-2.4046786 -0.27835312 -0.89838386 4.3317527e-39
-2.4056091 -0.27438465 -0.88355911 4.2391983e-39
-2.4066651 -0.25717941 -0.87293762 4.4232308e-39
-2.4064538 -0.27067646 -0.87014019 4.4232294e-39
-2.4078853 -0.24317144 -0.85779613 4.2395584e-39
-2.4075255 -0.25577134 -0.85812014 4.3313939e-39
-2.4087148 -0.24269781 -0.8430804 4.2391997e-39
-2.4083629 -0.25629011 -0.84277207 4.4232308e-39
-2.4098167 -0.22363715 -0.83253467 4.1477201e-39
-2.4096189 -0.23852086 -0.82882857 4.2388396e-39
-2.4105818 -0.2256514 -0.81776005 4.1473614e-39
-2.411809 -0.20633663 -0.80509138 4.1470027e-39
-2.4115276 -0.221801 -0.80259621 4.239557e-39
-2.4131889 -0.19235058 -0.78705984 4.1477201e-39
-2.412698 -0.20772293 -0.78838408 4.2399144e-39
-2.4157455 -0.14722237 -0.76305282 4.148439e-39
-2.41502 -0.17498522 -0.76254904 4.3313939e-39
-2.4146543 -0.18947352 -0.76205653 3.9644079e-39
-2.4161856 -0.15896852 -0.74936908 4.3324673e-39
-2.4158001 -0.17343256 -0.74924546 4.4239497e-39
-2.4175811 -0.14429602 -0.73139542 4.3321114e-39
-2.4170356 -0.15789811 -0.7345745 4.3321086e-39
-2.4167347 -0.17473011 -0.73176408 4.3321128e-39
-2.4189253 -0.11471096 -0.72164303 4.2409934e-39
-2.4185917 -0.12998632 -0.72017568 4.4239469e-39
-2.4182668 -0.1449578 -0.71871334 4.3313911e-39
-2.419775 -0.1138964 -0.70672214 4.4246658e-39
-2.4213088 -0.084600851 -0.69340515 4.3321142e-39
-2.4209697 -0.09763734 -0.69313842 4.2399186e-39
-2.4219778 -0.090167858 -0.67862499 4.2399186e-39
-2.4234731 -0.067732185 -0.66264647 4.4246658e-39
-2.4228666 -0.083489209 -0.66586816 4.424307e-39
-2.4244652 -0.051227633 -0.65283722 4.3324687e-39
-2.4242516 -0.064517446 -0.65018296 4.4246644e-39
-2.4235642 -0.080226943 -0.65489012 4.5168614e-39
-2.425247 -0.048311848 -0.64016759 4.7005324e-39
-2.425045 -0.063155271 -0.63655311 4.6086941e-39
-2.4272738 -0.021603487 -0.61670911 4.9738753e-39
-2.4266467 -0.034598731 -0.62164998 4.8834817e-39
-2.4261203 -0.047875769 -0.62464404 4.7920091e-39
-2.4257803 -0.063487791 -0.62313443 4.7909273e-39
-2.42784 -0.015369384 -0.60954857 4.9738753e-39
-2.4301679 0.034807015 -0.59213197 2.9387359e-39
-2.4297628 0.021569749 -0.59295666 5.1445885e-39
-2.4287801 -0.0042683566 -0.59803313 4.9717159e-39
-2.4278004 -0.047224626 -0.5946784 4.9670397e-39
-2.431179 0.050157238 -0.58141416 5.3293356e-39
-2.4298353 0.0096292151 -0.58580917 3.765977e-39
-2.5240576 1.163474 0.5481177 1.0142609e-38
-2.5255167 1.1797981 0.56643254 1.2174148e-38
-2.5248828 1.1659377 0.56179023 8.3930491e-39
-2.5262327 1.1870953 0.57576758 1.2174148e-38
-2.5268576 1.1955777 0.58288616 2.7910642e-40
-2.5306966 1.240847 0.62994373 5.6253964e-39
-2.5304565 1.2280761 0.63186032 6.8243011e-39
-2.5319035 1.2609972 0.64183587 4.7041547e-39
-2.5315008 1.2433887 0.64319289 3.598896e-39
-2.5328081 1.2589288 0.65915203 6.6399056e-39
-2.5322604 1.2456115 0.65579557 8.3912653e-39
-2.5339873 1.2753441 0.67237657 3.5974428e-39
-2.5336401 1.260446 0.67340803 2.6754908e-39
-2.5350344 1.2889856 0.6845814 2.6758467e-39
-2.5348442 1.2750534 0.68796432 2.6758467e-39
-2.5364528 1.3073622 0.70115745 2.7673248e-39
-2.5359452 1.294669 0.69821733 2.7673262e-39
-2.5374298 1.3200728 0.71255279 2.7673248e-39
-2.5371745 1.3071266 0.71428502 2.5836539e-39
-2.5368178 1.2930305 0.71474665 2.6754893e-39
-2.5382965 1.3241484 0.72617799 3.137192e-39
-2.5379708 1.3095194 0.72746539 2.6754893e-39
-2.5400207 1.354131 0.74258995 2.5829308e-39
-2.5395048 1.3390598 0.74066234 3.2286659e-39
-2.5410848 1.3676916 0.75513905 2.6754893e-39
-2.5422945 1.3824019 0.76975 2.5832937e-39
-2.5431154 1.3830985 0.78419936 2.3992598e-39
-2.5461676 1.4176333 0.82232487 2.3066998e-39
-2.5473633 1.4342568 0.83574742 2.3063411e-39
-2.5485153 1.4517601 0.84794796 2.2145084e-39
-2.5482292 1.4355946 0.85070103 2.4910967e-39
-2.5494242 1.4507802 0.86480999 2.214507e-39
-2.5505433 1.4658496 0.87761188 2.0304731e-39
-2.5514164 1.4683268 0.89213681 2.0301143e-39
-2.5525219 1.4855288 0.90364707 2.1219498e-39
-2.5522859 1.4729052 0.90556556 2.0301129e-39
-2.5536847 1.5016546 0.91672045 2.4910953e-39
-2.5534015 1.4851454 0.91968906 2.1219498e-39
-2.5554106 1.5286537 0.93462276 1.9379145e-39
-2.5550253 1.515359 0.9341799 1.9379159e-39
-2.5545542 1.5016733 0.93238449 2.3985395e-39
-2.5542374 1.4857506 0.93446457 1.9379173e-39
-2.5562193 1.531261 0.94792622 2.0297528e-39
-2.5570323 1.5359855 0.96026647 1.9379159e-39
-2.5581195 1.5470669 0.97444713 1.9379159e-39
-2.5592792 1.5626559 0.98772371 1.9379159e-39
-2.5589764 1.5470258 0.98990983 1.9379159e-39
-2.5605774 1.57897 1.0031401 2.3981766e-39
-2.5600917 1.5649283 1.0012583 2.0297514e-39
-2.5620825 1.6071819 1.0164703 2.2145028e-39
-2.5616863 1.5954552 1.0150595 2.5825692e-39
-2.5613477 1.5776047 1.0176901 2.6751222e-39
-2.5631912 1.6231514 1.0286403 2.0304717e-39
-2.5629163 1.6060067 1.0320787 2.7676794e-39
-2.5643356 1.6399548 1.0410513 1.9379145e-39
-2.5640383 1.6244333 1.0432835 1.9379145e-39
-2.5637197 1.6081433 1.0455091 2.768757e-39
-2.5651605 1.6397368 1.0560282 1.9379145e-39
-2.5648696 1.6247457 1.0581168 1.9382746e-39
-2.5663962 1.6549196 1.0708774 1.8464377e-39
-2.5660679 1.6395605 1.0724705 1.9389935e-39
-2.5675919 1.6696043 1.0852404 2.0308304e-39
-2.5688109 1.6855077 1.099439 2.1223058e-39
-2.5707095 1.7152102 1.1191235 2.6744075e-39
-2.5698953 1.7015108 1.1111531 2.3985353e-39
-2.5713129 1.7227963 1.1262926 2.6744075e-39
-2.5707681 1.7022702 1.1265149 2.952072e-39
-2.5722866 1.7316513 1.1395118 3.043546e-39
-2.5742576 1.7612587 1.1605529 2.3996115e-39
-2.5735497 1.7467802 1.154881 2.6754809e-39
-2.5747917 1.7634747 1.1691035 2.4914484e-39
-2.575388 1.7637984 1.1796887 2.3992514e-39
-2.5762439 1.7663792 1.1938567 2.3070558e-39
-2.5771098 1.7694312 1.207969 2.3059768e-39
-2.5782719 1.7841133 1.2217351 2.4903708e-39
-2.5794458 1.7998532 1.2351989 2.3985353e-39
-2.5813477 1.8370378 1.2512904 2.2137825e-39
-2.5807648 1.8274825 1.2454565 2.1226645e-39
-2.5804849 1.8137348 1.247134 2.3063383e-39
-2.5803287 1.7990001 1.2515299 2.4910855e-39
-2.5830073 1.8692673 1.2654349 2.1212226e-39
-2.5820682 1.8425453 1.2615781 2.305618e-39
-2.581893 1.827585 1.2657403 2.3063341e-39
-2.5983846 2.0449982 1.4566541 8.3879876e-39
-2.5981557 2.0309 1.4594184 7.6511457e-39
-2.3948038 -0.40205994 -1.0158721 3.8711333e-39
-2.3957934 -0.39282647 -1.0025461 3.9629715e-39
-2.3965423 -0.39129084 -0.98979557 4.2391983e-39
-2.3974242 -0.38824269 -0.97539157 4.3317513e-39
-2.3981099 -0.38846165 -0.96292627 4.4239441e-39
-2.3998764 -0.35751837 -0.94622004 4.6076165e-39
-2.3992925 -0.37171179 -0.94980299 4.6998107e-39
-2.3991029 -0.38247263 -0.94795817 4.7001666e-39
-2.4008901 -0.33926743 -0.93687886 4.6998121e-39
-2.4005985 -0.35519466 -0.9343406 4.6998093e-39
-2.4017339 -0.33863172 -0.92198282 4.6076165e-39
-2.4014189 -0.3524749 -0.92088473 4.7005268e-39
-2.4028866 -0.32213712 -0.90926951 4.5157852e-39
-2.4026246 -0.33835441 -0.90605897 4.7001708e-39
-2.404443 -0.29327348 -0.89533162 4.4235896e-39
-2.404108 -0.30816865 -0.8940897 4.4239469e-39
-2.4037549 -0.32154879 -0.89390618 4.6083354e-39
-2.4034326 -0.33779439 -0.89176649 4.9756773e-39
-2.4053319 -0.2939575 -0.87897921 4.4232294e-39
-2.4050736 -0.30619785 -0.8776471 4.4235854e-39
-2.4046357 -0.31839201 -0.87957531 4.699452e-39
-2.4062243 -0.2898933 -0.86488181 4.423228e-39
-2.405798 -0.30699751 -0.86419928 4.7912917e-39
-2.4074337 -0.27556962 -0.85008317 4.3317527e-39
-2.407011 -0.28738758 -0.85192883 4.5154209e-39
-2.4081938 -0.27344981 -0.83742005 4.4235882e-39
-2.4092875 -0.25848943 -0.82503039 4.2391983e-39
-2.410481 -0.24374522 -0.81073153 4.3310338e-39
-2.4114878 -0.23428234 -0.79720962 4.1473614e-39
-2.4124026 -0.22670215 -0.78442711 4.2399144e-39
-2.4144104 -0.20703152 -0.75786191 4.0566021e-39
-2.4142478 -0.21553266 -0.7566334 4.3328303e-39
-2.4155223 -0.19570781 -0.74336046 4.2399144e-39
-2.4150195 -0.20698342 -0.74690419 4.0562406e-39
-2.4164481 -0.19109648 -0.72892326 4.3313925e-39
-2.4180067 -0.1633808 -0.71438932 4.33211e-39
-2.4174626 -0.17679176 -0.71763539 4.4239483e-39
-2.4173121 -0.19153535 -0.71313971 4.3321142e-39
-2.419493 -0.13118218 -0.70334494 4.4239469e-39
-2.4191988 -0.14801259 -0.70041758 4.4239483e-39
-2.4188759 -0.16293712 -0.69894242 4.6076207e-39
-2.4185014 -0.17638506 -0.69911385 4.5157852e-39
-2.421078 -0.10462855 -0.68776828 4.4246672e-39
-2.4205921 -0.12011961 -0.68895024 4.4246658e-39
-2.4201958 -0.13324253 -0.68967247 4.4246672e-39
-2.421936 -0.10323773 -0.67298335 4.3324715e-39
-2.4212043 -0.13079561 -0.67268848 4.4239469e-39
-2.4227669 -0.10033202 -0.65943027 4.4243084e-39
-2.4224131 -0.1163592 -0.65796524 4.4246672e-39
-2.423897 -0.086372554 -0.64588594 4.607978e-39
-2.4235651 -0.099833027 -0.64528322 4.6079794e-39
-2.4231915 -0.11331049 -0.64542574 4.7920091e-39
-2.4248397 -0.082016379 -0.63102567 4.700531e-39
-2.4257786 -0.072616793 -0.61870283 4.6998093e-39
-2.4284003 -0.01285609 -0.60067755 2.1125765e-39
-2.4278309 -0.02770135 -0.60367984 4.8770007e-39
-2.4274194 -0.040959161 -0.60461408 5.1553855e-39
-2.4270546 -0.053357981 -0.60511911 5.0642716e-39
-2.4297514 0.013062796 -0.58900058 5.7863565e-39
-2.429285 0.0019769731 -0.59198934 4.6843306e-39
-2.4282401 -0.039716683 -0.59042692 4.6875718e-39
-2.5298944 1.1942716 0.63826412 3.6892825e-39
-2.5313292 1.2276543 0.64778936 3.0450047e-39
-2.5307946 1.2108181 0.64639604 5.0736701e-39
-2.530694 1.196529 0.65157664 4.0587951e-39
-2.532129 1.2298976 0.66111523 7.1016041e-39
-2.5318682 1.2136754 0.66434848 5.9956166e-39
-2.5314987 1.198626 0.66504592 4.2439039e-39
-2.5334899 1.2443295 0.67858535 2.8598806e-39
-2.5329661 1.2315509 0.67539245 2.7680479e-39
-2.5326631 1.2146894 0.67818028 3.0449907e-39
-2.5344951 1.2606581 0.6887179 3.4130544e-39
-2.5342598 1.2472649 0.69102758 3.2286645e-39
-2.5338516 1.2298694 0.69217694 3.5974513e-39
-2.5356669 1.2764583 0.7021094 2.6754893e-39
-2.5353348 1.2620054 0.70319819 3.3212245e-39
-2.5364797 1.2763449 0.71681607 2.5836539e-39
-2.5377128 1.2921324 0.73131996 2.4914582e-39
-2.539243 1.321604 0.74448496 3.2286659e-39
-2.538902 1.3057866 0.74607557 2.582935e-39
-2.5406361 1.3366708 0.76222187 3.0446376e-39
-2.54005 1.3222122 0.7587359 2.399264e-39
-2.5413463 1.3347822 0.77595359 2.491461e-39
-2.542778 1.3682709 0.78537518 2.2152287e-39
-2.542469 1.3531638 0.78719485 2.3989011e-39
-2.5439641 1.3835392 0.79928589 2.3985395e-39
-2.5435674 1.3687327 0.79938102 2.3988983e-39
-2.5451589 1.3984867 0.8135097 2.8602407e-39
-2.544827 1.3835031 0.81485373 2.3063439e-39
