# .PCD v0.7 - Point Cloud Data file format
VERSION 0.7
FIELDS x y z rgb
SIZE 4 4 4 4
TYPE F F F F
COUNT 1 1 1 1
WIDTH 1019
HEIGHT 1
VIEWPOINT 0 0 0 1 0 0 0
POINTS 1019
DATA ascii
-2.527528 0.13909692 1.0808986 1.8453685e-39
-2.5272136 0.12573032 1.0818107 3.4108866e-39
-2.5267775 0.11130579 1.0810642 3.1346598e-39
-2.526083 0.098251298 1.0750085 2.95027e-39
-2.5294416 0.17954801 1.0953879 1.7513807e-39
-2.529207 0.1674182 1.0971246 1.7517394e-39
-2.5289094 0.16002977 1.0954152 1.8446511e-39
-2.5283508 0.13996464 1.0952301 2.3971018e-39
-2.5280075 0.12594979 1.0959469 2.95027e-39
-2.5304921 0.18360282 1.1122406 1.5677097e-39
-2.5294883 0.15527724 1.1081282 1.9361264e-39
-2.531148 0.18444845 1.1235961 1.7520981e-39
-2.5302598 0.15783761 1.120712 1.8442909e-39
-2.5315297 0.17365634 1.1357359 1.8446483e-39
-2.5324564 0.17715243 1.1506411 1.7528128e-39
-2.5320311 0.15987857 1.1514846 1.7528114e-39
-2.535022 0.24327941 1.164243 1.6595438e-39
-2.5345719 0.23046848 1.1624461 1.4755126e-39
-2.5341802 0.21729627 1.1618785 1.2914801e-39
-2.5337806 0.20439968 1.1610366 1.6598997e-39
-2.5336368 0.19081523 1.1651213 1.5687803e-39
-2.5332007 0.17599803 1.1645632 1.7524526e-39
-2.5328379 0.16202193 1.1649057 1.843928e-39
-2.5359652 0.24578239 1.1799338 1.5677055e-39
-2.5343616 0.19244421 1.1773224 1.5687803e-39
-2.5369532 0.25899306 1.1911755 1.6598997e-39
-2.5365613 0.2441261 1.1914324 1.7520911e-39
-2.5362575 0.2333097 1.1912911 1.5677027e-39
-2.5385747 0.29240286 1.2038797 1.7520981e-39
-2.5381949 0.27904457 1.203618 1.751738e-39
-2.5378184 0.2642152 1.2041346 1.6598997e-39
-2.5363522 0.21018942 1.2043281 1.7520925e-39
-2.5398431 0.29319572 1.2262454 1.5677055e-39
-2.539016 0.28066272 1.2175525 1.3833156e-39
-2.5387082 0.2661992 1.2191218 1.5673467e-39
-2.5375016 0.22530952 1.2175341 1.6595382e-39
-2.5371485 0.21272337 1.2173672 1.6598969e-39
-2.5400944 0.28886992 1.2328731 1.8446483e-39
-2.5398159 0.28305775 1.2307276 1.8446483e-39
-2.5393803 0.26440638 1.2320561 1.1078077e-39
-2.5387061 0.24142736 1.2312325 1.5677041e-39
-2.5383973 0.22593039 1.2332926 1.8442881e-39
-2.5418653 0.32302237 1.2478952 1.5680656e-39
-2.540885 0.29052439 1.2462438 1.8446483e-39
-2.5406327 0.28483891 1.2445027 1.8446483e-39
-2.5404146 0.27047336 1.247636 1.5680614e-39
-2.5399187 0.25700489 1.2453433 1.7520911e-39
-2.5395703 0.24396394 1.2454944 1.3836729e-39
-2.539073 0.22946486 1.2436798 1.5669852e-39
-2.5430808 0.33741906 1.2626384 1.5680656e-39
-2.5415351 0.28527397 1.2604766 1.6602542e-39
-2.3390372 -2.1098199 -1.1975031 6.0820277e-39
-2.3386099 -2.1288681 -1.1958276 4.236676e-39
-2.3378687 -2.1400039 -1.2036567 2.2076532e-39
-2.3374891 -2.1531661 -1.2040153 4.1434027e-39
-2.3370509 -2.1664867 -1.2053475 5.43378e-39
-2.3368721 -2.179106 -1.2023652 9.5815002e-39
-2.3365829 -2.1915944 -1.2014304 9.5822204e-39
-2.3361576 -2.204509 -1.202723 1.151905e-38
-2.3399506 -2.1030023 -1.1844636 5.3441067e-39
-2.3412349 -2.0797865 -1.1728005 3.8696941e-39
-2.3409193 -2.0954678 -1.1707801 3.6856644e-39
-2.342104 -2.0799892 -1.1571157 3.5012731e-39
-2.3433061 -2.0644331 -1.1431789 4.1455677e-39
-2.3500009 -1.9837019 -1.0626791 7.464602e-39
-2.3496194 -1.9983555 -1.0623354 3.9622527e-39
-2.3508694 -1.9836671 -1.0471126 5.9894747e-39
-2.3519471 -1.9697976 -1.0345838 7.6479129e-39
-2.3517373 -1.9839395 -1.0314144 9.3985494e-39
-2.3551753 -1.9329586 -0.99474221 1.3546979e-38
-2.3548701 -1.9486651 -0.99251145 8.6616963e-39
-2.3559737 -1.9330506 -0.98036885 1.2440986e-38
-2.3571763 -1.9189495 -0.96571457 1.3823557e-38
-2.3580449 -1.9156232 -0.95176476 1.244027e-38
-2.3599529 -1.8721266 -0.93886381 1.4558963e-38
-2.3591835 -1.8992081 -0.93938893 1.4099781e-38
-2.3607564 -1.8698502 -0.92557299 1.8340433e-38
-2.3604009 -1.8836612 -0.92517406 1.216513e-38
-2.3619332 -1.8540007 -0.91223037 1.548273e-38
-2.3616047 -1.8693615 -0.91059017 1.0320499e-38
-2.3612914 -1.8850508 -0.90851742 7.8322999e-39
-2.3637264 -1.8225899 -0.89547312 6.2620847e-39
-2.3631752 -1.8409917 -0.89633268 8.383673e-39
-2.3627791 -1.8543477 -0.8968901 5.7114445e-39
-2.3640761 -1.8264803 -0.88728887 7.0936545e-39
-2.3640752 -1.8418239 -0.87978178 5.4352178e-39
-2.3699222 -1.7379465 -0.82583636 5.8951211e-39
-2.3709824 -1.7266035 -0.81237465 5.8954784e-39
-2.3702977 -1.7492883 -0.81353903 5.2515426e-39
-2.3718128 -1.7222903 -0.79959738 5.8954798e-39
-2.3710387 -1.747728 -0.80101383 5.8036415e-39
-2.3731005 -1.7060376 -0.78446782 5.80328e-39
-2.3727036 -1.718737 -0.78536081 5.8951183e-39
-2.3745983 -1.673753 -0.77343047 5.8954756e-39
-2.3739548 -1.7047458 -0.7697736 6.0795082e-39
-2.3736486 -1.7125984 -0.77141863 5.8951183e-39
-2.3732483 -1.7275466 -0.77126765 5.0675142e-39
-2.3753612 -1.6753954 -0.75893837 5.895477e-39
-2.37517 -1.6902944 -0.75506437 5.8958372e-39
-2.376354 -1.6746991 -0.74147356 5.8032814e-39
-2.3759806 -1.6882944 -0.74150324 5.8951183e-39
-2.3759992 -1.7118045 -0.72964442 6.0791494e-39
-2.378937 -1.6300676 -0.71702081 5.7114417e-39
-2.3787131 -1.64319 -0.71460277 5.8032772e-39
-2.3801689 -1.6102591 -0.7046383 5.6192475e-39
-2.4874821 -0.35026824 0.60251361 8.7484857e-39
-2.4870708 -0.36454648 0.60213411 8.4708296e-39
-2.4867311 -0.3791925 0.60322255 9.391337e-39
-2.4884002 -0.33767498 0.61280602 6.258489e-39
-2.4874935 -0.37765875 0.61615181 5.7078404e-39
-2.4884074 -0.37396631 0.63072807 5.2519055e-39
-2.4880998 -0.38974527 0.63295573 4.6998149e-39
-2.4895885 -0.35805953 0.64412129 3.132862e-39
-2.4892528 -0.37299901 0.6454215 3.0406719e-39
-2.4908013 -0.34337163 0.65867263 2.8573639e-39
-2.4920425 -0.3284407 0.67361349 2.7658871e-39
-2.4916782 -0.34392872 0.67467606 2.9502798e-39
-2.4928939 -0.32407048 0.68674326 2.6740502e-39
-2.4944794 -0.29607844 0.70145798 2.6736873e-39
-2.4939747 -0.30956265 0.69901574 2.7655242e-39
-2.495513 -0.28277496 0.71347779 2.7655242e-39
-2.494828 -0.30967909 0.7143839 2.4900163e-39
-2.4963505 -0.27970964 0.72699612 2.6736873e-39
-2.4975643 -0.26567912 0.74189007 2.5814931e-39
-2.4971986 -0.27857721 0.74165255 2.7655228e-39
-2.498462 -0.26167032 0.75602436 2.4896576e-39
-2.4994974 -0.24718596 0.76749837 2.5818504e-39
-2.5003726 -0.2446837 0.78197193 2.3981794e-39
-2.5013552 -0.2359688 0.7953214 2.3063425e-39
-2.5026906 -0.2121878 0.80761456 2.4896548e-39
-2.502327 -0.22615573 0.80794048 2.3978193e-39
-2.5035138 -0.21155922 0.82207543 2.3974605e-39
-2.5050514 -0.18073952 0.8345446 2.4896576e-39
-2.5047157 -0.19558983 0.83580077 2.3978207e-39
-2.5044158 -0.21201272 0.8384757 2.3978193e-39
-2.5064061 -0.16686939 0.85204428 2.3974619e-39
-2.5059242 -0.1805664 0.850115 2.3978193e-39
-2.507338 -0.15817119 0.86449707 2.3978207e-39
-2.5086927 -0.13681747 0.87832671 2.3974605e-39
-2.508141 -0.15182954 0.87579232 2.3981794e-39
-2.5098846 -0.12262801 0.89274448 2.2137895e-39
-2.5095682 -0.13763477 0.89443195 2.3978207e-39
-2.5121655 -0.064715728 0.90526587 2.1215939e-39
-2.5119236 -0.079376847 0.90811533 1.5687747e-39
-2.5113461 -0.094635569 0.90523833 2.0294011e-39
-2.5109344 -0.10818371 0.90449679 2.0294025e-39
-2.5125692 -0.079093121 0.91955745 1.5687747e-39
-2.5123398 -0.093958661 0.92272848 1.8453671e-39
-2.5119538 -0.10709883 0.92225367 1.8453699e-39
-2.5134735 -0.076344311 0.93443 1.476579e-39
-2.5146756 -0.060760181 0.9483521 2.4896534e-39
-2.5165572 -0.031020524 0.96751982 2.8573569e-39
-2.5158453 -0.04613306 0.96215838 3.0417495e-39
-2.517189 -0.024168395 0.97549629 2.8573569e-39
-2.51809 -0.0187336 0.98899329 2.7655214e-39
-2.5189428 -0.013206135 1.0015788 2.8577142e-39
-2.5205989 0.0041705733 1.0227661 2.6740474e-39
-2.5197649 -0.010287175 1.0148944 2.7651612e-39
-2.5213912 0.019503836 1.0294535 2.7662458e-39
-2.5204589 -0.009283293 1.0268519 2.7655228e-39
-2.5232844 0.063095033 1.042046 2.9499112e-39
-2.5221641 0.02009071 1.0430349 2.8577184e-39
-2.5245168 0.076911055 1.0573763 2.8584373e-39
-2.5238681 0.049983382 1.0589426 2.9499112e-39
-2.5234156 0.0375241 1.0569345 3.1343039e-39
-2.5230799 0.020458711 1.0592816 3.1335864e-39
-2.5252824 0.080570512 1.0693153 2.5825692e-39
-2.5251083 0.065916277 1.0733763 2.8580757e-39
-2.5247259 0.053149581 1.0727814 2.7655228e-39
-2.5242162 0.037810743 1.0711553 3.2254205e-39
-2.5264702 0.096034862 1.0830343 2.9499112e-39
-2.5261917 0.079655319 1.0860798 2.76552e-39
-2.5281873 0.11933278 1.102415 2.2127119e-39
-2.5277665 0.10866598 1.1000978 3.0421055e-39
-2.5272434 0.093052842 1.0983694 2.9499084e-39
-2.5293171 0.13691588 1.1140629 1.5677055e-39
-2.5289009 0.12631817 1.1117911 3.3183308e-39
-2.5286112 0.1082361 1.115459 3.0421055e-39
-2.5280578 0.096331917 1.1113714 2.8577128e-39
-2.5309982 0.16695949 1.1294851 1.7520953e-39
-2.5306277 0.15322658 1.1295712 1.6598997e-39
-2.5300899 0.13837898 1.1272044 2.1208722e-39
-2.5321031 0.18038492 1.1427209 1.5684243e-39
-2.5315011 0.15566491 1.1440405 1.6602556e-39
-2.5307617 0.14026928 1.1383281 1.7524512e-39
-2.5318446 0.14471202 1.1555777 1.4765846e-39
-2.5333822 0.16931817 1.1710926 1.4755098e-39
-2.5325429 0.14563031 1.1676567 1.9361222e-39
-2.535583 0.22949688 1.181061 1.47587e-39
-2.5353985 0.21456029 1.1850796 1.4755084e-39
-2.5348074 0.20337707 1.1799546 1.6609759e-39
-2.5340648 0.17435665 1.1808611 1.6602556e-39
-2.5336862 0.15970001 1.1812595 2.3045432e-39
-2.5367248 0.24083957 1.1959795 1.4758672e-39
-2.5363719 0.22892396 1.1954975 1.3833128e-39
-2.535929 0.21087959 1.1963941 1.659541e-39
-2.5355728 0.20027715 1.1952058 1.6598983e-39
-2.5351834 0.18793795 1.1942724 1.660257e-39
-2.5375993 0.24629587 1.2089915 1.4758686e-39
-2.5373716 0.23258163 1.2116344 1.4755084e-39
-2.5366137 0.20652944 1.2108147 1.5677027e-39
-2.536164 0.19234158 1.2096997 1.7520925e-39
-2.5384216 0.24687921 1.2234572 1.3840331e-39
-2.5373046 0.20602132 1.2234552 1.4755056e-39
-2.5400207 0.27510241 1.2383 1.4751511e-39
-2.5396149 0.26186976 1.237517 1.2914787e-39
-2.5385399 0.22347368 1.2370572 1.6595396e-39
-2.5381191 0.20912977 1.236544 1.5673425e-39
-2.5412149 0.29068515 1.2520849 1.4755098e-39
-2.5409274 0.27760032 1.2533448 1.5677027e-39
-2.5389841 0.20883012 1.2522051 1.6598969e-39
-2.5421178 0.29452682 1.2663957 1.4751497e-39
-2.541018 0.26720449 1.2600622 1.6598955e-39
-2.5407014 0.2542446 1.2607386 1.6598969e-39
-2.5405502 0.24009737 1.2649642 1.9357635e-39
-2.5401154 0.22645821 1.2638503 1.4758658e-39
-2.5434799 0.31969219 1.278488 1.4758658e-39
-2.5424733 0.28239575 1.2787212 1.3836701e-39
-2.5419986 0.27089989 1.2758411 1.5684173e-39
-2.5417738 0.2561948 1.2790207 1.475863e-39
-2.5414746 0.24827787 1.2775362 1.7517296e-39
-2.5443742 0.32464164 1.2921015 1.3840331e-39
-2.5441365 0.31153384 1.2942678 1.3833128e-39
-2.5432785 0.2852385 1.2917709 1.3840275e-39
-2.5428624 0.27239698 1.2906009 1.3843862e-39
-2.5451245 0.32493928 1.3054144 1.3833128e-39
-2.5448694 0.31091607 1.3077152 1.4747882e-39
-2.5438151 0.2853421 1.3013488 1.2914703e-39
-2.3378954 -2.1463795 -1.2000554 4.4217903e-39
-2.337136 -2.1594536 -1.2072673 4.6958534e-39
-2.3366089 -2.1726265 -1.2102642 3.2207234e-39
-2.3362582 -2.1882708 -1.2088838 7.5539166e-39
-2.3362231 -2.1994426 -1.2040317 2.669709e-39
-2.3359504 -2.212316 -1.2026145 3.5909422e-39
-2.3344529 -2.2527711 -1.2096425 6.2638952e-39
-2.3383744 -2.147512 -1.1909083 3.5920268e-39
-2.3357444 -2.2250087 -1.200084 5.6199677e-39
-2.3354378 -2.2379739 -1.19923 6.6326791e-39
-2.3397992 -2.1182647 -1.1796921 3.5005515e-39
-2.3406126 -2.1142704 -1.1670557 3.5941904e-39
-2.3494246 -2.0170858 -1.0566422 3.96261e-39
-2.3489013 -2.0328379 -1.0583084 4.1466397e-39
-2.3487535 -2.0471368 -1.0539482 4.5154223e-39
-2.3505294 -2.0049946 -1.0427506 3.7778558e-39
-2.3503056 -2.0177686 -1.0405011 4.3306695e-39
-2.3514214 -2.0010147 -1.0287075 4.7909287e-39
-2.3546712 -1.967679 -0.98675501 8.1088826e-39
-2.3558676 -1.9529335 -0.97252434 9.3992599e-39
-2.3569422 -1.9343224 -0.96237665 1.1701984e-38
-2.3568125 -1.9438484 -0.96002811 1.0320857e-38
-2.35778 -1.9342642 -0.94737488 9.8609597e-39
-2.3593853 -1.9061491 -0.93236834 7.9255718e-39
-2.3586175 -1.9204906 -0.93909973 5.6214041e-39
-2.360404 -1.8971219 -0.91852123 8.0174115e-39
-2.3615384 -1.8898633 -0.90172714 5.8969176e-39
-2.362581 -1.8733469 -0.89112216 6.7245118e-39
-2.3644266 -1.8341311 -0.87724906 5.8036401e-39
-2.3637781 -1.858022 -0.87716579 4.9753214e-39
-2.3653283 -1.830847 -0.86268771 5.2511866e-39
-2.3649774 -1.8437499 -0.86265033 4.97532e-39
-2.3646462 -1.8583406 -0.86143976 4.791649e-39
-2.3703938 -1.7583576 -0.80736303 5.9880314e-39
-2.3716056 -1.7366221 -0.79628527 5.9876741e-39
-2.3712425 -1.7547144 -0.7939257 5.4359366e-39
-2.3724947 -1.7373 -0.78000122 5.8032814e-39
-2.3719389 -1.7512301 -0.78314269 5.4355751e-39
-2.3740191 -1.7211127 -0.76059669 5.8954784e-39
-2.3728981 -1.7484633 -0.76729745 5.8036387e-39
-2.3747828 -1.7079408 -0.75335872 5.895477e-39
-2.3745611 -1.7225587 -0.75016439 6.0795082e-39
-2.3740795 -1.733175 -0.75359678 5.2515454e-39
-2.3756478 -1.7042876 -0.73963326 5.9876727e-39
-2.3753703 -1.7205038 -0.73665696 5.9873111e-39
-2.377291 -1.6758494 -0.72410202 5.8032786e-39
-2.3769357 -1.6897103 -0.72367609 5.8951183e-39
-2.3764319 -1.706641 -0.72440988 5.9869538e-39
-2.3760517 -1.7156222 -0.72682941 6.079148e-39
-2.3758578 -1.7237511 -0.72631413 5.6192475e-39
-2.3783844 -1.6584184 -0.71303636 5.8032772e-39
-2.3780739 -1.6735448 -0.71118408 5.8951141e-39
-2.3777139 -1.688418 -0.71035004 5.7114459e-39
-2.3791945 -1.659288 -0.6980716 5.894754e-39
-2.3789315 -1.674064 -0.69554573 5.9873055e-39
-2.3785503 -1.6873657 -0.69586271 5.8951141e-39
-2.3800938 -1.6557672 -0.68367034 5.8951113e-39
-2.4869664 -0.37226784 0.60405272 9.9448695e-39
-2.4866364 -0.38529536 0.60452384 8.1031219e-39
-2.4864693 -0.39661145 0.60706973 1.1600782e-38
-2.486146 -0.41057023 0.60811585 1.151075e-38
-2.4857526 -0.42424282 0.60776073 9.0243537e-39
-2.4873223 -0.39295554 0.62057757 5.1564673e-39
-2.4869623 -0.40704554 0.62103134 5.5270462e-39
-2.4866114 -0.42169395 0.62191767 4.8834817e-39
-2.4878552 -0.40679452 0.63692725 3.9626212e-39
-2.489069 -0.39125893 0.65107977 3.1335878e-39
-2.4886708 -0.40625936 0.65129507 3.2261464e-39
-2.4905238 -0.36060673 0.66214347 2.8570065e-39
-2.4901445 -0.37398168 0.66189826 2.4892974e-39
-2.4898934 -0.38783264 0.66418618 2.7658857e-39
-2.491303 -0.35745105 0.67457491 1.7524541e-39
-2.4910524 -0.37291303 0.67766327 2.3974605e-39
-2.4905071 -0.3884826 0.6755141 3.780395e-39
-2.4925961 -0.34508356 0.69170958 2.6744103e-39
-2.4920499 -0.35961789 0.68903488 2.8584415e-39
-2.491029 -0.38556638 0.68344855 2.1212366e-39
-2.4937441 -0.32942715 0.70462245 2.5822147e-39
-2.4934125 -0.34408379 0.70585996 2.3974647e-39
-2.4930711 -0.3588571 0.7069816 2.4900177e-39
-2.4952657 -0.29845279 0.71672952 2.6740474e-39
-2.49457 -0.32766548 0.71857548 2.5814931e-39
-2.4960935 -0.29708061 0.73090416 2.5814945e-39
-2.4958608 -0.3110086 0.733558 2.3978235e-39
-2.4954469 -0.32447287 0.73273861 2.6733285e-39
-2.4968753 -0.29647642 0.74463069 2.4896576e-39
-2.4983439 -0.27442282 0.76016277 2.5814931e-39
-2.4980378 -0.28257984 0.75867039 2.4892974e-39
-2.4992523 -0.26596618 0.77231157 2.4900163e-39
-2.5002153 -0.26330674 0.78828162 2.3974591e-39
-2.5012696 -0.2488873 0.80012745 2.4900149e-39
-2.5021687 -0.24630123 0.8149823 2.3974591e-39
-2.5033939 -0.23099606 0.82945728 2.3978193e-39
-2.5042419 -0.22757246 0.84299046 2.3974591e-39
-2.505666 -0.2009927 0.85550189 2.3056236e-39
-2.5054102 -0.21362482 0.85710168 2.3056236e-39
-2.5072577 -0.17092992 0.86930722 2.3059824e-39
-2.5069542 -0.18451187 0.87052864 2.3056222e-39
-2.5064874 -0.19857314 0.86904913 2.2137867e-39
-2.5061688 -0.21286178 0.87033784 2.3971018e-39
-2.5080173 -0.16705014 0.88103086 2.3978193e-39
-2.5078216 -0.18117331 0.88444924 2.3056222e-39
-2.5073779 -0.19819207 0.88483369 2.3059838e-39
-2.509418 -0.15250066 0.89902598 2.0293997e-39
-2.5088689 -0.16644526 0.89601183 2.3056236e-39
-2.510848 -0.12564519 0.91150808 1.9375642e-39
-2.510452 -0.13922183 0.91106528 1.8453699e-39
-2.5124195 -0.10932749 0.93169588 2.0290409e-39
-2.5117221 -0.12194531 0.92537403 1.9372026e-39
-2.5132682 -0.096217118 0.94049448 2.2130707e-39
-2.5128925 -0.10980694 0.94041705 2.0293997e-39
-2.5144043 -0.079216033 0.95253396 1.9364754e-39
-2.5155985 -0.064092457 0.96653819 2.6744047e-39
-2.5173626 -0.03422774 0.98354024 2.8573569e-39
-2.5168059 -0.048918728 0.98075479 2.6729698e-39
-2.5180631 -0.033326227 0.99566299 2.8573583e-39
-2.5188711 -0.031115368 1.0090766 2.7655228e-39
-2.5196912 -0.028179038 1.0223479 2.6733271e-39
-2.5211399 0.00085715565 1.0340905 2.5818518e-39
-2.5206385 -0.019316463 1.0349925 2.8573583e-39
-2.521909 0.000360771 1.0481341 2.7648025e-39
-2.5212283 -0.012712598 1.0423374 2.7648025e-39
-2.5227935 0.0030109526 1.0627003 2.7651612e-39
-2.525187 0.056741193 1.0792892 1.9368467e-39
-2.5249419 0.044785548 1.0807567 2.3045488e-39
-2.5245712 0.031638384 1.0805516 2.2127133e-39
-2.5239654 0.019168142 1.0757979 3.0413894e-39
-2.5259449 0.060338978 1.09112 2.6736845e-39
-2.5280452 0.1072399 1.1057965 2.9499112e-39
-2.527586 0.086798869 1.1075784 2.0268843e-39
-2.5271213 0.076021776 1.1045284 2.7655172e-39
-2.5287905 0.10495258 1.1202906 2.4889359e-39
-2.5282674 0.087933287 1.1192499 2.3967403e-39
-2.530992 0.14716268 1.1390783 1.6602542e-39
-2.5298908 0.12119316 1.1320596 2.7658787e-39
-2.5296409 0.10729741 1.1343929 2.397099e-39
-2.5291355 0.093717679 1.1319816 2.6729642e-39
-2.530797 0.13449968 1.1417909 1.8446469e-39
-2.5306659 0.12248585 1.1453304 3.134657e-39
-2.5303748 0.10699483 1.1477046 2.581849e-39
-2.5317481 0.12662347 1.1627142 2.397099e-39
-2.5337064 0.17843321 1.172437 1.3836729e-39
-2.5334837 0.16459395 1.1752317 1.5677027e-39
-2.5330772 0.14065936 1.1796741 1.6595368e-39
-2.5323305 0.12559451 1.1736661 2.1205121e-39
-2.5339663 0.15231645 1.1899087 1.3825925e-39
-2.5336881 0.14796259 1.1870496 1.6595368e-39
-2.53618 0.21202376 1.2003379 1.3829555e-39
-2.5362475 0.19776936 1.2085396 1.4751497e-39
-2.535089 0.17016771 1.2012947 1.5677041e-39
-2.534735 0.15664729 1.2015734 1.5673439e-39
-2.5369744 0.21122697 1.214981 1.3829541e-39
-2.5364249 0.19085392 1.2151129 1.7520925e-39
-2.5358222 0.17078386 1.2141412 1.4751497e-39
-2.5381708 0.2297606 1.2273517 1.2911186e-39
-2.5378017 0.21463466 1.2281476 1.2911172e-39
-2.5371008 0.19072571 1.2272998 1.6595382e-39
-2.5365887 0.17667873 1.2250037 1.4758658e-39
-2.5394084 0.24316828 1.2429802 1.3833142e-39
-2.5389986 0.22931153 1.2424214 1.2911186e-39
-2.5386384 0.21599638 1.2424858 1.3833128e-39
-2.5378809 0.2021815 1.2356744 1.5677013e-39
-2.5378721 0.19058082 1.2412084 1.2911172e-39
-2.5375795 0.17750627 1.2423711 1.4755084e-39
-2.5406609 0.25858852 1.2578833 1.2911186e-39
-2.540195 0.24486572 1.2562588 1.2911214e-39
-2.5397594 0.23159298 1.2549525 1.3825967e-39
-2.5393789 0.21860451 1.2544923 1.1985656e-39
-2.5386431 0.19105946 1.2548026 1.2911172e-39
-2.5418572 0.27219194 1.2726717 1.1992817e-39
-2.5414166 0.26047373 1.2705165 1.1992831e-39
-2.5410416 0.2472706 1.270259 1.2907612e-39
-2.5407181 0.23151745 1.2721828 1.2904025e-39
-2.540077 0.21424316 1.2691561 1.6606129e-39
-2.5398159 0.21005362 1.2665254 1.6606129e-39
-2.5394006 0.19649544 1.2657213 1.9364782e-39
-2.5433109 0.30459321 1.2828634 1.5677013e-39
-2.5430613 0.28807801 1.286484 1.1992803e-39
-2.5426662 0.27365533 1.2864667 1.1992817e-39
-2.5421753 0.26092735 1.2839066 1.7517324e-39
-2.5418777 0.24720217 1.2852925 1.3829513e-39
-2.5403585 0.20887455 1.276837 1.4755042e-39
-2.5439258 0.29245341 1.2998435 1.2914731e-39
-2.5453022 0.30718398 1.3173085 3.6915667e-40
-2.5446849 0.29409319 1.3126553 1.1070846e-39
-2.5461509 0.32072192 1.3258967 8.2977328e-40
-2.332983 -2.2631617 -1.2309122 1.3639553e-38
-2.3337872 -2.2731524 -1.2115839 7.5542711e-39
-2.3368158 -2.1816406 -1.2021348 4.3285129e-39
-2.3363781 -2.1952307 -1.2033148 4.7898497e-39
-2.3355904 -2.2330852 -1.1988912 3.6842211e-39
-2.3349903 -2.2461386 -1.2032512 4.9728047e-39
-2.3347006 -2.2604103 -1.2014532 6.079504e-39
-2.3377059 -2.1775453 -1.1881711 4.2381179e-39
-2.3367937 -2.205472 -1.1908361 5.067873e-39
-2.33656 -2.2171409 -1.1893141 4.3303093e-39
-2.336242 -2.2330444 -1.1872159 4.6987373e-39
-2.335809 -2.2424815 -1.1903586 5.9880328e-39
-2.3350534 -2.2699432 -1.190442 1.0321941e-38
-2.3385551 -2.1740661 -1.1746436 4.0537266e-39
-2.3380969 -2.189301 -1.1753963 4.3310324e-39
-2.3404005 -2.1310723 -1.1626266 3.5016375e-39
-2.3401725 -2.1449187 -1.1599265 3.7778628e-39
-2.3415928 -2.1157849 -1.1487348 3.5941932e-39
-2.3412073 -2.1327324 -1.1473367 3.8704186e-39
-2.347713 -2.0657551 -1.0634807 4.2384794e-39
-2.3485405 -2.0620639 -1.0504433 3.9622499e-39
-2.3499777 -2.0330241 -1.0389081 4.238834e-39
-2.3496346 -2.0476806 -1.0378717 4.5154223e-39
-2.3511479 -2.0169244 -1.02581 4.1459209e-39
-2.3507543 -2.0346575 -1.0241747 4.6990961e-39
-2.3533735 -2.0007758 -0.99380612 4.8813237e-39
-2.3528368 -2.0156703 -0.99613166 4.882767e-39
-2.3543429 -1.9843377 -0.98447669 9.0301158e-39
-2.3541236 -1.9982867 -0.98157179 4.2359557e-39
-2.3555496 -1.9695786 -0.97006834 7.4631559e-39
-2.3552721 -1.9850854 -0.96744269 5.5274106e-39
-2.3567166 -1.9533556 -0.95709097 7.6482688e-39
-2.3564248 -1.9695415 -0.95438564 6.6344714e-39
-2.3575943 -1.9549288 -0.94057322 7.0954538e-39
-2.3572948 -1.9701387 -0.9384886 7.5546284e-39
-2.3591747 -1.9253819 -0.92671394 6.5426429e-39
-2.3586562 -1.9402604 -0.92871958 7.6482744e-39
-2.3602538 -1.9117417 -0.91404742 7.7401099e-39
-2.3611295 -1.9073685 -0.9004823 5.157912e-39
-2.3623495 -1.8924872 -0.8858906 4.5143419e-39
-2.3634748 -1.8783921 -0.87261945 4.6987359e-39
-2.3644054 -1.8754903 -0.85734856 4.8834873e-39
-2.3662994 -1.8326873 -0.84436142 5.7114445e-39
-2.3658769 -1.844474 -0.8461591 5.3437438e-39
-2.365541 -1.858819 -0.84515232 5.0671583e-39
-2.3675036 -1.817892 -0.8300122 5.2515468e-39
-2.3670652 -1.8290343 -0.832416 5.0671541e-39
-2.3667183 -1.8443311 -0.83113891 4.9753186e-39
-2.3679259 -1.8284035 -0.81728536 5.0675128e-39
-2.368758 -1.8145907 -0.80913287 5.0678744e-39
-2.3730881 -1.7544377 -0.7609567 6.0798683e-39
-2.3739872 -1.7485688 -0.74770188 6.0798697e-39
-2.3751414 -1.7364918 -0.73292381 6.079148e-39
-2.3762856 -1.7214378 -0.71978319 6.0795082e-39
-2.3760123 -1.7327611 -0.71913171 6.079148e-39
-2.375668 -1.7418526 -0.72084665 5.2519041e-39
-2.377429 -1.7058802 -0.70690185 5.8951183e-39
-2.3784845 -1.6962421 -0.6926924 6.0791452e-39
-2.3799322 -1.6744968 -0.67738688 5.9865881e-39
-2.3794489 -1.6885403 -0.67916638 5.8029185e-39
-2.3813543 -1.6448871 -0.66639549 5.7110844e-39
-2.3810244 -1.6600963 -0.66485614 5.6181629e-39
-2.3827028 -1.6581796 -0.63568884 4.6025718e-39
-2.4845896 -0.43368149 0.59153223 8.3779067e-39
-2.4855587 -0.41905871 0.60173947 9.2080247e-39
-2.4850936 -0.42927578 0.59840977 8.3779067e-39
-2.4849296 -0.44037116 0.60090673 8.2842705e-39
-2.485677 -0.44213432 0.6151799 7.3677218e-39
-2.4864149 -0.44062257 0.62767577 4.9764074e-39
-2.487499 -0.42742407 0.6406523 2.4874954e-39
-2.4872386 -0.4400534 0.64217418 3.2243429e-39
-2.488394 -0.42340127 0.65472913 2.9495595e-39
-2.4895468 -0.406663 0.66720587 2.4896618e-39
-2.4892247 -0.42146879 0.66868484 4.1488174e-39
-2.4904418 -0.40643054 0.68314284 4.2413745e-39
-2.4919178 -0.37558284 0.69449574 2.2134322e-39
-2.491586 -0.38982695 0.69552916 1.8442881e-39
-2.4912534 -0.40579906 0.69739354 1.845007e-39
-2.4935124 -0.36103266 0.71596295 2.5822119e-39
-2.4927096 -0.37465322 0.70824397 2.3981794e-39
-2.4924405 -0.39032248 0.71110058 2.3052663e-39
-2.4943786 -0.34660017 0.72442365 2.3978221e-39
-2.4940436 -0.36281729 0.72636878 2.489659e-39
-2.4957519 -0.33071014 0.74126661 2.5814945e-39
-2.4952309 -0.34246275 0.73768491 2.3974619e-39
-2.4967332 -0.31624919 0.7517792 2.4893002e-39
-2.4964135 -0.33169603 0.75361854 2.5811343e-39
-2.4979148 -0.30044308 0.76522249 2.305988e-39
-2.4989901 -0.28671706 0.77778119 2.4893002e-39
-2.4999001 -0.28295046 0.79226041 2.4892974e-39
-2.5010746 -0.26787356 0.80593139 2.4896562e-39
-2.5021436 -0.25756457 0.8200599 2.3974605e-39
-2.5031731 -0.25011393 0.83486992 2.3056236e-39
-2.5040393 -0.24625002 0.8485114 2.3059838e-39
-2.5050325 -0.23021764 0.858468 2.3971018e-39
-2.5048926 -0.23970051 0.86060303 2.3974605e-39
-2.5059032 -0.23047127 0.87421006 2.3971004e-39
-2.5071588 -0.21558036 0.8894313 2.3052635e-39
-2.5067861 -0.2310831 0.89034623 2.3052635e-39
-2.5086741 -0.18653071 0.90237111 2.0293997e-39
-2.5082748 -0.20050886 0.90205717 2.1212352e-39
-2.5079463 -0.21461329 0.90308237 2.213428e-39
-2.5101242 -0.15969254 0.91521943 1.7531743e-39
-2.5095265 -0.17213586 0.91059738 1.8453699e-39
-2.5113952 -0.14120364 0.92895275 1.8450084e-39
-2.5110295 -0.15516594 0.92923987 1.8453685e-39
-2.5126052 -0.1267696 0.94357944 2.857717e-39
-2.5121069 -0.14159639 0.94191414 2.6733271e-39
-2.5142376 -0.097888 0.95870024 2.7651626e-39
-2.5138202 -0.11217494 0.95821559 2.8569981e-39
-2.5161009 -0.069420673 0.97816491 2.3063439e-39
-2.5154698 -0.084142365 0.97406101 2.1208708e-39
-2.5170631 -0.056126289 0.98890519 2.3981808e-39
-2.5162587 -0.083523855 0.98791212 2.4900107e-39
-2.5179427 -0.046973936 1.0001943 2.4900177e-39
-2.5197456 -0.010563586 1.014683 2.0276018e-39
-2.5185652 -0.050657351 1.0131701 2.5814916e-39
-2.5205708 -0.0085924445 1.0285187 2.2119945e-39
-2.5195289 -0.043492109 1.0269418 2.4896562e-39
-2.5212789 -0.019024044 1.0463343 2.672967e-39
-2.520577 -0.032873485 1.0405382 2.6733271e-39
-2.5229282 0.022338785 1.0556401 1.9368467e-39
-2.5218771 -0.016402151 1.0557824 2.672967e-39
-2.5242996 0.040265016 1.0714474 1.843935e-39
-2.5237544 0.024577906 1.0693598 2.0283221e-39
-2.5225401 -0.015657822 1.0673115 2.7651612e-39
-2.5242796 0.017519947 1.0822413 3.0417481e-39
-2.5237603 5.3223164e-05 1.0814927 3.0417467e-39
-2.5259538 0.054287586 1.0942501 2.857717e-39
-2.5256796 0.040319558 1.0961778 2.3971032e-39
-2.5253623 0.027459545 1.0967897 2.4896576e-39
-2.5248427 0.014020099 1.094064 2.6733271e-39
-2.5273881 0.073141128 1.1107298 2.9502672e-39
-2.5268083 0.058572512 1.1074722 2.6736845e-39
-2.5280628 0.072416753 1.1231885 2.76552e-39
-2.5270298 0.029760268 1.125573 2.3978179e-39
-2.5292525 0.086676173 1.1375384 2.4885758e-39
-2.5285144 0.073340081 1.1308329 2.6733257e-39
-2.5308068 0.11493229 1.1515673 2.5814888e-39
-2.5304296 0.10199056 1.1511472 2.2127105e-39
-2.5300057 0.088504985 1.1501509 2.5811287e-39
-2.5319679 0.13172126 1.1641549 1.4751497e-39
-2.5317118 0.12071422 1.1649629 2.6733257e-39
-2.5313082 0.10646681 1.1647031 2.672967e-39
-2.5307565 0.090683907 1.1625544 2.4896534e-39
-2.5336406 0.14787026 1.1862428 1.3825925e-39
-2.5321248 0.10760973 1.1787984 2.4889345e-39
-2.5345004 0.1612235 1.1951193 1.3829541e-39
-2.5337138 0.13748389 1.1926491 1.4755056e-39
-2.5332148 0.12405443 1.190284 1.6595368e-39
-2.5356336 0.17745388 1.2074914 1.1070874e-39
-2.5344703 0.13766626 1.2061331 1.4751483e-39
-2.5363793 0.18184736 1.2187133 1.1989243e-39
-2.5377054 0.19666404 1.2352363 1.1989229e-39
-2.5371673 0.18469468 1.2314461 1.1989243e-39
-2.5384607 0.19788206 1.2481833 1.1989229e-39
-2.5375865 0.17056017 1.2459004 1.3829527e-39
-2.5392561 0.19973733 1.2615393 1.1067273e-39
-2.5385296 0.17298329 1.2616295 1.3829527e-39
-2.5404556 0.21554281 1.2753069 1.1067273e-39
-2.5397387 0.19063397 1.274665 1.2914745e-39
-2.5420151 0.24106078 1.2907698 1.290757e-39
-2.5413437 0.22936212 1.2844679 1.1985642e-39
-2.5408523 0.20372857 1.2882175 1.475863e-39
-2.5436747 0.2730625 1.3048497 1.1070818e-39
-2.5431945 0.25984809 1.3027148 1.014889e-39
-2.5420554 0.21920954 1.3022083 1.4758588e-39
-2.5447998 0.28528449 1.3190366 5.5390806e-40
-2.5459614 0.30239362 1.3314791 2.766009e-40
-2.3343356 -2.2659819 -1.2052637 5.0653548e-39
-2.3357332 -2.2313709 -1.1971654 3.0384915e-39
-2.335279 -2.2391603 -1.2014918 3.0384915e-39
-2.3349149 -2.25228 -1.2015878 4.9728047e-39
-2.3342941 -2.2786136 -1.1998109 8.3847534e-39
-2.3332009 -2.3178105 -1.2002058 1.5853325e-38
-2.3374312 -2.1948061 -1.1846358 4.0540868e-39
-2.3362856 -2.2364409 -1.1847661 4.3299562e-39
-2.3359506 -2.2474031 -1.1854049 7.0032623e-39
-2.3384566 -2.1941671 -1.1665534 4.1462852e-39
-2.3379264 -2.2061863 -1.1701759 4.0544469e-39
-2.3375545 -2.2200234 -1.1700581 4.0544497e-39
-2.3395555 -2.1794634 -1.1540562 4.2381207e-39
-2.3474557 -2.0860264 -1.0581536 4.6987401e-39
-2.3471229 -2.1009767 -1.0567932 4.6991003e-39
-2.3483324 -2.082197 -1.0443029 4.5147062e-39
-2.3493366 -2.0693588 -1.0325913 4.1466425e-39
-2.3491077 -2.0830171 -1.0299976 3.9629701e-39
-2.3525755 -2.0331273 -0.99225873 4.5147076e-39
-2.3522418 -2.0463326 -0.99176949 4.6069018e-39
-2.3539066 -2.0181353 -0.97572571 4.8831272e-39
-2.3534253 -2.0323951 -0.97737414 4.7912931e-39
-2.3550684 -2.0041053 -0.96176982 4.6061774e-39
-2.3560624 -1.9906455 -0.95053953 4.6058172e-39
-2.3558481 -2.0033996 -0.94813061 4.882767e-39
-2.3569286 -1.9854616 -0.93754166 4.6068976e-39
-2.3585064 -1.9555577 -0.92390609 6.4504501e-39
-2.358155 -1.9706107 -0.92282712 4.513623e-39
-2.3578753 -1.9870108 -0.91979909 4.5150663e-39
-2.3601165 -1.9292535 -0.90791982 5.8054436e-39
-2.3597682 -1.9422016 -0.90782154 4.9749641e-39
-2.3593853 -1.9556558 -0.90809083 4.882767e-39
-2.3611248 -1.9210494 -0.89386052 4.3299506e-39
-2.3606002 -1.9416299 -0.89316922 5.2511908e-39
-2.3621607 -1.9117974 -0.87980771 4.97532e-39
-2.3632097 -1.897872 -0.86782068 4.9760389e-39
-2.3630049 -1.911777 -0.86467969 4.9760375e-39
-2.3641827 -1.8953083 -0.85162365 5.0675156e-39
-2.3653271 -1.8792765 -0.83895731 5.158991e-39
-2.365006 -1.8944191 -0.83729535 5.3433851e-39
-2.366581 -1.8637705 -0.82407087 5.2508279e-39
-2.367594 -1.8506925 -0.81231236 5.1593511e-39
-2.3673639 -1.8628662 -0.81046766 5.3433809e-39
-2.3688202 -1.8299521 -0.80048656 5.6192503e-39
-2.3685703 -1.8463961 -0.79690796 5.2511852e-39
-2.3697352 -1.8311521 -0.78348094 5.4352192e-39
-2.374809 -1.7557826 -0.72942597 6.1713423e-39
-2.3759975 -1.739863 -0.71591485 6.1709821e-39
-2.377208 -1.7249482 -0.7015118 6.0791466e-39
-2.3784685 -1.7103586 -0.68605542 5.9873097e-39
-2.379411 -1.701527 -0.67348123 5.9865909e-39
-2.3807302 -1.6804367 -0.6601609 5.9858678e-39
-2.3801045 -1.6932958 -0.66507751 5.8018367e-39
-2.3819165 -1.6610819 -0.64836818 5.2490174e-39
-2.3815744 -1.6779051 -0.64625341 6.6319547e-39
-2.3823986 -1.6752629 -0.63276452 6.2635295e-39
-2.3821096 -1.6910203 -0.6302256 6.6323176e-39
-2.3836725 -1.6560402 -0.61933893 4.4167456e-39
-2.3832202 -1.6730818 -0.6191023 7.460272e-39
-2.382865 -1.6869888 -0.61865032 7.1847627e-39
-2.3847783 -1.644098 -0.60536319 7.9219592e-39
-2.3844793 -1.6581123 -0.60385352 5.7996717e-39
-2.3840876 -1.6728042 -0.60368037 1.0408716e-38
-2.3852515 -1.6564907 -0.59079176 4.6947702e-39
-2.3849061 -1.6711054 -0.58982474 1.1053002e-38
-2.3857129 -1.668959 -0.57640666 9.3023713e-39
-2.4848819 -0.4506188 0.60507929 6.6283505e-39
-2.484684 -0.46323916 0.60771298 7.2748045e-39
-2.4853222 -0.46052909 0.61783761 6.6319631e-39
-2.4850965 -0.47343081 0.6201123 5.7107298e-39
-2.4862535 -0.46076471 0.63465834 3.7778628e-39
-2.4858658 -0.47603884 0.63519543 4.2381221e-39
-2.4870565 -0.45746541 0.64744312 1.8435581e-39
-2.4880877 -0.44366154 0.65917224 2.3045474e-39
-2.489001 -0.44058868 0.67405105 2.3049034e-39
-2.4900711 -0.42628124 0.68623042 4.7012695e-39
-2.490926 -0.42289698 0.69990087 1.8446469e-39
-2.4923837 -0.40004772 0.71484959 2.2134294e-39
-2.4918463 -0.40838951 0.70930159 2.2134294e-39
-2.4937379 -0.37888032 0.72875839 2.397106e-39
-2.4931955 -0.39395121 0.72642267 2.3052691e-39
-2.4950056 -0.36300606 0.74371773 2.3052677e-39
-2.4946616 -0.37439731 0.74312872 2.3052705e-39
-2.4961069 -0.34785542 0.75603938 2.3052677e-39
-2.4976242 -0.31709173 0.76817822 2.3974661e-39
-2.4972291 -0.3344411 0.76959443 2.3971032e-39
-2.497004 -0.34892476 0.77265644 2.3974605e-39
-2.498816 -0.30177051 0.78203702 2.3978221e-39
-2.4984517 -0.31570381 0.78233767 2.6736873e-39
-2.4980485 -0.32820672 0.78123993 2.3974605e-39
-2.497715 -0.34403583 0.78301311 2.305625e-39
-2.4996521 -0.30285022 0.79757237 2.3974605e-39
-2.4994209 -0.31446612 0.79911655 2.4896548e-39
-2.4989202 -0.32823202 0.79688787 2.489296e-39
-2.5008116 -0.28421533 0.80922842 2.4892946e-39
-2.5005815 -0.29853377 0.81212455 2.4896562e-39
-2.50017 -0.31527883 0.81295443 2.3052663e-39
-2.502038 -0.27018592 0.82435 2.3978193e-39
-2.5016813 -0.28410071 0.82477182 2.3052649e-39
-2.5028059 -0.26917529 0.83762771 2.2137867e-39
-2.5038843 -0.26038986 0.8526687 2.2141483e-39
-2.5048008 -0.25274563 0.86535424 2.305625e-39
-2.5056705 -0.24956465 0.87939924 2.2130679e-39
-2.506685 -0.240748 0.89327121 2.3049048e-39
-2.5065541 -0.24988197 0.89540291 2.213428e-39
-2.5076797 -0.23227189 0.9069593 2.1208736e-39
-2.5099447 -0.17432514 0.91917455 1.8453671e-39
-2.5096881 -0.19024171 0.92237717 2.2134308e-39
-2.5092583 -0.20370872 0.92127281 2.1205163e-39
-2.5085335 -0.21767437 0.91511929 1.8439308e-39
-2.5107641 -0.17265359 0.93305659 1.6609787e-39
-2.5104876 -0.18731713 0.93528557 2.5814945e-39
-2.5101225 -0.20371029 0.93677616 2.7644452e-39
-2.5119653 -0.16058014 0.94867748 2.4896562e-39
-2.5116487 -0.17276461 0.94897473 2.5814916e-39
-2.5135839 -0.13099357 0.96320599 2.7648039e-39
-2.5128136 -0.14543042 0.95646864 2.7651654e-39
-2.5151002 -0.10354403 0.97694689 2.6733257e-39
-2.5146601 -0.11764922 0.97596872 2.7648025e-39
-2.5168531 -0.073232546 0.99352407 2.1226687e-39
-2.5160258 -0.10085456 0.99223274 2.6733243e-39
-2.5179353 -0.058590382 1.005759 2.3985395e-39
-2.5176275 -0.074731611 1.0081532 1.5687747e-39
-2.5171704 -0.085104197 1.0050399 2.1215869e-39
-2.5187404 -0.056205828 1.019034 2.4896562e-39
-2.5184247 -0.072235428 1.0212293 1.845e-39
-2.5195475 -0.054422151 1.0326357 2.5814902e-39
-2.519222 -0.069747478 1.0343134 2.3967361e-39
-2.5203531 -0.052378014 1.046084 2.5811315e-39
-2.5216181 -0.037294902 1.0613825 2.6729684e-39
-2.520823 -0.064997122 1.0607022 2.58077e-39
-2.5227165 -0.021349503 1.0732651 2.672967e-39
-2.5224071 -0.03679442 1.0752887 2.672967e-39
-2.5219648 -0.04745046 1.0725794 2.5807728e-39
-2.5245309 0.014539419 1.0882138 2.7651626e-39
-2.5235906 -0.01922556 1.0879031 2.6729656e-39
-2.5253716 0.023971524 1.098668 2.4896576e-39
-2.5247025 -0.0029425158 1.099869 3.1339396e-39
-2.5243444 -0.017350497 1.1005093 2.5807714e-39
-2.5270741 0.050956115 1.1159786 2.5814916e-39
-2.5266545 0.03529124 1.1161269 2.5825678e-39
-2.5262496 0.026640378 1.1131065 2.4903736e-39
-2.5258818 0.010230116 1.1145544 2.6729684e-39
-2.525588 -0.0023932825 1.1154833 2.5807728e-39
-2.5278721 0.052784067 1.1293962 2.489296e-39
-2.5275846 0.038720611 1.1311338 2.489296e-39
-2.5267622 0.013963807 1.128523 2.6733243e-39
-2.526418 -0.0023975249 1.1303687 2.9495511e-39
-2.529067 0.069968484 1.1424026 2.5811301e-39
-2.5286181 0.057799056 1.1403196 2.5811301e-39
-2.5282323 0.044669461 1.1398346 2.7648039e-39
-2.5279806 0.029432546 1.1427883 2.6733243e-39
-2.5276377 0.018618368 1.1419395 2.6729628e-39
-2.5302563 0.0841849 1.1567655 2.3045432e-39
-2.5297832 0.069330379 1.1555657 2.6733229e-39
-2.5293305 0.056086063 1.1539344 2.6733229e-39
-2.5291605 0.044660192 1.1564878 2.6729628e-39
-2.5287592 0.029779466 1.1565864 2.5811273e-39
-2.5313661 0.10047723 1.1686834 2.6729684e-39
-2.5305762 0.071389869 1.1687751 2.4889331e-39
-2.5334048 0.12864994 1.1914412 1.2907598e-39
-2.5326028 0.11454524 1.1839697 1.5673439e-39
-2.5318789 0.088507317 1.183753 2.3974563e-39
-2.5313528 0.073623076 1.181613 2.4889331e-39
-2.5331109 0.10477398 1.197873 2.1201534e-39
-2.5326328 0.090139061 1.1964768 2.3049006e-39
-2.5364788 0.17202863 1.2253102 1.2904011e-39
-2.5351114 0.1191678 1.2267056 2.7658773e-39
-2.5347235 0.10611382 1.2261465 2.4889331e-39
-2.5382667 0.17873055 1.2540956 1.1985642e-39
-2.5392256 0.18732244 1.2670858 1.0148918e-39
-2.5382257 0.15388757 1.2655424 1.4747882e-39
-2.5402288 0.19562985 1.2810068 1.1067259e-39
-2.5394318 0.18133999 1.2737141 1.2914745e-39
-2.5394261 0.16857913 1.2798742 1.3825939e-39
-2.5417171 0.22329968 1.2941389 1.1985628e-39
-2.5410845 0.21007834 1.2892753 1.1989215e-39
-2.5406895 0.18447864 1.2947371 1.2911144e-39
-2.5430477 0.24041866 1.3096122 8.3049635e-40
-2.5425582 0.224868 1.3084517 8.3049635e-40
-2.5420916 0.21149643 1.3066396 1.2914745e-39
-2.5417988 0.20073973 1.3066614 1.3833044e-39
-2.5416114 0.19275565 1.3072138 1.29075e-39
-2.5430651 0.21329448 1.3232249 1.3840191e-39
-2.335736 -2.2440555 -1.1908959 4.3303149e-39
-2.3349857 -2.2585366 -1.1972532 4.5125454e-39
-2.3349555 -2.2701173 -1.1921172 5.7121662e-39
-2.3345518 -2.2827148 -1.193176 6.2656973e-39
-2.336741 -2.241658 -1.1740394 4.3306765e-39
-2.3362343 -2.2512245 -1.1784407 4.6987429e-39
-2.3341525 -2.3223917 -1.1808897 1.281267e-38
-2.337744 -2.2278118 -1.162841 4.4228721e-39
-2.3388913 -2.2122142 -1.1499064 4.238841e-39
-2.3470545 -2.1094513 -1.0538664 4.6994562e-39
-2.3479962 -2.1020386 -1.0406079 4.6994576e-39
-2.3490181 -2.0930417 -1.0266873 4.8834901e-39
-2.3519771 -2.0675364 -0.98611706 4.6076235e-39
-2.3516881 -2.0824795 -0.98397458 4.5154265e-39
-2.3531601 -2.0501504 -0.97342163 4.8834859e-39
-2.3527215 -2.064316 -0.97434682 4.3313911e-39
-2.3548563 -2.0226302 -0.95648891 4.9749655e-39
-2.3543172 -2.0335641 -0.96079952 4.790933e-39
-2.3540461 -2.0495515 -0.9578222 4.6076179e-39
-2.3556316 -2.0202167 -0.94376439 4.8831272e-39
-2.3551037 -2.034735 -0.94611466 4.8831286e-39
-2.3548896 -2.0501332 -0.94240624 4.4228707e-39
-2.3566849 -2.006336 -0.93168086 4.8831272e-39
-2.3575234 -2.0027261 -0.91840708 4.7912917e-39
-2.3590853 -1.9723679 -0.90527731 5.2515524e-39
-2.3586452 -1.9901954 -0.90443349 4.607262e-39
-2.3584263 -2.0027881 -0.90218019 4.8834887e-39
-2.3610306 -1.9301306 -0.89109045 4.8834845e-39
-2.360311 -1.9583195 -0.89017427 5.2511894e-39
-2.3599098 -1.9708729 -0.89122236 4.7912889e-39
-2.3595169 -1.9850962 -0.89129215 4.7912917e-39
-2.3592596 -2.0016205 -0.8878051 4.6998149e-39
-2.3618696 -1.9291662 -0.87651694 5.252267e-39
-2.3614993 -1.9428735 -0.87643731 5.067517e-39
-2.3610902 -1.9551573 -0.87774909 5.0671555e-39
-2.3607476 -1.9702923 -0.87647736 4.8831216e-39
-2.362663 -1.9265358 -0.863572 4.7916504e-39
-2.3622277 -1.9446256 -0.86251724 5.1593525e-39
-2.3616714 -1.955856 -0.86697835 5.0671555e-39
-2.3638391 -1.9106553 -0.85025984 5.0671569e-39
-2.3635294 -1.9273016 -0.84765452 4.9753214e-39
-2.3627598 -1.9407808 -0.85485542 5.0675156e-39
-2.3646636 -1.9108044 -0.83539826 4.7909287e-39
-2.3643887 -1.9263711 -0.83270073 5.5274148e-39
-2.3662479 -1.8835577 -0.82034051 5.0671555e-39
-2.3657811 -1.8975039 -0.8218748 5.0671555e-39
-2.3670058 -1.8805054 -0.80824333 5.0671569e-39
-2.368259 -1.8657608 -0.79298872 5.1589896e-39
-2.367965 -1.8804882 -0.79104525 5.80328e-39
-2.3694074 -1.8520852 -0.77909571 5.7118032e-39
-2.3691449 -1.8637192 -0.77810246 5.4352178e-39
-2.3687932 -1.8791413 -0.77684551 5.6192489e-39
-2.3706436 -1.8347934 -0.76539946 5.7114445e-39
-2.3782372 -1.7533369 -0.66913015 5.3426564e-39
-2.3798776 -1.7272178 -0.6525135 6.0780676e-39
-2.3791111 -1.7536715 -0.65329331 5.9865853e-39
-2.3813384 -1.6944678 -0.64237189 5.6185272e-39
-2.3809974 -1.7095213 -0.64110339 5.8025583e-39
-2.3806546 -1.7239748 -0.6401673 5.8025569e-39
-2.3817263 -1.7088106 -0.62837553 5.8954714e-39
-2.3814964 -1.7231245 -0.6254822 6.1716996e-39
-2.3811133 -1.7363592 -0.62586451 6.171701e-39
-2.3806951 -1.7483065 -0.62750512 6.4482851e-39
-2.3824978 -1.7075607 -0.61514866 6.1717024e-39
-2.3822744 -1.7199215 -0.61309707 6.1713451e-39
-2.3819256 -1.7344234 -0.61224067 6.3557335e-39
-2.3814917 -1.745778 -0.61446065 6.4475662e-39
-2.3838801 -1.6891569 -0.59937537 6.4475592e-39
-2.3834414 -1.7040988 -0.59992224 6.2635393e-39
-2.3830752 -1.7175574 -0.59989172 6.1713451e-39
-2.3823016 -1.7437576 -0.60091943 6.3553734e-39
-2.3858798 -1.6465042 -0.58442056 7.091844e-39
-2.3847775 -1.6866262 -0.58451986 6.4472019e-39
-2.3843074 -1.7037456 -0.58455753 6.1717024e-39
-2.3862395 -1.6578499 -0.57240754 5.0628325e-39
-2.3853281 -1.6872801 -0.57432771 5.986951e-39
-2.387044 -1.6587828 -0.55751872 4.9695523e-39
-2.3867459 -1.6680409 -0.55832702 1.0777504e-38
-2.386224 -1.6825278 -0.56058222 5.9858678e-39
-2.4842412 -0.48300466 0.60946596 7.1826061e-39
-2.4839091 -0.49738947 0.61056358 7.7350582e-39
-2.4836493 -0.51280123 0.61345971 7.7350624e-39
-2.4846864 -0.49471119 0.62319076 4.9749641e-39
-2.4856374 -0.49168417 0.63877046 3.5027235e-39
-2.4867663 -0.47733241 0.65198225 2.304902e-39
-2.4880257 -0.46144503 0.66677839 2.1208722e-39
-2.4876359 -0.47750944 0.66766518 2.3971004e-39
-2.4887278 -0.46012244 0.67872685 2.2130651e-39
-2.4898663 -0.44125941 0.68990147 3.4105306e-39
-2.4894612 -0.4575423 0.69061869 2.305618e-39
-2.4907398 -0.44150364 0.70569009 2.1212324e-39
-2.4922638 -0.41115272 0.71814293 2.3971018e-39
-2.4919164 -0.4255878 0.71899009 2.5811315e-39
-2.4930983 -0.41100803 0.73304343 2.2134322e-39
-2.4928198 -0.42711499 0.73594296 2.3052663e-39
-2.4943373 -0.39677793 0.74829251 2.3056278e-39
-2.4939864 -0.41088429 0.74891281 2.2134336e-39
-2.4958191 -0.36449349 0.75903964 2.3974619e-39
-2.4954956 -0.38043863 0.76105356 2.3971046e-39
-2.495199 -0.39634582 0.76353687 2.3059866e-39
-2.4965906 -0.36769426 0.77444565 2.3974619e-39
-2.4963517 -0.37959239 0.77599573 2.3971046e-39
-2.4959993 -0.39396173 0.77672255 2.3052677e-39
-2.4975142 -0.36326465 0.78884238 2.2134322e-39
-2.4971845 -0.37841192 0.79035789 2.2134336e-39
-2.4987242 -0.34852821 0.8033216 2.2134308e-39
-2.4983954 -0.36381671 0.80492657 2.2137909e-39
-2.4999089 -0.33314642 0.8170352 2.2130721e-39
-2.5014584 -0.30375269 0.83041263 2.305625e-39
-2.5008626 -0.31766194 0.82654876 2.3052691e-39
-2.502825 -0.28674239 0.84658605 2.3052649e-39
-2.5023656 -0.30003181 0.844859 2.3056236e-39
-2.5037446 -0.27442852 0.85704201 2.2137895e-39
-2.5035324 -0.28884995 0.86030716 2.3974591e-39
-2.5031466 -0.30199963 0.85984176 2.2134294e-39
-2.5046592 -0.27125549 0.87189174 2.2130707e-39
-2.5056708 -0.2616533 0.8853296 2.2130707e-39
-2.5064223 -0.26133558 0.89865571 2.1212324e-39
-2.5075116 -0.25170243 0.91347158 2.3049062e-39
-2.5089545 -0.21989036 0.92375678 1.8439308e-39
-2.5086491 -0.23597974 0.92616659 2.3967431e-39
-2.5083425 -0.2520417 0.92854619 2.6729712e-39
-2.50983 -0.22180194 0.94040149 2.672967e-39
-2.5116065 -0.18547931 0.95445108 2.674046e-39
-2.5112638 -0.19384292 0.95240927 2.4896562e-39
-2.510952 -0.20641412 0.95297956 2.3967417e-39
-2.5133233 -0.14848904 0.96710652 2.7651654e-39
-2.513077 -0.16314155 0.96987832 2.5814916e-39
-2.5123317 -0.17745274 0.9635244 2.6736873e-39
-2.5145416 -0.13542747 0.98256284 2.7644452e-39
-2.5141275 -0.14626582 0.98044944 2.7644452e-39
-2.5137954 -0.16142103 0.98192376 2.5811301e-39
-2.5158806 -0.11838915 0.99822485 2.7648025e-39
-2.5153639 -0.1328484 0.99605072 2.8569967e-39
-2.5149131 -0.14633015 0.99457246 2.5807714e-39
-2.5169184 -0.10417765 1.0098737 2.5811315e-39
-2.5166361 -0.12025279 1.0126925 2.6729656e-39
-2.5156429 -0.14519919 1.0071071 2.4889359e-39
-2.5180962 -0.087483592 1.022815 2.4896519e-39
-2.5178051 -0.10073321 1.0240881 2.4885772e-39
-2.5174329 -0.11774061 1.0257529 2.7648011e-39
-2.5188959 -0.085079968 1.0359818 2.3967361e-39
-2.5186043 -0.098758519 1.0374566 2.5804141e-39
-2.5182331 -0.11536241 1.0389444 2.6726069e-39
-2.5201216 -0.07202404 1.0515647 2.1201492e-39
-2.5198236 -0.083787672 1.0519853 1.9357579e-39
-2.5193787 -0.097244605 1.0506063 2.6722481e-39
-2.5212774 -0.054388266 1.0636512 2.6729698e-39
-2.5207927 -0.074243829 1.06469 1.8435609e-39
-2.5217521 -0.067109168 1.0784061 2.213421e-39
-2.5233159 -0.038513098 1.0924327 2.4885758e-39
-2.5228615 -0.053122014 1.0914485 2.5807728e-39
-2.5241263 -0.036356386 1.1059104 2.4889345e-39
-2.5253811 -0.021373086 1.1210716 2.5811301e-39
-2.5262325 -0.017373003 1.134384 2.5811315e-39
-2.5274532 -0.0019344194 1.1487126 2.4885729e-39
-2.5270209 -0.015410063 1.147563 2.2130679e-39
-2.528461 0.01129124 1.1603025 2.4889317e-39
-2.5304077 0.055598918 1.1735026 2.4889331e-39
-2.5300007 0.043255437 1.1722491 2.4885744e-39
-2.5298018 0.029123159 1.1756155 2.3967389e-39
-2.5293093 0.01367911 1.1743544 2.304902e-39
-2.5311649 0.054377511 1.1876795 2.4885744e-39
-2.5307417 0.041411262 1.1864473 2.4885744e-39
-2.5332966 0.094959758 1.2060171 1.6591808e-39
-2.5324373 0.071055904 1.202328 2.3967389e-39
-2.5319164 0.056594711 1.2000766 2.3963787e-39
-2.5344927 0.11085176 1.2196867 2.5811287e-39
-2.5339746 0.10184491 1.2148031 2.4885744e-39
-2.5336039 0.088153929 1.2148669 2.4889345e-39
-2.5333176 0.074049026 1.216648 2.3967389e-39
-2.5354857 0.12390868 1.2310935 2.7658773e-39
-2.5343983 0.090744413 1.2278509 2.3970976e-39
-2.5342181 0.076141879 1.2317761 2.3049006e-39
-2.5363562 0.13115548 1.2431524 1.2907584e-39
-2.5360396 0.11763693 1.2441026 1.8442853e-39
-2.5356405 0.10388605 1.2436885 2.581486e-39
-2.5350797 0.089705594 1.240579 2.120868e-39
-2.5348897 0.077797078 1.243012 2.121231e-39
-2.5372283 0.13257134 1.2581027 1.38331e-39
-2.5390639 0.17267287 1.2713662 1.1063686e-39
-2.5381036 0.13188158 1.2741452 1.4751483e-39
-2.5397944 0.16978182 1.2858876 1.1060112e-39
-2.5391698 0.14975463 1.2845064 1.474428e-39
-2.5388963 0.13454847 1.2870545 1.4751469e-39
-2.5415239 0.20635054 1.2989802 1.1067259e-39
-2.5411432 0.1910314 1.2996614 1.1067259e-39
-2.540415 0.17754854 1.2932096 1.1067259e-39
-2.5396261 0.15114498 1.2920089 1.4755e-39
-2.5423017 0.20955904 1.31136 1.1070846e-39
-2.5413978 0.18181129 1.3087476 1.2914689e-39
-2.5411689 0.16693732 1.3119389 1.198553e-39
-2.5409052 0.15162139 1.3147173 1.4751399e-39
-2.5435951 0.22304595 1.3279465 2.776757e-40
-2.5427487 0.19708434 1.3254967 1.8449916e-39
-2.5423837 0.18279876 1.3259488 1.0141589e-39
-2.543592 0.2104028 1.3340843 7.3828811e-40
-2.3362381 -2.2631245 -1.1725358 5.7136109e-39
-2.3359327 -2.2740607 -1.1726539 7.8341076e-39
-2.337477 -2.2467153 -1.1583601 4.8838517e-39
-2.3351889 -2.3250496 -1.1609988 1.0600338e-38
-2.338649 -2.230751 -1.1451653 4.4228707e-39
-2.3383312 -2.2462699 -1.1432556 4.1470055e-39
-2.3371441 -2.2845807 -1.1457642 8.8475407e-39
-2.335881 -2.3230534 -1.1495574 1.3273651e-38
-2.3479033 -2.1197577 -1.0335847 4.5154265e-39
-2.3488684 -2.1075227 -1.022274 4.607262e-39
-2.3506501 -2.1004999 -0.99375492 4.7912959e-39
-2.3514981 -2.0982711 -0.97963685 4.975327e-39
-2.3525951 -2.0840149 -0.96695036 4.6990975e-39
-2.3536806 -2.0697434 -0.9544788 4.9753228e-39
-2.3550384 -2.0558364 -0.93694371 4.6076193e-39
-2.3542154 -2.0674007 -0.9460339 4.4235882e-39
-2.3564789 -2.0221186 -0.92763603 4.9749655e-39
-2.356158 -2.0374584 -0.92586994 4.8831286e-39
-2.3573551 -2.0225198 -0.91171885 5.0671597e-39
-2.3582819 -2.0179951 -0.89731276 5.1597141e-39
-2.3591902 -2.0104847 -0.88470304 4.6065403e-39
-2.3590357 -2.0207231 -0.88245153 5.3433865e-39
-2.3606119 -1.9887332 -0.86986262 4.9756801e-39
-2.3601749 -2.0014267 -0.87147945 4.9756801e-39
-2.3621709 -1.9614582 -0.85527486 5.0675142e-39
-2.3615613 -1.9756192 -0.85926837 5.2519069e-39
-2.3633862 -1.9451424 -0.84147519 5.5277749e-39
-2.3629522 -1.9600207 -0.84196287 4.9749613e-39
-2.3640513 -1.9412949 -0.83143198 5.5277749e-39
-2.3637908 -1.9560484 -0.82886994 5.067517e-39
-2.3657665 -1.9142772 -0.81391186 5.2515454e-39
-2.3653619 -1.9291525 -0.81387663 5.2515468e-39
-2.3647702 -1.9427378 -0.81783038 5.2515468e-39
-2.3668215 -1.9006768 -0.80165982 5.3433795e-39
-2.3665605 -1.9153101 -0.79916126 5.343741e-39
-2.3661628 -1.9280018 -0.80007446 5.2515426e-39
-2.3677471 -1.8975414 -0.78659379 5.3433809e-39
-2.3673522 -1.9126066 -0.78628802 5.4355737e-39
-2.3685451 -1.8943138 -0.7738561 5.2511852e-39
-2.3681815 -1.911292 -0.77205688 5.4352164e-39
-2.3700895 -1.8667451 -0.75967377 5.7114459e-39
-2.369534 -1.88141 -0.76244712 5.527412e-39
-2.3713362 -1.8526381 -0.74422657 5.6192503e-39
-2.3707564 -1.8662316 -0.74796265 5.5274148e-39
-2.3716893 -1.8626142 -0.73300362 5.5274134e-39
-2.3789122 -1.768396 -0.6496374 5.2508195e-39
-2.3803575 -1.7403812 -0.63744909 5.9873013e-39
-2.3799345 -1.7521517 -0.63926268 5.8021954e-39
-2.3795552 -1.7685325 -0.63803375 5.2511782e-39
-2.380522 -1.7660381 -0.62191367 5.6196048e-39
-2.3812904 -1.763113 -0.60956448 5.527412e-39
-2.3827567 -1.7331811 -0.59793884 6.4472103e-39
-2.3822567 -1.7543621 -0.59652382 5.5274106e-39
-2.384007 -1.7197683 -0.58209044 6.1717024e-39
-2.3835089 -1.7346871 -0.58371162 6.2635365e-39
