# .PCD v0.7 - Point Cloud Data file format
VERSION 0.7
FIELDS x y z rgb
SIZE 4 4 4 4
TYPE F F F F
COUNT 1 1 1 1
WIDTH 1039
HEIGHT 1
VIEWPOINT 0 0 0 1 0 0 0
POINTS 1039
DATA ascii
1.5250536 0.29434055 0.82252878 1.2804701e-38
1.5284698 0.28241634 0.82278109 1.381777e-38
1.5353235 0.26949528 0.8231287 1.4186544e-38
1.5425415 0.25678253 0.8234818 1.5844266e-38
1.5488783 0.24356593 0.82382143 1.7042087e-38
1.5556679 0.2306083 0.82416803 1.6949172e-38
1.5621716 0.21748708 0.82451022 1.6949883e-38
1.5689393 0.2045169 0.82485646 1.6765851e-38
1.5957906 0.15251057 0.82623816 1.7133556e-38
1.6228462 0.10062099 0.82762295 1.6119045e-38
1.6292874 0.087464079 0.82796413 1.6947723e-38
1.6364207 0.074702926 0.82831603 1.7316145e-38
1.6695188 0.0094284657 0.83003592 1.584209e-38
1.6765546 -0.0033884121 0.83038634 1.5658063e-38
1.7103044 -0.068290271 0.83211619 1.676442e-38
1.7166567 -0.081497997 0.83245617 1.6303439e-38
1.5356778 0.23667419 0.82361037 1.3540816e-38
1.5418179 0.22334498 0.82394701 1.4092909e-38
1.5486435 0.21040788 0.82429415 1.612049e-38
1.5554737 0.19747344 0.82464141 1.6856975e-38
1.5619265 0.1843231 0.82498282 1.6580386e-38
1.5682997 0.17112738 0.82532299 1.5936094e-38
1.5752163 0.15824226 0.82567155 1.7409424e-38
1.5820504 0.14531007 0.82601881 1.704064e-38
1.5888449 0.13235514 0.82636547 1.6120128e-38
1.5924408 0.11770736 0.82666129 1.6488186e-38
1.6022997 0.10636864 0.82705671 1.6672935e-38
1.6090517 0.093389452 0.82740283 1.6948803e-38
1.6158693 0.080447771 0.82774979 1.6211955e-38
1.622414 0.067350097 0.82809258 1.5935374e-38
1.6263368 0.052874736 0.8283937 1.575062e-38
1.6329874 0.039842829 0.82873809 1.5750258e-38
1.6421386 0.028006764 0.82912403 1.6486382e-38
1.645911 0.013578179 0.82942086 1.5473311e-38
1.6529112 0.00072204141 0.82977092 1.5473673e-38
1.662966 -0.010502262 0.83016938 1.5566227e-38
1.6690121 -0.025995621 0.83053499 1.6303069e-38
1.6765261 -0.036489442 0.83086306 1.5659506e-38
1.6794988 -0.049277823 0.83111745 1.6303436e-38
1.6898354 -0.062498178 0.83155125 1.7039921e-38
1.69654 -0.075504549 0.83189648 1.7499103e-38
1.7031943 -0.088539563 0.83224106 1.7223593e-38
1.7081699 -0.10247965 0.83255917 1.4367331e-38
1.7135109 -0.11619147 0.83288252 1.4368767e-38
1.7222589 -0.12814339 0.83326072 1.2986917e-38
1.7284359 -0.14142065 0.83359748 1.446024e-38
1.7333145 -0.15536381 0.83391327 1.4643914e-38
1.743275 -0.1689703 0.83434385 1.4643915e-38
1.7509063 -0.17922354 0.8346712 1.4091463e-38
1.757291 -0.19239365 0.8350113 1.3079116e-38
1.7625877 -0.20558128 0.83532619 1.4276219e-38
1.7696639 -0.21948825 0.83569318 1.2340491e-38
1.5235435 0.27994278 0.82270086 1.1607603e-38
1.5217352 0.26452795 0.82288069 1.0685649e-38
1.529935 0.25023049 0.82327974 1.2805057e-38
1.7483119 -0.21364497 0.83510667 1.7038485e-38
1.7542163 -0.22710885 0.83543974 1.1695482e-38
1.5223435 0.22970581 0.82339722 1.142393e-38
1.528476 0.21656877 0.82373101 1.4001437e-38
1.535663 0.203642 0.82408649 1.280506e-38
1.5399303 0.18936576 0.82439268 1.372485e-38
1.5491393 0.17956781 0.8247506 1.6856973e-38
1.5571867 0.1638798 0.82516623 1.7225389e-38
1.5625573 0.14903082 0.82550663 1.7316868e-38
1.5712248 0.13964711 0.8258459 1.7500898e-38
1.5778497 0.12659691 0.82618994 1.7041001e-38
1.5819175 0.11221044 0.82649308 1.6488188e-38
1.589123 0.099453218 0.82684654 1.6119767e-38
1.597571 0.085468397 0.82724696 1.593573e-38
1.6013505 0.07287503 0.82751757 1.7132831e-38
1.609551 0.062680863 0.82785749 1.6303797e-38
1.6153482 0.04712614 0.8282181 1.5290361e-38
1.6219105 0.034038406 0.82856125 1.6394909e-38
1.6285827 0.021013575 0.82890606 1.4737187e-38
1.6357026 0.0082447873 0.82925773 1.5381119e-38
1.6425321 -0.0046899933 0.82960486 1.5934287e-38
1.6518872 -0.016324664 0.82999271 1.7131745e-38
1.655316 -0.031060232 0.83028591 1.6578934e-38
1.6621298 -0.044004049 0.83063281 1.6395628e-38
1.6694964 -0.056631856 0.83098823 1.6671497e-38
1.6787143 -0.068335995 0.83137387 1.7223592e-38
1.6853442 -0.081374675 0.83171791 1.6762971e-38
1.6911099 -0.094862059 0.83204806 1.4828671e-38
1.695405 -0.10917722 0.8323555 1.5565513e-38
1.7028656 -0.12175126 0.83271229 1.3815954e-38
1.7095112 -0.1347912 0.83305675 1.2802886e-38
1.7162292 -0.14778985 0.83340222 1.427585e-38
1.7229468 -0.16078877 0.83374768 1.4919782e-38
1.7289459 -0.17419849 0.83408225 1.5656268e-38
1.7358589 -0.18708557 0.83443063 1.3723039e-38
1.7421322 -0.20033862 0.83476943 1.2895088e-38
1.5184727 0.24452721 0.82309246 6.7237804e-39
1.5545728 0.13091093 0.82558024 1.6856612e-38
1.6285399 -0.012034537 0.8293817 1.6578937e-38
1.63528 -0.025020517 0.82972753 1.6946995e-38
1.6417453 -0.038163655 0.83006918 1.5842094e-38
1.6553597 -0.064058788 0.83076286 1.4921582e-38
1.6755642 -0.103026 0.8318001 1.3999269e-38
1.6822488 -0.11604361 0.83214509 1.4092543e-38
1.7025245 -0.15496999 0.83318341 1.436805e-38
1.7079953 -0.16868173 0.83350986 1.436733e-38
1.7155756 -0.18118727 0.83386856 1.3354259e-38
1.7222828 -0.19419222 0.83421385 1.2249351e-38
1.7220598 -0.21085581 0.83444899 1.6854458e-38
1.7351825 -0.21890707 0.8348738 1.2156458e-38
1.5231875 0.19765484 0.82387936 1.206786e-38
1.5288621 0.18356951 0.82421601 1.3264592e-38
1.535014 0.17024718 0.82455283 1.4462408e-38
1.5417966 0.15728539 0.82489932 1.6672939e-38
1.5486126 0.14434287 0.82524633 1.6856612e-38
1.5615435 0.11805679 0.82592964 1.5659147e-38
1.5692414 0.10561852 0.82629007 1.7224671e-38
1.5755457 0.092383213 0.82662922 1.7039567e-38
1.5825047 0.079522453 0.82697839 1.6763696e-38
1.5888288 0.066298619 0.82731783 1.6856965e-38
1.5951463 0.05307094 0.82765722 1.6764409e-38
1.6024051 0.040381543 0.82801104 1.6211594e-38
1.6089232 0.027268592 0.82835346 1.685517e-38
1.6153817 0.014121527 0.828695 1.6395268e-38
1.6225737 0.0013939417 0.82904774 1.6303073e-38
1.649022 -0.050842911 0.83042318 1.6026128e-38
1.6626636 -0.076722525 0.83111727 1.4829027e-38
1.6691327 -0.08986342 0.83145899 1.6209437e-38
1.6894206 -0.12878284 0.8324976 1.3447537e-38
1.6962222 -0.14173368 0.83284432 1.3355703e-38
1.7295487 -0.20687748 0.83456779 1.0869298e-38
1.5188307 0.21243726 0.82356364 5.4341177e-39
1.5350862 0.13726474 0.82503027 1.3264232e-38
1.5412185 0.12393115 0.82536685 1.3817044e-38
1.5484179 0.11120784 0.82571971 1.5291449e-38
1.5550004 0.098131731 0.8260631 1.5199251e-38
1.5618423 0.085203879 0.82641047 1.8882383e-38
1.5686395 0.072250679 0.82675713 1.5751339e-38
1.5752543 0.059192952 0.82710111 1.6395629e-38
1.5817832 0.046086192 0.82744366 1.7132831e-38
1.5887942 0.033255123 0.82779366 1.6488181e-38
1.595426 0.020207042 0.82813787 1.6027566e-38
1.6019239 0.0070826844 0.82847995 1.5014494e-38
1.615381 -0.018902516 0.82917124 1.6579303e-38
1.6218848 -0.03202356 0.82951349 1.6671492e-38
1.6284039 -0.045136016 0.82985586 1.510633e-38
1.635711 -0.05779786 0.83021045 1.6395628e-38
1.6420941 -0.07098794 0.83055085 1.6302715e-38
1.6459705 -0.085478611 0.83085102 1.5841738e-38
1.6525091 -0.098577179 0.83119369 1.4366975e-38
1.6615748 -0.10970068 0.83156741 1.4828668e-38
1.6695583 -0.12264375 0.83194178 1.418402e-38
1.6758667 -0.13587664 0.83228111 1.3539728e-38
1.6824408 -0.14895767 0.83262432 1.3999985e-38
1.6885546 -0.15959446 0.83292162 1.4643556e-38
1.6948274 -0.17535467 0.83329648 1.3354618e-38
1.7026969 -0.18789501 0.83366239 1.2802165e-38
1.7086706 -0.20135695 0.83399701 1.5196733e-38
1.5233935 0.18077093 0.82412773 1.1239183e-38
1.5218346 0.16533428 0.82431376 9.5803889e-39
1.528947 0.15059434 0.82469362 1.2804341e-38
1.609682 -0.0053212177 0.82884133 1.5751339e-38
1.7006105 -0.22211184 0.83410686 1.3722694e-38
1.5228189 0.13090658 0.82483339 1.1239909e-38
1.5291378 0.1176798 0.82517284 1.1976026e-38
1.5352187 0.10431677 0.82550859 1.2160049e-38
1.5412613 0.092697255 0.8258183 1.5199247e-38
1.5478901 0.078818619 0.82617444 1.4921589e-38
1.555434 0.063268147 0.82657611 1.6395636e-38
1.5625572 0.052545279 0.82689834 1.7961514e-38
1.5704198 0.040133808 0.82726222 1.6948802e-38
1.5764309 0.026771447 0.82759637 1.7040632e-38
1.584327 0.011791566 0.8279981 1.6487822e-38
1.5867397 -0.00082712428 0.82823694 1.6764408e-38
1.595457 -0.013182992 0.82862014 1.6303432e-38
1.6044798 -0.024616309 0.82899725 1.6303069e-38
1.6114323 -0.037492204 0.82934654 1.7223944e-38
1.613922 -0.050728504 0.82959598 1.6487469e-38
1.62073 -0.065613635 0.82997078 1.6671137e-38
1.6294315 -0.075457223 0.83031738 1.5013062e-38
1.6347775 -0.091355279 0.83067244 1.5012698e-38
1.6417153 -0.10422816 0.83102131 1.3076961e-38
1.6484287 -0.11722941 0.83136672 1.5473679e-38
1.6574489 -0.12900636 0.83174878 1.4276212e-38
1.6626737 -0.1434131 0.83207941 1.3539728e-38
1.6706384 -0.15512837 0.83243573 1.4552434e-38
1.6749728 -0.16941155 0.83274376 1.3815594e-38
1.6823921 -0.1820091 0.8330999 1.2986556e-38
1.6920189 -0.19349787 0.8334921 1.3999626e-38
1.6959988 -0.20761964 0.83378935 1.5011265e-38
1.5197034 0.14470574 0.82456112 1.0686379e-38
1.5215935 0.13037896 0.82481223 4.2370165e-39
1.6616303 -0.17638457 0.8325305 1.3170584e-38
1.6684961 -0.1892985 0.83287823 1.2802172e-38
1.6813293 -0.2156406 0.83355999 1.630092e-38
1.5229424 0.097953558 0.8253116 9.9477337e-39
1.5278682 0.085921094 0.82560104 1.1884188e-38
1.5349792 0.071156174 0.82598132 1.3079484e-38
1.5419022 0.058274824 0.82632989 1.5013786e-38
1.5478994 0.044863939 0.82666433 1.5750626e-38
1.5550096 0.03208958 0.82701594 1.556695e-38
1.5616175 0.019028004 0.82735968 1.694844e-38
1.5680742 0.0058798692 0.82770109 1.5751698e-38
1.5752698 -0.0068456531 0.82805395 1.6764406e-38
1.5815287 -0.020106722 0.82839239 1.5935011e-38
1.5886396 -0.032880727 0.82874388 1.6027203e-38
1.5951588 -0.045992978 0.82908636 1.7132467e-38
1.6022799 -0.058761068 0.82943803 1.6763694e-38
1.6089512 -0.071786441 0.82978284 1.6855165e-38
1.6154685 -0.084899791 0.83012527 1.7315781e-38
1.621747 -0.098149791 0.83046401 1.436769e-38
1.6285522 -0.11109857 0.83081084 1.2525948e-38
1.6357108 -0.12384526 0.83116305 1.3172026e-38
1.642337 -0.13689645 0.83150715 1.3539372e-38
1.6486244 -0.15014128 0.83184612 1.409218e-38
1.6552178 -0.16321111 0.83218962 1.326386e-38
1.6756315 -0.20205849 0.83323002 1.1144443e-38
1.5351114 0.03820803 0.82645965 1.2068211e-38
1.5417994 0.025192255 0.82680458 1.2436269e-38
1.5480096 0.011903318 0.82714236 1.3724485e-38
1.5547985 -0.0010548215 0.82748896 1.5106691e-38
1.5616102 -0.013999934 0.82783592 1.5658426e-38
1.5677443 -0.027332466 0.82817245 1.6302713e-38
1.5746703 -0.040212095 0.82852107 1.6119037e-38
1.5814943 -0.053150088 0.82886827 1.6855523e-38
1.5886438 -0.065902032 0.82922029 1.676369e-38
1.5952793 -0.078947864 0.82956445 1.6763686e-38
1.6016332 -0.092154704 0.8299045 1.6026843e-38
1.6084472 -0.10509842 0.8302514 1.4646076e-38
1.6150122 -0.11818449 0.83059454 1.3079482e-38
1.6218449 -0.13111757 0.83094186 1.3172388e-38
1.6282696 -0.14428394 0.83128279 1.2987636e-38
1.635578 -0.15694493 0.83163732 1.2803244e-38
1.6398729 -0.17126231 0.83194482 1.2710326e-38
1.6482958 -0.18335293 0.83231735 1.2710328e-38
1.6555591 -0.19603969 0.83267123 1.0592715e-38
1.6593775 -0.21058302 0.83297074 1.5379324e-38
1.6689601 -0.21842304 0.83330917 1.1052268e-38
1.5247339 0.06473656 0.8258329 9.5814665e-39
1.5292604 0.051702507 0.82612735 1.2068935e-38
1.5357746 0.0055636158 0.82694602 9.9487973e-39
1.5423874 -0.0074952706 0.82728994 9.7626138e-39
1.5489062 -0.020607848 0.82763237 1.2342273e-38
1.5548787 -0.034032777 0.82796645 1.1328492e-38
1.5617986 -0.046915814 0.82831508 1.3076236e-38
1.5658541 -0.061315276 0.82861811 1.1879502e-38
1.5740561 -0.073540144 0.8289873 1.4644993e-38
1.5806273 -0.086616039 0.8293305 1.3077675e-38
1.587984 -0.096859813 0.8296513 1.5290362e-38
1.596029 -0.11160488 0.83005321 1.3817042e-38
1.603544 -0.12419271 0.83041155 1.4553167e-38
1.6089786 -0.13785209 0.83073628 1.2895801e-38
1.6165212 -0.15042371 0.8310951 1.2803244e-38
1.6234101 -0.16334267 0.83144343 1.3815595e-38
1.6276999 -0.17763346 0.83175039 1.2342264e-38
1.6373919 -0.18904981 0.83214301 1.427586e-38
1.6433872 -0.20242539 0.83247697 1.2985121e-38
1.6475508 -0.21680261 0.83278227 1.4549922e-38
1.5207789 0.047348026 0.82599062 8.7524289e-39
1.5228177 0.034527153 0.82622349 8.5680461e-39
1.5283575 0.018277062 0.82658815 7.830481e-39
1.5740696 -0.10660303 0.82946455 1.2894004e-38
1.5803654 -0.1198431 0.82980359 1.4001069e-38
1.6240218 -0.21260417 0.83216828 1.0864996e-38
1.5358481 -0.027721614 0.82742786 1.0686715e-38
1.5428499 -0.040254489 0.82777327 1.0870399e-38
1.5477382 -0.054220319 0.82808965 8.1970817e-39
1.554793 -0.065293878 0.82841533 1.0128874e-38
1.5611624 -0.080303334 0.82878166 1.4369125e-38
1.5680108 -0.093227468 0.8291291 1.2248639e-38
1.5890089 -0.13174067 0.83017844 1.3908512e-38
1.5953256 -0.14496869 0.83051789 1.3632284e-38
1.6019161 -0.15804029 0.83086139 1.4184022e-38
1.6081787 -0.17129928 0.83119994 1.2434463e-38
1.6152894 -0.18407336 0.83155143 1.2710687e-38
1.6214985 -0.19736306 0.83188915 1.234299e-38
1.5236501 0.0023641104 0.82670701 9.4903513e-39
1.5305533 -0.013605517 0.82709974 1.0687092e-38
1.5345098 -0.061207075 0.82787931 8.9378712e-39
1.548193 -0.087062985 0.82857412 9.0289892e-39
1.5543721 -0.1003698 0.8289113 1.3631567e-38
1.5606685 -0.11360946 0.8292504 1.6303076e-38
1.5668551 -0.12691207 0.82958782 1.1974936e-38
1.5745569 -0.13934799 0.82994825 1.0499803e-38
1.5813478 -0.15230502 0.83029491 1.4368766e-38
1.5849336 -0.16698906 0.83059102 1.3171666e-38
1.5947253 -0.17833579 0.83098495 1.3447896e-38
1.6007237 -0.19174577 0.83131951 1.4092539e-38
1.6083 -0.20425376 0.83167809 8.3811171e-39
1.6119791 -0.21614736 0.83193618 8.838145e-39
1.5226784 -0.034123018 0.82721043 8.6613109e-39
1.5317959 -0.046034954 0.82759666 8.3811227e-39
1.5415816 -0.074003369 0.8282302 8.9367894e-39
1.5181816 -0.02002354 0.82690132 5.2522474e-39
1.5150758 -0.054823127 0.82733017 4.4221392e-39
1.521875 -0.067775257 0.82767689 2.9462903e-39
1.5285317 -0.080808982 0.82802153 3.409432e-39
1.5359219 -0.097389348 0.82843435 8.292164e-39
1.5429711 -0.10888904 0.82876605 1.2251157e-38
1.5480858 -0.12014808 0.82904881 1.5935775e-38
1.552506 -0.13435952 0.82935774 7.4606335e-39
1.5616846 -0.14605211 0.82974219 6.9074626e-39
1.5677913 -0.16016096 0.83008933 1.1974559e-38
1.5739825 -0.17270027 0.83041584 1.2619214e-38
1.5795307 -0.18439002 0.830715 1.2527377e-38
1.5882775 -0.19820626 0.83111989 9.5792833e-39
1.5945821 -0.21216525 0.83146954 1.6394553e-38
1.5121059 -0.041973878 0.82707494 2.4874799e-39
1.5362047 -0.12635081 0.82885879 7.8347858e-39
1.5409784 -0.14039576 0.82917368 5.6171175e-39
1.5479093 -0.15310793 0.82952005 1.0134252e-38
1.5539227 -0.16667405 0.82985711 1.2067109e-38
1.5610188 -0.17945644 0.83020842 1.3539723e-38
1.5679265 -0.19234671 0.83055675 1.0501949e-38
1.5744019 -0.20500523 0.83089167 1.1604717e-38
1.5404875 -0.17370006 0.82964247 9.7651193e-39
1.5474913 -0.18653533 0.82999235 9.4888771e-39
1.5631354 -0.22035497 0.8308481 1.0774994e-38
1.5352811 -0.1598371 0.82932001 7.6478568e-39
1.554785 -0.1991425 0.83034575 4.8805782e-39
1.5618439 -0.21200837 0.8306973 1.3355708e-38
1.547901 -0.21821773 0.83045888 4.0468939e-39
1.5292926 -0.17941846 0.82946157 5.8071826e-39
1.5350759 -0.1902203 0.8297534 3.9618519e-39
1.5447493 -0.2042868 0.8301838 3.4090579e-39
2.0146456 0.53678608 0.83054709 1.5296507e-38
1.9945344 0.54278266 0.82998759 1.787474e-38
2.0147014 0.50379419 0.83102429 1.594079e-38
2.0017452 0.53006566 0.83034068 1.7413762e-38
1.9785928 0.53444827 0.82973289 1.8334635e-38
1.9922938 0.50859195 0.83042812 1.7505596e-38
1.9982659 0.49520355 0.83076167 1.7413761e-38
2.0080731 0.48309994 0.83116692 1.8149158e-38
2.0132818 0.47001854 0.83147806 1.7595986e-38
2.0203378 0.45719266 0.83182907 1.8148436e-38
2.0283344 0.44488591 0.83219457 1.750379e-38
1.9674513 0.52860898 0.82955503 1.8150245e-38
1.9768542 0.51703489 0.82994312 1.7137533e-38
1.9804571 0.50236577 0.83023947 1.6860947e-38
1.9876565 0.48964232 0.83059233 1.7597792e-38
2.0007091 0.46342584 0.83127749 1.7503431e-38
2.0076277 0.45054194 0.831626 1.870089e-38
2.0165052 0.43870857 0.8320055 1.7411594e-38
2.0213969 0.42473513 0.83232212 1.8608697e-38
2.027971 0.4116545 0.83266532 1.8700893e-38
2.0350914 0.39888564 0.83301705 1.7319036e-38
1.9538741 0.5215019 0.82933819 1.5848234e-38
1.9670947 0.49538141 0.83002591 1.7229371e-38
2.0009336 0.43053067 0.83175719 1.8978198e-38
2.0074165 0.4173975 0.83209908 1.9069677e-38
1.9482294 0.53511429 0.82900918 1.9070758e-38
1.9610635 0.50877285 0.82969087 1.7229371e-38
1.9742724 0.48264566 0.83037841 1.5940073e-38
1.9878646 0.45673773 0.83107179 1.8240995e-38
1.9944925 0.44368759 0.83141595 1.9346978e-38
2.0147264 0.40473732 0.83245367 1.870089e-38
1.9080303 0.58014458 0.82741416 1.5572368e-38
1.9213587 0.55408591 0.82810354 1.6217378e-38
1.9278145 0.54093724 0.82844496 1.6677636e-38
1.940632 0.51458639 0.82912648 1.6676919e-38
1.9473518 0.50158882 0.82947201 1.7597433e-38
1.9510797 0.48701125 0.82976997 1.686059e-38
1.9609479 0.47568297 0.83016545 1.6953141e-38
1.9642738 0.46090221 0.83045691 2.0175298e-38
1.9712436 0.44802123 0.83080661 1.8425023e-38
1.9784924 0.43529594 0.8311606 1.851758e-38
1.9855469 0.42247185 0.83151156 1.9531011e-38
1.991973 0.40932852 0.83185226 1.7596703e-38
2.001286 0.39770848 0.83223885 1.8793087e-38
2.0067935 0.3840377 0.83256561 1.8793447e-38
1.8805642 0.59965366 0.82648671 2.1371679e-38
1.8872147 0.58564162 0.82684535 1.5572371e-38
1.8946239 0.57313508 0.82719994 1.7228649e-38
1.8978935 0.55831826 0.82749057 1.6308492e-38
1.9055525 0.54580134 0.82785118 1.6492879e-38
1.9126563 0.53301203 0.82820278 1.6769466e-38
1.9207358 0.52089697 0.8285675 1.5664926e-38
1.9270567 0.50849217 0.82889515 1.6860947e-38
1.9360678 0.49568692 0.82929176 1.722937e-38
1.9404308 0.48144746 0.8295998 1.6492528e-38
1.9479187 0.46887371 0.82995719 1.6861303e-38
1.9535085 0.45524541 0.83028525 1.9714682e-38
1.9603326 0.4423075 0.83063239 1.8425025e-38
1.9670247 0.42929396 0.8309775 1.9070393e-38
1.9736651 0.41625103 0.83132184 1.934698e-38
1.9802054 0.40315071 0.83166462 1.7412312e-38
1.9906435 0.39211544 0.83206928 1.7227562e-38
1.9936736 0.37717184 0.83235604 1.9069674e-38
2.000174 0.36404884 0.83269823 1.8424659e-38
1.8658761 0.59103328 0.82626563 1.7505225e-38
1.9398376 0.44808474 0.83006704 1.796477e-38
1.9465742 0.43509659 0.83041286 1.7872568e-38
1.9533626 0.42213824 0.83075935 1.9162225e-38
1.9595213 0.40881982 0.83109635 1.8700894e-38
1.9665794 0.3960157 0.83144701 1.7595628e-38
1.973386 0.38306779 0.83179384 1.8700893e-38
1.9799418 0.36997637 0.83213687 1.8608699e-38
1.9865282 0.35690242 0.83248037 1.7319399e-38
1.9932119 0.34388414 0.83282524 1.7135002e-38
2.0003128 0.33110455 0.83317667 1.8055878e-38
1.8746108 0.57918781 0.82664192 1.5572732e-38
1.8825585 0.56682879 0.82700717 1.7504877e-38
1.900322 0.52652955 0.82800615 1.6861303e-38
1.9076896 0.51390243 0.82836163 1.7136814e-38
1.9142534 0.50081563 0.82870471 1.7136455e-38
1.9206387 0.48762673 0.82904512 1.6953141e-38
1.9271814 0.47452778 0.82938802 1.5387978e-38
1.9342268 0.46171644 0.82973844 1.9070033e-38
2.0479751 0.24047789 0.83560485 1.6765503e-38
1.8469138 0.59768695 0.82572371 2.0727752e-38
1.8532368 0.58446246 0.8260631 1.4560375e-38
1.8805238 0.53270531 0.82745147 1.6308134e-38
1.8871292 0.51964223 0.82779527 1.6308131e-38
1.8937181 0.5065698 0.82813871 1.6675833e-38
1.900458 0.49358365 0.82848459 1.7504515e-38
1.9066895 0.4803068 0.82882261 1.6400324e-38
1.9139969 0.46764532 0.82917708 1.5019914e-38
1.9209642 0.45478919 0.82952642 1.8701257e-38
1.9239144 0.43976074 0.82981259 1.8793444e-38
1.9314622 0.4271895 0.83017147 1.7780014e-38
1.939742 0.41500634 0.83054191 1.8516856e-38
1.9464852 0.402022 0.83088779 1.8700531e-38
1.9527204 0.38752627 0.83124352 1.8884567e-38
1.9607415 0.37642869 0.8315922 1.8516504e-38
1.9684238 0.36392093 0.83195329 1.7411594e-38
1.9741969 0.35044402 0.83228344 1.7042811e-38
1.9809914 0.33748561 0.83263016 1.6858777e-38
1.9930145 0.31112605 0.83329314 1.8423944e-38
2.0003481 0.2971147 0.83366776 1.8423581e-38
2.0117307 0.27102682 0.83431172 1.7778216e-38
2.0204034 0.25904864 0.83468848 1.9159344e-38
2.0271153 0.24604665 0.83503383 1.8699448e-38
1.8607754 0.57193303 0.82642114 1.5387614e-38
1.8674164 0.55889046 0.82676548 1.6400328e-38
1.8741965 0.54592729 0.8271119 1.6123742e-38
1.8333762 0.59134138 0.82549673 1.7780374e-38
1.8387721 0.58008999 0.82578593 1.5203951e-38
1.8473899 0.56493556 0.82620722 1.6860588e-38
1.8538481 0.55178833 0.82654881 1.6032273e-38
1.8601154 0.53853196 0.82688737 1.6308134e-38
1.8662833 0.52616298 0.82721084 1.5756039e-38
1.8733411 0.51241148 0.82757527 1.6308128e-38
1.8810188 0.49843749 0.82795733 1.7504512e-38
1.8839214 0.48494592 0.82822025 1.5111748e-38
1.8936679 0.47359541 0.82861316 1.5664202e-38
1.8980783 0.4593266 0.82892269 1.5755679e-38
1.9062817 0.44502956 0.82932186 1.8701253e-38
1.9129254 0.43400872 0.82963699 1.8701609e-38
1.9193643 0.4208506 0.82997829 1.7872568e-38
1.9265538 0.40843734 0.83032644 1.7871851e-38
1.9336469 0.39653298 0.83066499 1.7871854e-38
1.9398886 0.3820664 0.83102041 1.9068598e-38
1.9456087 0.36849725 0.83135062 1.777966e-38
1.9524345 0.35556018 0.83169776 1.8883843e-38
1.9597498 0.34290317 0.83205241 1.8884561e-38
1.9661342 0.32971367 0.83239281 1.9068952e-38
1.9725521 0.3165434 0.83273369 1.7319036e-38
1.9793732 0.30360377 0.83308077 1.8976755e-38
1.9928769 0.2776452 0.83377284 1.7133929e-38
2.0002532 0.26502305 0.83412832 1.8330667e-38
2.007349 0.2527611 0.83447206 1.823883e-38
2.0143297 0.23992372 0.83482146 1.8699088e-38
2.0273066 0.21313217 0.83551306 1.8422142e-38
2.0374086 0.20190524 0.83591259 1.6488199e-38
2.0406539 0.18708426 0.83620274 1.7870049e-38
1.9320598 0.36140618 0.83113432 1.7503431e-38
1.9394093 0.34876871 0.83148944 1.9068952e-38
1.9462283 0.33582777 0.83183646 1.7687461e-38
1.958967 0.30943176 0.83251679 1.9160786e-38
1.9660872 0.29666314 0.83286846 1.8976395e-38
1.9723543 0.28340673 0.83320701 1.8147718e-38
1.9796824 0.27075693 0.83356178 1.7962966e-38
1.9863385 0.25772288 0.83390641 1.8054797e-38
1.9934146 0.24492908 0.83425736 1.8147355e-38
2.0000763 0.23189816 0.83460194 1.7041733e-38
2.0065293 0.21874812 0.83494341 1.6949537e-38
2.0269742 0.17991839 0.83598435 1.6304528e-38
2.033654 0.16689797 0.83632922 1.7133201e-38
1.814561 0.59725767 0.82496893 2.0820664e-38
1.819702 0.58343977 0.82528919 1.492808e-38
1.8253906 0.57261956 0.82557905 1.5940793e-38
1.8337237 0.55779147 0.82598889 1.6400329e-38
1.8387506 0.54392582 0.82630706 1.7689626e-38
1.8485309 0.53374755 0.82668394 1.5847877e-38
1.853337 0.51847231 0.82701731 1.6859867e-38
1.8599591 0.50541896 0.82736129 1.5387618e-38
1.8668513 0.49251992 0.82770944 1.5387616e-38
1.8737487 0.47962379 0.82805771 1.5203585e-38
1.8802141 0.46648073 0.8283993 1.5387256e-38
1.8868371 0.45342782 0.82874334 1.5203587e-38
1.8936327 0.44047353 0.82909006 1.8701253e-38
1.89977 0.42714283 0.82942671 1.851722e-38
1.9065982 0.41420725 0.82977384 1.8608336e-38
1.9139715 0.40158331 0.83012933 1.7503786e-38
1.9205061 0.3884798 0.83047205 1.7595982e-38
1.9270154 0.3753618 0.8308143 1.8700893e-38
1.9532632 0.32301039 0.83218682 1.9252985e-38
2.0139079 0.20612714 0.83529896 1.6673309e-38
2.0207458 0.19319707 0.83564627 1.8330308e-38
2.2091384 -0.2153247 0.84596962 1.6487861e-38
1.7992235 0.58922642 0.82472402 1.492844e-38
1.8666191 0.45936346 0.82818222 1.7780743e-38
1.8732141 0.44629452 0.8285259 1.6308131e-38
1.8792586 0.43291074 0.82886106 1.7504146e-38
1.8864986 0.42021054 0.82921457 1.7503431e-38
1.8931344 0.40716487 0.82955879 1.8792734e-38
1.9065984 0.38118365 0.83025008 1.8793087e-38
1.9100591 0.36645073 0.83054405 1.8424662e-38
1.9185563 0.35418385 0.83092082 1.8148078e-38
1.9272007 0.34234834 0.83129489 1.7871491e-38
1.9329727 0.32886666 0.83162504 1.9989828e-38
1.9397781 0.31591123 0.831972 1.9528851e-38
1.9478098 0.30359161 0.83233857 1.7503427e-38
1.9541032 0.29037029 0.8326773 1.7503068e-38
1.9600099 0.27696097 0.83300966 1.6766584e-38
1.9673713 0.26175573 0.8334021 1.7686737e-38
1.9707321 0.24956374 0.83365703 1.8515058e-38
1.9796158 0.23769516 0.83403713 1.8791288e-38
1.9870185 0.22508805 0.83439308 1.7962963e-38
1.9927006 0.21150412 0.83472264 1.6765145e-38
2.0003572 0.19903512 0.83508259 1.6488916e-38
2.006222 0.18606369 0.83540756 1.6396364e-38
1.7939707 0.60306293 0.82440096 2.0452237e-38
1.8067081 0.57666612 0.82508123 1.4468184e-38
1.8134036 0.56365472 0.8254264 1.6309213e-38
1.8200443 0.55061179 0.82577062 1.6031908e-38
1.8272442 0.53788871 0.82612348 1.8425751e-38
1.8338971 0.52485287 0.82646799 1.7413041e-38
1.8400774 0.51154679 0.82680535 1.6215578e-38
1.8467367 0.49851459 0.82714987 1.5571648e-38
1.85385 0.48574197 0.82750142 1.6491803e-38
1.8601542 0.47250679 0.82784057 1.6860227e-38
1.7797021 0.59556031 0.82417351 1.8425379e-38
1.7861811 0.582425 0.8245154 1.6308854e-38
1.7934121 0.56971979 0.82486868 1.6677988e-38
1.7997366 0.55649614 0.82520819 1.630921e-38
1.8067811 0.54368412 0.8255586 1.6585082e-38
1.8137798 0.53084612 0.82590836 1.612482e-38
1.820218 0.51768732 0.82624966 1.6584718e-38
1.8272521 0.50486952 0.8265999 1.6400331e-38
1.8402959 0.47864801 0.82728499 1.6124102e-38
1.8468423 0.46555129 0.82762778 1.7229007e-38
1.8533024 0.45240515 0.82796943 1.4927e-38
1.8566982 0.43765813 0.82826197 1.6399605e-38
1.8668774 0.42689219 0.82865661 1.7595623e-38
1.8715564 0.41240141 0.82897568 1.8976757e-38
1.8783886 0.39945948 0.82932305 1.86087e-38
1.8844898 0.38614663 0.82965857 1.879309e-38
1.8930026 0.37367898 0.83003861 1.8608697e-38
1.8987794 0.36052889 0.83036417 1.85165e-38
1.9062098 0.34793773 0.8307206 1.8424663e-38
1.9120823 0.33445558 0.83105314 1.8607974e-38
1.919397 0.32179821 0.83140773 1.8792364e-38
1.9255182 0.30845821 0.83174407 1.8700526e-38
1.932266 0.29547665 0.83209002 1.8884195e-38
1.9390525 0.28251719 0.83243662 1.7318676e-38
1.9463418 0.26984528 0.83279079 1.8331386e-38
1.952525 0.25654089 0.83312815 1.823847e-38
1.9597332 0.24382256 0.83348107 1.8423225e-38
1.9685513 0.23193695 0.83385992 1.805516e-38
1.9756374 0.21911623 0.83421159 1.7962243e-38
1.9797205 0.20473129 0.83451504 1.6765145e-38
1.9894859 0.19333264 0.83490914 1.6489278e-38
1.9931264 0.17871685 0.83520555 1.6212693e-38
2.000072 0.16584823 0.83555454 1.8513978e-38
2.0065641 0.15272059 0.83589655 1.8606173e-38
2.0334659 0.1007431 0.83727896 1.6027219e-38
1.8854808 0.35358116 0.83015162 1.7319037e-38
1.8920507 0.34049785 0.83049482 1.750307e-38
1.9119637 0.30136415 0.83152753 1.7226837e-38
1.9184012 0.28820509 0.83186883 1.7134642e-38
1.9253881 0.2753602 0.83221847 1.8423579e-38
1.9321737 0.26240024 0.83256501 1.6949893e-38
1.9389313 0.24942423 0.83291101 1.6765503e-38
1.9459487 0.23659681 0.83326107 1.6857703e-38
1.9594589 0.21064197 0.8339532 1.7041732e-38
1.972718 0.18454354 0.83464152 1.786969e-38
1.979434 0.17154381 0.83498698 1.6396722e-38
1.9859922 0.15845381 0.83533001 1.8974594e-38
2.0060775 0.1194187 0.83636546 1.6303805e-38
2.0131967 0.10664941 0.83671707 1.6580036e-38
2.0401411 0.054696321 0.83810014 1.4462443e-38
1.766819 0.58921164 0.82396209 1.5940426e-38
1.7746137 0.57443023 0.82435864 1.5848955e-38
1.7789656 0.56216359 0.82463789 1.4651489e-38
1.7869136 0.54934388 0.8250097 1.5296503e-38
1.7921649 0.53604215 0.82532513 1.6585078e-38
1.7979929 0.52258343 0.82565635 1.7045336e-38
1.8056222 0.51005691 0.82601637 1.6860942e-38
1.8114755 0.49661899 0.82634795 1.7413036e-38
1.8175256 0.48327428 0.82668269 1.7136448e-38
1.8264208 0.47139326 0.82706326 1.7228288e-38
1.8338997 0.45714954 0.82744461 1.5387258e-38
1.842593 0.4468016 0.82779831 1.4651133e-38
1.8465261 0.43234685 0.82809925 1.7872211e-38
1.8523318 0.41882634 0.82843083 1.7504146e-38
1.8591895 0.40590775 0.82877845 1.8976757e-38
1.8660882 0.3930124 0.82912678 1.8516504e-38
1.8727174 0.37996295 0.82947087 1.897748e-38
1.8791249 0.36678675 0.82981157 1.8608697e-38
1.8994794 0.32790557 0.8308512 1.851578e-38
1.9060543 0.31482512 0.83119452 1.7963682e-38
1.9528106 0.22368047 0.83360887 1.7041733e-38
1.9664048 0.19777365 0.83430225 1.8238471e-38
2.0201371 0.09377791 0.83706594 1.6856253e-38
2.0271192 0.08093027 0.83741552 1.8237025e-38
2.0334883 0.067732126 0.83775562 1.7316875e-38
2.165143 -0.22400478 0.84505999 1.7414923e-38
1.8193461 0.45114142 0.82718891 1.5295062e-38
1.8392906 0.41202593 0.82822222 1.8332468e-38
1.8420451 0.39691365 0.82850504 1.8700172e-38
1.8522184 0.38573799 0.82890546 1.8608333e-38
1.8590474 0.37280276 0.82925266 1.870125e-38
1.8659599 0.35991541 0.82960111 1.8240269e-38
1.8724074 0.34676206 0.82994252 1.869981e-38
1.8769473 0.33258736 0.83025372 1.9252623e-38
1.8856294 0.32064244 0.83063024 1.9437012e-38
1.891992 0.30744049 0.83097023 1.7318673e-38
1.8986582 0.29441229 0.83131492 1.7226839e-38
1.9057826 0.28164604 0.83166665 1.7226482e-38
1.9113271 0.26800123 0.83199388 1.7962602e-38
1.9161674 0.25403896 0.83230901 1.7870764e-38
1.9234624 0.24133447 0.83266389 1.7133923e-38
1.9325806 0.22960927 0.83304745 1.6857343e-38
1.9387416 0.21629208 0.83338439 1.6489277e-38
1.944486 0.20278497 0.83371437 1.6581112e-38
1.9526455 0.19056238 0.8340826 1.6488916e-38
1.9596188 0.17770979 0.83443201 1.7593461e-38
1.9665706 0.1648448 0.83478099 1.7961519e-38
1.972692 0.14897978 0.83515388 1.7685296e-38
1.9803921 0.13898428 0.83547914 1.704101e-38
1.9845846 0.12593824 0.8357659 1.6396359e-38
1.9930998 0.11265428 0.8361578 1.6395642e-38
1.9999183 0.099713139 0.83650476 1.6763706e-38
2.0065382 0.086658441 0.8368488 1.7685293e-38
2.0132279 0.073643409 0.83719385 1.7685295e-38
2.0201066 0.060736742 0.83754176 1.704138e-38
1.7476501 0.59657836 0.82340491 1.8610131e-38
1.7525735 0.58136082 0.82374024 1.5388339e-38
1.7593198 0.56837827 0.82408613 1.5019197e-38
1.7659886 0.5553515 0.82443094 1.4651489e-38
1.7732544 0.5426662 0.82478476 1.6769112e-38
1.7799832 0.5296737 0.82513046 1.612446e-38
1.7869905 0.51684058 0.82548028 1.7321561e-38
1.7932798 0.50359678 0.82581931 1.6585075e-38
1.7999265 0.49055734 0.82616365 1.7412678e-38
1.8067569 0.47762299 0.82651091 1.6768387e-38
1.8130602 0.46438718 0.82685012 1.7320483e-38
1.826435 0.43835488 0.8275401 1.6031547e-38
1.8331933 0.42537934 0.82788622 1.851686e-38
1.7260391 0.60052449 0.8228398 1.9991625e-38
1.7324201 0.58733326 0.82318014 1.4743685e-38
1.739163 0.57434881 0.82352597 1.6308132e-38
1.7457038 0.56124884 0.82386875 1.4836242e-38
1.7522447 0.54814899 0.82421148 1.4467462e-38
1.7795277 0.49638945 0.82559979 1.5847874e-38
1.786263 0.48340073 0.8259455 1.61241e-38
1.7930069 0.4704169 0.82629144 1.6952421e-38
1.7996275 0.45736259 0.82663542 1.6031903e-38
1.806255 0.44431219 0.82697958 1.4835163e-38
1.8127091 0.43116269 0.82732099 1.4926998e-38
1.8198212 0.41838938 0.82767254 1.7227923e-38
1.8252586 0.40429008 0.8280037 1.7779655e-38
1.8312095 0.39122126 0.82833219 1.8607977e-38
1.8387655 0.37803891 0.82870007 1.8148075e-38
1.8470279 0.36649901 0.82906091 1.8793086e-38
1.8538188 0.35353538 0.82940757 1.8792721e-38
1.8603151 0.34042677 0.82974941 1.8607615e-38
1.8650501 0.32637131 0.83006346 1.9068593e-38
1.8750906 0.31511277 0.8304621 1.8516136e-38
1.8802774 0.30005097 0.83080125 1.7595261e-38
1.8852202 0.28742373 0.83109969 1.8699091e-38
1.8925933 0.27284488 0.83148336 1.7226119e-38
1.8985438 0.26132306 0.83178955 1.6581828e-38
1.90539 0.24839778 0.83213699 1.79626e-38
1.9120588 0.2353711 0.83248174 1.7686375e-38
1.9212658 0.22369243 0.83286673 1.8330668e-38
1.9266769 0.21002321 0.83319116 1.7870765e-38
1.9324167 0.1964917 0.83352125 1.6673308e-38
1.9412436 0.18460754 0.83390027 1.6580753e-38
1.9476475 0.17144521 0.83424079 1.6488196e-38
1.9517653 0.15835701 0.83452642 1.7224678e-38
1.9582679 0.14391346 0.83488768 1.6211612e-38
1.9652752 0.1310803 0.83523762 1.6672586e-38
1.9727626 0.11852161 0.83559483 1.6119774e-38
1.981125 0.10639732 0.83596629 1.8329585e-38
1.9889742 0.093976185 0.83633012 1.8605812e-38
1.9946344 0.080436088 0.83665854 1.7501262e-38
1.9996749 0.066918738 0.83697206 1.6672589e-38
2.0085015 0.054659098 0.83735651 1.4094373e-38
2.0125067 0.040207297 0.83765912 1.5843923e-38
2.0196884 0.027473828 0.83801174 1.4185859e-38
2.0263174 0.014424431 0.83835584 1.2623579e-38
1.7600139 0.53575146 0.8245731 1.6492885e-38
1.76694 0.52287179 0.82492173 1.7229002e-38
1.7735037 0.50978494 0.82526493 1.7137167e-38
2.1247573 -0.22188462 0.84407955 1.4466057e-38
1.8376993 0.3450684 0.82915056 1.7135003e-38
1.8507419 0.31884617 0.82983547 1.7042811e-38
1.858254 0.30630156 0.83019316 1.7134649e-38
1.9252504 0.17621027 0.83364528 1.8514692e-38
1.9452268 0.13711284 0.83467901 1.8237744e-38
1.9522401 0.12428313 0.83502907 1.9066423e-38
1.972397 0.085288852 0.83606553 1.8696923e-38
1.9787521 0.072082683 0.83640552 1.7684929e-38
1.9924847 0.046255026 0.83710104 1.510706e-38
1.99893 0.033100452 0.83744234 1.3634463e-38
2.0059466 0.020272708 0.83779246 1.3725588e-38
2.0126615 0.0072721029 0.83813787 1.4922694e-38
1.7126973 0.59349239 0.82262737 1.5665284e-38
1.7201886 0.58091319 0.82298505 1.4836242e-38
1.7233968 0.56847543 0.82323986 1.575568e-38
1.730849 0.55349851 0.82363117 1.649216e-38
1.7390153 0.5412522 0.82399982 1.5019914e-38
1.7465197 0.52869171 0.82435751 1.6492523e-38
1.7597075 0.50255251 0.82504469 1.667619e-38
1.7631083 0.48782024 0.82533717 1.7044252e-38
1.7731059 0.47545111 0.82575071 1.7320838e-38
1.7796661 0.46209472 0.82609773 1.6123738e-38
1.7869738 0.45072946 0.82643354 1.5572006e-38
1.7921594 0.43765208 0.82674408 1.5386895e-38
1.8015161 0.4253003 0.8271423 1.4834803e-38
1.8053997 0.41139144 0.82743424 1.7411952e-38
1.8118594 0.39765304 0.8277843 1.7411234e-38
1.8181989 0.3844381 0.82812411 1.7962966e-38
1.8250926 0.37153983 0.82847226 1.7043165e-38
1.8315138 0.35837153 0.8288132 1.713608e-38
1.8448458 0.33231476 0.82950258 1.8515781e-38
1.8653946 0.29354456 0.83054507 1.8239552e-38
1.872041 0.28050503 0.83088946 1.8790926e-38
1.8784904 0.26735285 0.83123088 1.7962605e-38
1.8853408 0.25443 0.83157843 1.8054802e-38
1.8921596 0.24148901 0.83192539 1.7870408e-38
1.8990188 0.22857109 0.83227313 1.6581474e-38
1.9054005 0.21538021 0.83261347 1.6673302e-38
1.9125136 0.20260742 0.8329649 1.7778209e-38
1.9190556 0.1895081 0.83330774 1.8699084e-38
1.9325665 0.16355374 0.83399987 1.6672585e-38
1.9399201 0.1509186 0.83435506 1.8238104e-38
1.9596874 0.11170144 0.83538562 1.8698365e-38
1.9659748 0.098456666 0.83572465 1.6764063e-38
1.9859856 0.059378874 0.83675885 1.9987655e-38
1.7985986 0.39072686 0.82757235 1.7595624e-38
1.8053173 0.37772858 0.82791781 1.7227561e-38
1.8117833 0.36458591 0.82825947 1.7964404e-38
1.8178093 0.35119158 0.82859445 1.7135002e-38
1.8239354 0.33811653 0.8289271 1.8147716e-38
1.8315356 0.32421094 0.82930636 1.7503067e-38
1.8379488 0.31218734 0.82963067 1.7134642e-38
1.8451161 0.29944575 0.82998306 1.7134282e-38
1.8511531 0.28605771 0.83031815 1.8238829e-38
1.8582819 0.27329382 0.83066988 1.833103e-38
1.8652682 0.26044878 0.83101946 1.8055156e-38
1.8721395 0.24753769 0.83136725 1.787041e-38
1.8785887 0.23438543 0.83170867 1.6212694e-38
1.8850952 0.22126579 0.83205098 1.7778216e-38
1.8923937 0.20859918 0.83240533 1.8054437e-38
1.8988426 0.19544658 0.83274674 1.7961527e-38
1.9056156 0.18247935 0.83309305 1.777785e-38
1.9119505 0.16926168 0.83343273 1.7501258e-38
1.9195415 0.15676232 0.83379149 1.7685655e-38
1.9251418 0.14312455 0.83411998 1.796188e-38
1.9321667 0.13030143 0.83447009 1.658039e-38
1.9388207 0.11726619 0.83481461 1.8513612e-38
1.945587 0.10429514 0.83516085 1.6580386e-38
1.9525476 0.091435179 0.83551002 1.6395996e-38
1.9556723 0.076544069 0.83579826 1.6763698e-38
1.9665219 0.065745831 0.83620924 1.7500539e-38
1.9722222 0.052165218 0.83653921 1.7316867e-38
1.9757682 0.037507523 0.83683401 1.6580378e-38
1.9857607 0.025765426 0.83723843 1.2529209e-38
1.9921108 0.010901112 0.83760214 1.5199265e-38
2.0045166 -0.012232493 0.83822763 1.3266415e-38
2.0111368 -0.026568625 0.83859003 1.5106721e-38
2.0247765 -0.052453581 0.8392843 2.0275446e-38
1.6925566 0.59953189 0.82206655 2.0359325e-38
1.6990818 0.58642298 0.82240909 1.5386896e-38
1.7051272 0.57303977 0.82274437 1.501991e-38
1.712193 0.56024003 0.82309514 1.5571649e-38
1.7186499 0.54709202 0.82343668 1.7504869e-38
1.7258762 0.53438413 0.82378995 1.4927719e-38
1.7339972 0.52214676 0.82415736 1.6585078e-38
1.7401376 0.50885051 0.82449353 1.7505231e-38
1.7486858 0.49679455 0.82486856 1.6216655e-38
1.7527936 0.4824155 0.8251726 1.686022e-38
1.7589986 0.46912357 0.82551026 1.6307408e-38
1.7657877 0.45616558 0.82585675 1.7596344e-38
1.7729177 0.44340253 0.82620859 1.6215572e-38
1.7792139 0.43016267 0.82654762 1.6123737e-38
1.7863742 0.41741702 0.82689983 1.7044255e-38
1.7926763 0.4041805 0.82723904 1.7780373e-38
1.6785004 0.59215069 0.82184243 1.4926994e-38
1.6854253 0.57927036 0.82219106 1.5203943e-38
1.6915417 0.56592768 0.82252741 1.6859863e-38
1.6986793 0.55316907 0.82287925 1.6952418e-38
1.7050616 0.5399785 0.82321966 1.6215931e-38
1.7124016 0.52733552 0.82357466 1.6952058e-38
1.7456856 0.46216735 0.82529742 1.6492158e-38
1.752025 0.44895226 0.8256371 1.6123016e-38
1.7588446 0.43601173 0.82598418 1.6491802e-38
1.7657478 0.42311898 0.82633245 1.4742246e-38
1.7727593 0.41028824 0.82668245 1.4926275e-38
1.7793131 0.3971957 0.82702547 1.8608694e-38
1.785136 0.38368517 0.82735729 1.8700527e-38
1.7886007 0.36898458 0.82765079 1.8332825e-38
1.7978733 0.35883534 0.82801527 1.8332465e-38
1.8051112 0.3435393 0.82840621 1.7871488e-38
1.8114367 0.33136395 0.82873052 1.6950613e-38
1.8179691 0.31825918 0.82907319 1.7042449e-38
1.8244579 0.30592251 0.8294037 1.8239546e-38
1.8302081 0.29166284 0.82974464 1.7686374e-38
1.8391762 0.28192836 0.83009601 1.7594542e-38
1.843621 0.26781836 0.83040404 1.8054442e-38
1.8518394 0.25376001 0.83080012 1.7870768e-38
1.8578362 0.24005778 0.83113879 1.6397081e-38
1.8657975 0.22772774 0.83150393 1.6488561e-38
1.8719376 0.21440144 0.83184046 1.722576e-38
1.8772607 0.2006883 0.83216351 1.7133564e-38
1.8836927 0.18754579 0.83250439 1.6120494e-38
1.8924841 0.17396992 0.83290684 1.7409425e-38
1.9010999 0.16358517 0.83325934 1.7501258e-38
1.9057103 0.14950243 0.8335709 1.7685296e-38
1.9142329 0.13743609 0.83394533 1.6580392e-38
1.921625 0.12477909 0.83430177 1.7869682e-38
1.9274787 0.1113387 0.83463335 1.6395996e-38
1.9346154 0.098555163 0.83498561 1.6580388e-38
1.9417996 0.085790679 0.83533865 1.6764057e-38
1.945182 0.071039788 0.83563089 1.6763698e-38
1.9540249 0.059168559 0.83601016 1.869764e-38
1.961477 0.046557523 0.83636737 1.777712e-38
1.9655936 0.032191198 0.83667141 1.639635e-38
1.9718236 0.01891355 0.83700943 1.5107776e-38
1.978713 0.0060129454 0.83735758 1.5015591e-38
1.9852805 -0.0070717554 0.83770072 1.6488918e-38
1.9919569 -0.02009408 0.8380456 1.2713961e-38
1.9990804 -0.032860905 0.8383972 1.713285e-38
2.0598953 -0.14964667 0.84151208 1.1788367e-38
1.6774539 0.59919733 0.82171619 1.4926994e-38
1.719274 0.51442522 0.82392246 1.76889e-38
1.7260474 0.50145817 0.82426888 1.6676189e-38
1.7329111 0.48854294 0.82461655 1.7228284e-38
1.7395208 0.47548237 0.82496041 1.621593e-38
1.9115132 0.10296427 0.83437866 1.6027575e-38
1.9648639 -0.0012496865 0.83713657 1.8974585e-38
1.9717419 -0.01415685 0.83748442 1.7870751e-38
1.9855134 -0.039962221 0.8381806 1.6580399e-38
1.6603146 0.59329057 0.82139832 1.4927356e-38
1.6656283 0.58544677 0.82163632 1.4835163e-38
1.6723654 0.5724591 0.82198215 1.5940063e-38
1.6764743 0.5580613 0.82228649 1.6123379e-38
1.6845299 0.54701924 0.82263517 1.8425025e-38
1.6933753 0.53190786 0.82306123 1.6031541e-38
1.6988791 0.52025962 0.82335865 1.5755317e-38
1.7059129 0.50744164 0.82370895 1.7780018e-38
1.7128159 0.49454871 0.82405722 1.5847154e-38
1.7194411 0.48149702 0.82440138 1.5847511e-38
1.7230937 0.46686485 0.82469827 1.5663119e-38
1.7317294 0.45587844 0.82505983 1.5110667e-38
1.7384623 0.44206786 0.8254174 1.6399602e-38
1.7462869 0.42942894 0.82578373 1.6031181e-38
1.7519468 0.41598403 0.82611078 1.5663119e-38
1.7593313 0.4032664 0.82646793 1.5755673e-38
1.7652631 0.39232218 0.8267653 1.7411589e-38
1.7739933 0.3778674 0.82717907 1.8516136e-38
1.7784269 0.36366522 0.82748818 1.8425019e-38
1.7844156 0.3502495 0.82782257 1.8424659e-38
1.791217 0.33729863 0.82816935 1.823991e-38
1.7984253 0.3245804 0.82852232 1.7134646e-38
1.8050297 0.31151682 0.82886606 1.8700171e-38
1.8117126 0.29849815 0.82921106 1.8515411e-38
1.8181822 0.28535745 0.82955277 1.8331023e-38
1.824904 0.27236092 0.8298983 1.8515058e-38
1.8319374 0.25954264 0.83024859 1.7041732e-38
1.838114 0.24623449 0.83058578 1.6765145e-38
1.8449647 0.23331174 0.83093333 1.6489277e-38
1.8526855 0.22073175 0.83129638 1.7133205e-38
1.8586169 0.20743814 0.83162761 1.6581471e-38
1.8654407 0.19449998 0.83197474 1.6396721e-38
1.8717149 0.18124755 0.83231348 1.5936103e-38
1.8783082 0.16817756 0.83265704 1.7777848e-38
1.8854102 0.15539849 0.83300835 1.6580751e-38
1.8922319 0.14245917 0.83335549 1.7224681e-38
1.8987092 0.12932292 0.83369726 1.7868966e-38
1.9048964 0.11602073 0.83403462 1.777677e-38
1.9186118 0.090183184 0.83472991 1.7408706e-38
1.925161 0.077088118 0.83507288 1.7224311e-38
1.9324036 0.064389482 0.83542639 1.7408343e-38
1.938845 0.051232688 0.83576763 1.759274e-38
1.9455101 0.038203787 0.83611232 1.7684572e-38
1.9522058 0.025192434 0.83645743 1.7500178e-38
1.9588057 0.01212618 0.83680111 1.6119049e-38
1.9788039 -0.02695867 0.83783525 1.5937534e-38
1.7714298 0.34348059 0.82761484 1.741051e-38
1.7978438 0.29122415 0.82898974 1.713428e-38
1.8043852 0.27812451 0.82933253 1.8699445e-38
1.8113776 0.26528284 0.82968223 1.7133926e-38
1.8179764 0.25221601 0.83002591 1.6857698e-38
1.8246809 0.23920968 0.8303712 1.7778211e-38
1.845192 0.200418 0.83141309 1.6397081e-38
1.8514768 0.18717162 0.831752 1.621269e-38
1.8581693 0.17415847 0.83209705 1.602866e-38
1.8648003 0.16111001 0.83244127 1.6856975e-38
1.8716996 0.14821504 0.83278954 1.7869329e-38
1.8786319 0.13533895 0.83313835 1.8145553e-38
1.8849077 0.12208755 0.83347702 1.7869686e-38
1.8919687 0.10928506 0.83382773 1.6119414e-38
1.8984319 0.096140705 0.83416933 1.6856256e-38
1.9053379 0.083249606 0.83451778 1.6027933e-38
1.9118562 0.070136741 0.83486009 1.6303439e-38
1.9189812 0.057370782 0.83521187 1.6027214e-38
1.9251872 0.044079412 0.83554953 1.5659152e-38
1.932044 0.031160265 0.83589715 1.5935014e-38
1.935416 0.016386338 0.83618957 1.8789833e-38
1.9422833 0.0034608773 0.83653754 1.8053353e-38
1.9520169 -0.0079392297 0.83693087 1.6579309e-38
1.9589474 -0.020816412 0.83727962 1.5843904e-38
1.9657326 -0.033776574 0.8376261 1.7225393e-38
1.9713545 -0.04622186 0.83793783 1.7593854e-38
1.9780105 -0.060436118 0.83829945 2.3142535e-38
2.0232837 -0.15105888 0.8406713 1.2063879e-38
1.6442205 0.59226441 0.82103443 1.5109946e-38
1.6525689 0.57861477 0.82142782 1.5571643e-38
1.6604263 0.56619954 0.82179159 1.5295777e-38
1.6648563 0.55198163 0.82210088 1.593899e-38
1.6712933 0.53882223 0.82244205 1.4651129e-38
1.6779625 0.52579582 0.82278687 1.4466739e-38
1.6883204 0.51473147 0.82319003 1.6215574e-38
1.6936959 0.50104338 0.82351387 1.5386896e-38
1.7003425 0.48800743 0.82385832 1.5387255e-38
1.7058935 0.47452587 0.82418323 1.6123016e-38
1.7118541 0.46097511 0.82451892 1.5754953e-38
1.7187583 0.44808298 0.82486719 1.5479446e-38
1.7250859 0.43486109 0.82520676 1.6123734e-38
1.7320132 0.42198217 0.82555544 1.547945e-38
1.7388293 0.4090395 0.82590246 1.6399602e-38
1.7486669 0.39768526 0.82629758 1.6859857e-38
1.751917 0.3828432 0.82658809 1.84243e-38
1.7587017 0.36988264 0.82693458 1.7227556e-38
1.7648629 0.35656571 0.82727158 1.7411227e-38
1.7782108 0.33051798 0.82796121 1.7594903e-38
1.7849398 0.3175256 0.82830697 1.8515777e-38
1.791702 0.30455229 0.82865304 1.851506e-38
1.8319696 0.22653736 0.83072531 1.6212693e-38
1.8391978 0.21383055 0.83107865 1.7501625e-38
1.624084 0.59375882 0.82053936 1.5294336e-38
1.6312621 0.58394867 0.8208496 1.4928079e-38
1.6580694 0.53191715 0.8222307 1.4374182e-38
1.6648929 0.51897889 0.82257771 1.4742606e-38
1.6983769 0.4539251 0.82430357 1.6399243e-38
1.7117689 0.42790264 0.82499391 1.5662757e-38
1.7186356 0.41498902 0.82534164 1.4281986e-38
1.7253624 0.40199545 0.82568729 1.5938984e-38
1.7385597 0.37586164 0.82637465 1.8055878e-38
1.7450756 0.36274752 0.82671702 1.7871844e-38
1.7491761 0.3483355 0.82702142 1.7594538e-38
1.7580603 0.33649224 0.8274011 1.7318311e-38
1.7624391 0.32224891 0.82770956 1.7686375e-38
1.7713519 0.31041244 0.82808995 1.8515417e-38
1.7783365 0.29756606 0.82843947 1.7594542e-38
1.7846811 0.28160578 0.82881892 1.8699447e-38
1.7926991 0.26973659 0.82917863 1.8146996e-38
1.7966188 0.25756466 0.82944643 1.8146274e-38
1.8034027 0.24459586 0.8297931 1.8331026e-38
1.8119067 0.23256166 0.83016658 1.8423218e-38
1.8154064 0.21786691 0.83046091 1.7870766e-38
1.8223976 0.20500627 0.83081079 1.7961884e-38
1.8317221 0.19337213 0.83119786 1.6304885e-38
1.8356415 0.17890634 0.83149874 1.6857695e-38
1.8437855 0.1666417 0.83186722 1.7593459e-38
1.8497813 0.15327533 0.832201 1.7684932e-38
1.8554218 0.13972491 0.83252913 1.7500901e-38
1.863906 0.12763114 0.83290315 1.7408705e-38
1.8714745 0.11731382 0.8332299 1.6487835e-38
1.8791987 0.10257981 0.83362406 1.6027575e-38
1.8844941 0.089593157 0.83393598 1.6948448e-38
1.8897039 0.075079754 0.8342678 1.6303797e-38
1.8992569 0.063588701 0.83465827 1.8053353e-38
1.9058626 0.050525833 0.83500201 1.6119411e-38
1.911672 0.036325548 0.83534348 1.7592732e-38
1.9202813 0.024989739 0.83570951 1.8053347e-38
1.9247702 0.010817251 0.83601952 1.9066061e-38
1.9313133 -0.0022814758 0.8363623 1.7408706e-38
1.9413462 -0.013537825 0.83676058 1.6210892e-38
1.9475837 -0.026784506 0.83709836 1.8054076e-38
1.954434 -0.039720435 0.83744615 1.5846071e-38
2.011924 -0.15826792 0.8405081 1.2708887e-38
2.0389369 -0.21018192 0.84189224 1.5838514e-38
1.6272364 0.6017381 0.82049841 1.8149155e-38
1.638384 0.571181 0.82120132 1.4927719e-38
1.6449339 0.55808628 0.82154429 1.5754954e-38
1.6517336 0.54513437 0.82189101 1.4650411e-38
1.6725477 0.50651592 0.82293749 1.5755319e-38
1.6786454 0.49316254 0.82327354 1.5846792e-38
1.6856395 0.48032179 0.82362324 1.6307408e-38
1.6920577 0.4671517 0.82396418 1.6215572e-38
1.7056062 0.44121879 0.8246569 1.5938984e-38
1.732434 0.38919896 0.82603818 1.5478369e-38
1.9044174 0.016675772 0.83545625 1.7224671e-38
1.9110659 0.0036373662 0.83580077 1.6488191e-38
1.9361622 -0.050634034 0.83717376 2.1753106e-38
1.9979582 -0.16559738 0.84028536 1.3167332e-38
2.0048318 -0.17850709 0.84063327 1.2338659e-38
1.6047351 0.60311681 0.81994927 1.7505588e-38
1.6106083 0.58883822 0.82029337 1.4651852e-38
1.6179514 0.57699388 0.82063693 1.4744052e-38
1.6248161 0.56407917 0.8209846 1.4927717e-38
1.6317661 0.55121315 0.82133371 1.584787e-38
1.6382254 0.53806663 0.82167524 1.4466741e-38
1.644244 0.52466804 0.82200998 1.5662398e-38
1.6517997 0.51214844 0.82236832 1.5110669e-38
1.6590769 0.49946967 0.82272238 1.5939348e-38
1.665514 0.48631033 0.82306355 1.5294698e-38
1.6717417 0.47303134 0.82340157 1.5570923e-38
1.6750239 0.45822209 0.82369238 1.5294338e-38
1.6825974 0.44566286 0.82405156 1.5385814e-38
1.69195 0.43406647 0.82443893 1.5753514e-38
1.6986077 0.42103341 0.82478344 1.5109586e-38
1.7054571 0.40810993 0.82513088 1.7319036e-38
1.7088096 0.39332831 0.825423 1.4925555e-38
1.7155832 0.38035974 0.82576936 1.741051e-38
1.7244518 0.36989945 0.82612884 1.6950971e-38
1.7333262 0.35656947 0.82652974 1.6766577e-38
1.737293 0.3421137 0.82683164 1.7133922e-38
1.7473215 0.3308605 0.82722974 1.8423218e-38
1.7508243 0.31617087 0.82752401 1.8239187e-38
1.7610787 0.30503225 0.82792592 1.8699088e-38
1.7648494 0.2907005 0.82822132 1.8331382e-38
1.7704737 0.27688655 0.82855278 1.8607252e-38
1.7772878 0.26394284 0.82889986 1.713428e-38
1.7837725 0.25081071 0.82924169 1.6857337e-38
1.790942 0.23807028 0.82959402 1.8331026e-38
1.80037 0.226519 0.8299824 1.8699804e-38
1.8045427 0.21216719 0.83028752 1.8607251e-38
1.8110726 0.19906102 0.83063018 1.7685659e-38
1.8212374 0.18789428 0.83103037 1.7686018e-38
1.8249528 0.17331775 0.83132803 1.6213047e-38
1.8310761 0.15997912 0.83166438 1.7869686e-38
1.8378488 0.14701162 0.83201075 1.7776769e-38
1.8447069 0.13409315 0.83235836 1.7408706e-38
1.8510165 0.12086098 0.83269757 1.7132119e-38
1.8577017 0.10784357 0.83304262 1.777677e-38
1.8642771 0.094763502 0.83338594 1.750054e-38
1.8715535 0.082084149 0.83373988 1.7684929e-38
1.878767 0.069368787 0.83409292 1.7132474e-38
