# .PCD v0.7 - Point Cloud Data file format
VERSION 0.7
FIELDS x y z rgb
SIZE 4 4 4 4
TYPE F F F F
COUNT 1 1 1 1
WIDTH 1049
HEIGHT 1
VIEWPOINT 0 0 0 1 0 0 0
POINTS 1049
DATA ascii
2.1013119 -1.6134763 0.81918311 1.7499823e-38
2.2433486 -1.8855639 0.80449069 1.5291462e-38
2.2500672 -1.8985505 0.80379015 1.5015594e-38
2.177645 -1.805024 0.80913067 1.6763345e-38
2.1843507 -1.8180189 0.8084299 1.5658447e-38
2.1906457 -1.8312858 0.80772126 1.7408356e-38
2.1973774 -1.8442637 0.80702102 1.6395287e-38
2.2032816 -1.8575711 0.80631524 1.7867892e-38
2.2115035 -1.8697803 0.80563325 1.8052645e-38
2.2252281 -1.8955624 0.80423772 1.6948098e-38
2.048243 -1.5420033 0.82323635 1.7499106e-38
2.0608215 -1.568545 0.82181877 1.8327427e-38
2.0641584 -1.5833683 0.82107252 1.6578594e-38
2.070637 -1.596455 0.8203702 1.7775332e-38
2.0781069 -1.6090904 0.81967711 1.7315076e-38
2.0848846 -1.6220372 0.81897777 1.6578234e-38
2.0932727 -1.6352788 0.81824458 1.547405e-38
2.0988095 -1.6480026 0.81757104 1.547441e-38
2.2227254 -1.8801976 0.80499959 1.9617446e-38
2.2366486 -1.9059044 0.80360532 1.6856623e-38
2.2424433 -1.9193375 0.80289489 2.0538322e-38
2.2473226 -1.9337451 0.80214936 1.1240981e-38
1.9481734 -1.3467371 0.83375752 1.9154288e-38
1.9550984 -1.3595868 0.83306098 1.8141221e-38
1.9615105 -1.3727763 0.83235461 1.7957194e-38
1.9685092 -1.385577 0.8316595 1.8049746e-38
1.974793 -1.3988518 0.83095062 1.8417808e-38
1.9813035 -1.4119759 0.83024603 1.620908e-38
1.9881651 -1.4248675 0.8295483 1.8970259e-38
1.995402 -1.4375105 0.82885778 1.8510723e-38
2.0017776 -1.450724 0.82815069 1.8602562e-38
2.0084059 -1.4637705 0.82744849 1.6945569e-38
2.0146229 -1.4770892 0.8267383 1.6392764e-38
2.0217347 -1.4898151 0.82604533 1.8786956e-38
2.0282743 -1.5029199 0.82534146 1.5933225e-38
2.035193 -1.515774 0.82464474 1.7314354e-38
2.0420825 -1.5286469 0.82394755 1.851145e-38
2.0550036 -1.5549618 0.82253665 1.8788037e-38
2.0787029 -1.6418796 0.81810969 1.7131046e-38
2.0845582 -1.6554379 0.81739253 1.8327786e-38
2.1321838 -1.7459486 0.81250054 1.354083e-38
2.1376514 -1.7606519 0.81173366 1.5842832e-38
2.1453679 -1.7733275 0.81103569 1.6302732e-38
2.1478601 -1.7874759 0.81033188 1.5658803e-38
2.1588163 -1.8024106 0.80948657 1.6578597e-38
2.1627851 -1.8125459 0.80895555 1.4646451e-38
2.1694119 -1.8239056 0.80833346 1.5750279e-38
2.1791728 -1.8382126 0.80753279 1.6670792e-38
2.1863439 -1.8495671 0.80690438 1.7407995e-38
2.1911831 -1.8643016 0.80614376 1.8328509e-38
2.1962688 -1.8775539 0.80545068 1.6210897e-38
2.204813 -1.8898274 0.80476171 1.832887e-38
2.2102385 -1.9032689 0.80405545 1.7131769e-38
2.2163889 -1.9165109 0.80334979 1.7223249e-38
2.224864 -1.9278808 0.80270451 1.9618883e-38
1.9278363 -1.3407668 0.83429164 1.9245764e-38
1.9347943 -1.3535944 0.83359575 1.8325252e-38
1.941363 -1.3666801 0.83289236 1.8141581e-38
1.9476638 -1.3799434 0.8321839 1.8509642e-38
1.9547135 -1.3927106 0.83148968 1.9246485e-38
1.9609007 -1.406049 0.83077896 1.7957912e-38
1.9677601 -1.4189421 0.83008116 1.8142302e-38
1.9749779 -1.4315978 0.82939029 1.7958272e-38
1.9810424 -1.4450176 0.82867718 1.7589849e-38
1.9882612 -1.4576725 0.82798636 1.8326694e-38
1.9951794 -1.4705266 0.82728964 1.8049754e-38
2.0015366 -1.4837525 0.82658219 1.851109e-38
2.0085695 -1.4965308 0.82588774 1.6209449e-38
2.0143015 -1.5101707 0.82516825 1.6578228e-38
2.018187 -1.5246035 0.82443374 1.6762258e-38
2.0285122 -1.5356308 0.82378215 1.584103e-38
2.0353003 -1.5485717 0.82308298 1.7867161e-38
2.0390806 -1.5632217 0.82233942 1.7867524e-38
2.047081 -1.5738311 0.82173622 1.7775328e-38
2.0531623 -1.5890502 0.82093734 1.6578594e-38
2.0597074 -1.6021515 0.82023352 1.8604008e-38
2.0661359 -1.6153303 0.81952745 1.6855177e-38
2.0721564 -1.6287793 0.81881344 1.7314716e-38
2.2360597 -1.9394343 0.80201715 1.3449713e-38
2.2438557 -1.9512709 0.8013581 1.5198542e-38
2.2497592 -1.964571 0.80065268 1.4093273e-38
2.2568429 -1.9774129 0.79995459 1.5014152e-38
1.8203574 -1.1325797 0.84551871 1.8600385e-38
1.8271561 -1.1454937 0.84482068 1.8600745e-38
2.176265 -1.8716755 0.80597639 1.7406918e-38
2.1897295 -1.8976301 0.80457592 1.61187e-38
2.2035282 -1.9233637 0.80318189 1.9893319e-38
2.0394995 -1.5960956 0.82077014 1.6671143e-38
2.0451345 -1.6097997 0.82004875 1.6670428e-38
2.0486314 -1.6245124 0.81930578 1.7683495e-38
2.0577803 -1.636297 0.8186326 1.8143393e-38
2.0618439 -1.6505703 0.81790346 1.7130689e-38
2.0716684 -1.661971 0.81724024 1.7499107e-38
2.0778074 -1.6750302 0.8165434 1.7039206e-38
2.083662 -1.6889004 0.81581151 1.621053e-38
2.0970297 -1.7149191 0.81440908 1.7314717e-38
2.1035457 -1.7280396 0.81370479 1.5842111e-38
2.1108656 -1.740628 0.81301576 1.5933948e-38
2.1154904 -1.7518405 0.81242537 1.5106349e-38
2.1258531 -1.7655737 0.81164455 1.4553536e-38
2.1333082 -1.778072 0.81095821 1.289582e-38
2.1361668 -1.7931573 0.81020534 1.4921601e-38
2.1435778 -1.8029584 0.80964792 1.6947018e-38
2.1506078 -1.8189234 0.80880183 1.4921958e-38
2.158119 -1.8311133 0.80812943 1.4830124e-38
2.1636457 -1.8451607 0.80739313 1.5842478e-38
2.172462 -1.8568482 0.80672866 1.5749926e-38
2.183646 -1.884223 0.80528861 1.5842478e-38
2.196923 -1.9103019 0.80388457 1.7777137e-38
2.2109129 -1.9359088 0.80249411 1.8050493e-38
2.2201159 -1.947454 0.80183166 2.0261019e-38
2.2243469 -1.9593849 0.80121195 1.3908886e-38
2.2319946 -1.9717789 0.80052817 1.6209457e-38
2.23857 -1.9872129 0.79971302 1.2161127e-38
2.2463341 -1.9996485 0.79902583 1.3082004e-38
2.255204 -2.0140388 0.79823214 1.0410493e-38
2.2672272 -2.054554 0.79615659 1.8973147e-38
2.2745738 -2.0672238 0.79546338 1.7407616e-38
2.2834084 -2.0791526 0.79478717 1.4458446e-38
2.2890711 -2.0926616 0.79407483 1.5107057e-38
1.9128475 -1.3469489 0.83418185 1.9153926e-38
1.9188324 -1.3617991 0.83340168 1.8601836e-38
1.925844 -1.3746933 0.83270192 1.8694033e-38
1.9343985 -1.3867253 0.83202422 1.9522711e-38
1.9407827 -1.4012309 0.83125561 1.832597e-38
1.9487914 -1.4123095 0.83063 1.6484947e-38
1.9537859 -1.4255333 0.82993937 1.8234138e-38
1.9628378 -1.4405957 0.8291114 1.9799299e-38
1.9653696 -1.4529537 0.82849234 1.8510367e-38
1.9733943 -1.4672285 0.82771444 1.8602922e-38
1.9829981 -1.476954 0.8271336 1.9523795e-38
1.9878508 -1.4907591 0.82641709 1.7774248e-38
1.993062 -1.50449 0.82569969 1.7498021e-38
2.0014818 -1.5162975 0.82503438 1.8787316e-38
2.0071607 -1.5303327 0.82429677 1.6485675e-38
2.016712 -1.5418406 0.82363176 1.5841388e-38
2.0238285 -1.5546143 0.82293653 1.8327782e-38
2.0273244 -1.5692866 0.82219541 1.8051195e-38
2.0338318 -1.582413 0.82149076 2.007661e-38
1.7449102 -1.0065744 0.85244173 1.8694394e-38
1.7552174 -1.0343708 0.85099256 1.878441e-38
1.7688193 -1.0602347 0.84959465 1.8508188e-38
1.7766055 -1.0713075 0.84897202 1.8139412e-38
1.8055495 -1.12369 0.84612375 1.8140488e-38
1.809993 -1.1378318 0.84539634 1.8968806e-38
1.8163465 -1.1510601 0.84468877 1.9061361e-38
1.8227974 -1.1642239 0.84398311 1.8416358e-38
1.829013 -1.1775434 0.84327298 1.878442e-38
2.0699933 -1.6959497 0.81564415 1.5289653e-38
2.1438634 -1.8388228 0.80793792 1.44617e-38
2.1557162 -1.8684299 0.80638355 1.5934311e-38
2.1635935 -1.8783342 0.80581534 1.4921601e-38
2.1692922 -1.8918082 0.8051042 1.6210895e-38
2.1767104 -1.9056692 0.80435354 1.7867175e-38
2.1834135 -1.9172455 0.80372024 1.5565892e-38
2.1903136 -1.9301121 0.80302328 1.3633383e-38
2.1975877 -1.9427302 0.80233347 1.409328e-38
2.2042186 -1.9557748 0.80163121 1.6394567e-38
2.2114453 -1.9684244 0.80094051 1.0502686e-38
2.21662 -1.9824338 0.8002103 1.6210176e-38
2.2379096 -2.037236 0.79734105 1.3630132e-38
2.243782 -2.0506403 0.7966311 1.4458808e-38
2.2506559 -2.0635462 0.79593253 1.3906716e-38
2.2713339 -2.085686 0.79462481 1.4458446e-38
2.2787418 -2.0982156 0.79393756 1.5107057e-38
2.3054705 -2.1502576 0.79113275 1.3540477e-38
1.9998819 -1.5505857 0.82342261 1.6117614e-38
2.0060875 -1.5639122 0.82271224 1.8972065e-38
2.0112538 -1.5791138 0.82192546 1.7129966e-38
2.0197856 -1.5900166 0.82130182 1.722216e-38
2.0251155 -1.6044614 0.82054895 1.6854459e-38
2.0338106 -1.6156508 0.81990963 1.5565525e-38
2.0379574 -1.6299859 0.81917661 1.7683857e-38
2.0453062 -1.6425757 0.81848723 1.6762265e-38
2.0513091 -1.6560154 0.81777394 1.6117979e-38
2.0613313 -1.6672893 0.81711429 1.8327783e-38
2.0638409 -1.682588 0.81635559 1.427659e-38
2.0769932 -1.7087494 0.8149491 1.6578595e-38
2.0854897 -1.7205579 0.81428277 1.7960081e-38
2.0916147 -1.7339375 0.8135708 1.7131765e-38
2.0973637 -1.7475667 0.81285167 1.6578595e-38
2.1050217 -1.7599307 0.81216919 1.7776055e-38
2.1129243 -1.7721682 0.81148976 1.4645371e-38
2.121088 -1.7845004 0.81080264 1.5197826e-38
2.1245663 -1.7992946 0.81005597 1.5565888e-38
2.1314743 -1.8121557 0.80935907 1.5382216e-38
2.1383417 -1.8250437 0.80866146 1.7407637e-38
2.1512995 -1.8513336 0.80725121 1.6302736e-38
2.2281322 -1.9936017 0.79953736 1.1883462e-38
2.2319431 -2.0071573 0.79884559 1.4000358e-38
2.2389212 -2.0199716 0.79815006 1.4000356e-38
2.2493274 -2.0309691 0.79749882 1.4645365e-38
2.2560961 -2.043905 0.79680014 1.6485671e-38
2.2591765 -2.0588651 0.79605043 1.8973147e-38
2.2659233 -2.0718329 0.79535049 1.7407616e-38
2.2928214 -2.1237628 0.79254889 1.1699798e-38
2.299427 -2.1368239 0.79184628 1.3449716e-38
1.7820735 -1.1194472 0.84661436 1.8784776e-38
1.7888442 -1.132399 0.84591484 1.8417072e-38
1.8019444 -1.1585952 0.84450734 1.8416356e-38
1.8083873 -1.1717643 0.84380162 1.8140132e-38
1.8114631 -1.1866834 0.84305388 1.8968806e-38
1.9002146 -1.3550534 0.83395153 1.887842e-38
1.9063184 -1.3684471 0.83323926 1.8417808e-38
1.9138118 -1.3809202 0.83255363 1.915429e-38
1.9218143 -1.3934904 0.83185714 1.9154646e-38
1.9277503 -1.4065608 0.83116227 1.9615617e-38
1.9341494 -1.419759 0.83045566 1.8878782e-38
1.9401745 -1.4332048 0.82974178 1.6393114e-38
1.9475445 -1.4457598 0.82905376 1.8694398e-38
1.9542998 -1.4587219 0.828354 1.8970626e-38
1.9613711 -1.4714744 0.82766026 1.9339766e-38
1.9672971 -1.4849861 0.82694453 1.6393837e-38
1.9745696 -1.4976053 0.82625473 1.8325981e-38
1.9808811 -1.5108616 0.82554632 1.8602924e-38
1.9873576 -1.5240084 0.8248412 1.83267e-38
1.9943662 -1.5368026 0.82414627 1.7774608e-38
1.7289604 -1.0147867 0.85224718 1.8141571e-38
1.7363559 -1.0248549 0.85167718 1.8784053e-38
1.7428893 -1.0407819 0.85083908 1.8875528e-38
1.7691818 -1.0931129 0.84802586 1.8875892e-38
1.7758142 -1.1061565 0.84732366 1.8139411e-38
1.7961725 -1.1449816 0.84522605 1.7680591e-38
1.7283815 -0.99798012 0.85305393 1.4554645e-38
2.2137547 -2.0336764 0.7978074 1.5380404e-38
2.228519 -2.0422945 0.79721588 1.3630132e-38
2.2350283 -2.0554192 0.79651135 1.4458808e-38
2.3139431 -2.2121568 0.78808343 1.0958318e-38
2.0239725 -1.6372448 0.81900322 1.6946296e-38
2.0566368 -1.7027919 0.8154828 1.5381849e-38
2.0631354 -1.7159243 0.81477809 1.5105628e-38
2.0702991 -1.7286154 0.81408614 1.4461694e-38
2.0770564 -1.7415762 0.81338638 1.4829761e-38
2.0913038 -1.7670121 0.81200093 1.5658081e-38
2.0970883 -1.7806175 0.81128252 1.5565888e-38
2.1071658 -1.8083415 0.80983955 1.5289661e-38
2.116261 -1.8202249 0.8091622 1.4737568e-38
2.1298072 -1.8450879 0.80781269 1.7223242e-38
2.1375878 -1.8586278 0.80707282 1.5290377e-38
2.1422002 -1.8727932 0.80634212 1.6118699e-38
2.1491463 -1.8856291 0.80564594 1.5197826e-38
2.1576948 -1.8976669 0.80496806 1.5658085e-38
2.1626046 -1.9115878 0.80424535 1.4093282e-38
2.1722221 -1.9230902 0.80357981 1.5935028e-38
2.1790144 -1.936051 0.80287963 1.4553177e-38
2.1843724 -1.9496694 0.80216581 1.436878e-38
2.1903954 -1.9629235 0.8014611 1.4737565e-38
2.1971292 -1.9759011 0.80076081 1.5197104e-38
2.2035611 -1.9890219 0.80005747 1.3448266e-38
2.2109349 -2.0012381 0.79938549 1.6024696e-38
2.2165468 -2.015115 0.79865628 1.7405832e-38
2.2235675 -2.0290136 0.79790866 1.6116533e-38
2.2425578 -2.0678689 0.79582638 1.3906716e-38
2.2511382 -2.0796461 0.79516053 1.6026489e-38
2.2599127 -2.0916858 0.79447979 1.6762258e-38
2.2656703 -2.1052122 0.79376543 1.4184396e-38
2.2716851 -2.1184199 0.79306304 1.4735776e-38
2.2786505 -2.1313779 0.79236084 1.068423e-38
2.2855244 -2.144244 0.79166418 1.3723069e-38
2.2922022 -2.1587703 0.79089093 1.2249753e-38
2.2982879 -2.1704476 0.79026049 1.1329945e-38
1.8866953 -1.3620036 0.83378714 1.8785866e-38
1.8925728 -1.3755472 0.83307052 1.8510002e-38
1.9004859 -1.3877423 0.83239293 1.8234497e-38
1.906445 -1.4012319 0.83167773 1.8602557e-38
1.9128186 -1.4144467 0.83097064 1.8326334e-38
1.9201225 -1.4270455 0.83028144 1.9615268e-38
1.9266533 -1.4401563 0.82957727 1.9615268e-38
1.9339614 -1.4527521 0.82888812 1.7406181e-38
1.9406924 -1.4657303 0.82818782 1.8602925e-38
1.9473038 -1.4787877 0.82748532 1.8786593e-38
1.9599007 -1.5053173 0.8260681 1.8510371e-38
1.9645188 -1.5194192 0.82534039 1.7313631e-38
1.9708376 -1.5326086 0.82463515 1.6116894e-38
1.9794123 -1.5447308 0.82395291 1.8878795e-38
1.9850336 -1.5581915 0.82324338 1.8418535e-38
1.9931304 -1.568084 0.82267308 1.8787318e-38
1.9985186 -1.5843579 0.82183254 1.740655e-38
2.0047634 -1.597658 0.82112294 1.5012714e-38
2.0113683 -1.6107199 0.82042027 1.6209454e-38
2.0176671 -1.6239843 0.81971163 1.5841749e-38
2.0314014 -1.6497604 0.81831634 1.6210167e-38
2.0382686 -1.6626482 0.81761873 1.8051915e-38
2.0444722 -1.6759759 0.81690836 1.7039205e-38
2.0511429 -1.6889942 0.81620687 1.6210886e-38
2.0852275 -1.7536005 0.8127138 1.7499826e-38
2.1051209 -1.7927333 0.81060725 1.6855541e-38
2.1255844 -1.831489 0.80851161 1.4830847e-38
1.7292496 -1.0478117 0.85067225 1.8231958e-38
1.7357789 -1.0609236 0.84996814 1.8876248e-38
1.7422881 -1.0740488 0.84926367 1.887625e-38
1.7492095 -1.0869009 0.84856707 1.9059561e-38
1.7564505 -1.0995412 0.84787655 1.832344e-38
1.7621671 -1.1131915 0.84715676 1.8415636e-38
1.7666153 -1.1274278 0.84642476 1.8600386e-38
1.7756916 -1.1391063 0.84575748 1.8508909e-38
1.7818196 -1.1539197 0.84497726 1.8324161e-38
1.7890378 -1.1652938 0.84434742 1.8600386e-38
1.796838 -1.1777651 0.84365803 1.8416353e-38
1.9545245 -1.4914416 0.82679445 1.6393475e-38
1.712204 -1.0054414 0.85289788 1.8326324e-38
1.717726 -1.0205714 0.85211015 1.7772425e-38
1.7236216 -1.0341029 0.85139376 1.8323799e-38
2.2945929 -2.2227616 0.78781676 6.910736e-39
2.1151912 -1.8538053 0.80757767 1.4829404e-38
2.1284957 -1.879866 0.8061741 1.7131765e-38
2.1418767 -1.9058763 0.80477196 1.5013798e-38
2.148205 -1.9191211 0.80406398 1.5842118e-38
2.1609745 -1.9455365 0.80265009 1.5013795e-38
2.1689429 -1.9743499 0.80118126 1.6853379e-38
2.1791306 -1.9854513 0.80052775 1.6485679e-38
2.1856205 -2.0017657 0.79967171 1.5103823e-38
2.1957064 -2.0101068 0.79915082 1.4090753e-38
2.2028637 -2.022862 0.79845595 1.4643205e-38
2.206301 -2.03757 0.79771388 1.5380404e-38
2.2137671 -2.0497427 0.79704291 1.4551368e-38
2.2230256 -2.0618193 0.79635441 1.4827594e-38
2.2263551 -2.0744174 0.79571408 1.6300924e-38
2.2339373 -2.0889037 0.79493159 1.7404751e-38
2.2408569 -2.1011863 0.79426211 1.4366997e-38
2.2495279 -2.1135569 0.79356688 1.2433765e-38
2.2528689 -2.1283784 0.79282063 1.399677e-38
2.2627327 -2.139684 0.79216135 1.1237036e-38
2.2702103 -2.1521673 0.79147542 1.0039234e-38
2.2902884 -2.1911781 0.78937244 1.4733251e-38
2.3028648 -2.2205906 0.78781837 8.934714e-39
1.958022 -1.5394305 0.8244682 1.6945569e-38
1.9711089 -1.5656353 0.82306039 1.832634e-38
1.9780952 -1.5784446 0.82236499 1.6945573e-38
1.9848056 -1.5914364 0.82166439 1.851145e-38
1.9913212 -1.6045572 0.82095999 1.7315072e-38
1.9971479 -1.6181345 0.82024229 1.7314354e-38
2.0009024 -1.6326829 0.81950396 1.6209449e-38
2.0110037 -1.6438301 0.81884933 1.6761901e-38
2.0143771 -1.6586186 0.81810421 1.6485315e-38
2.0239182 -1.6701492 0.81743824 1.5288934e-38
2.0297337 -1.6835006 0.81673151 1.6854095e-38
2.0385947 -1.6956742 0.81604332 1.4092556e-38
2.0446928 -1.7100163 0.81528598 1.5565883e-38
2.0479918 -1.7234998 0.81460387 1.6762259e-38
2.0569978 -1.7349838 0.81394672 1.6210172e-38
2.0649951 -1.7478131 0.81323791 1.7130686e-38
2.0709884 -1.7611781 0.81252831 1.4828682e-38
2.0752122 -1.7731833 0.81190526 1.6118336e-38
2.0835125 -1.7875408 0.81112003 1.6026139e-38
2.091912 -1.7994781 0.81044877 1.2712151e-38
2.0954704 -1.8113149 0.80984187 1.6117982e-38
2.1038604 -1.8264375 0.80901915 1.3816696e-38
2.1130903 -1.8382263 0.80834478 1.3908892e-38
2.1221981 -1.866601 0.80688268 1.3909251e-38
2.1357439 -1.8925018 0.80548376 1.5658801e-38
2.1562138 -1.9312527 0.8033883 1.5750279e-38
2.1706679 -1.956552 0.80200684 1.4645372e-38
2.1761341 -1.970368 0.80128223 1.4184754e-38
2.1898861 -1.9961323 0.79988736 1.6209451e-38
2.1979713 -2.0075786 0.79924327 1.7497668e-38
1.8073615 -1.238181 0.84065408 1.8969167e-38
1.8138562 -1.2513158 0.83994931 1.8233045e-38
1.8393563 -1.3041718 0.83712083 1.9244678e-38
1.8457021 -1.3188336 0.83634526 1.9153564e-38
1.8606205 -1.3435271 0.83498687 1.8601838e-38
1.8634444 -1.3574839 0.83428806 1.8693669e-38
1.8705006 -1.3703045 0.83359134 1.8877703e-38
1.877686 -1.3830599 0.83289605 1.8693672e-38
1.8861427 -1.395239 0.83221257 1.8418171e-38
1.8917273 -1.4087352 0.83150178 1.8417811e-38
1.9001511 -1.4194958 0.83088619 1.9246488e-38
1.90687 -1.4339172 0.83011746 1.9338321e-38
1.9134115 -1.4469819 0.82941538 1.9430517e-38
1.9202164 -1.4605383 0.82868671 1.9154294e-38
1.9250529 -1.4737978 0.82799631 1.8694395e-38
1.9317532 -1.4867789 0.82729632 1.8786232e-38
1.9384165 -1.4998057 0.82659453 1.8602561e-38
1.9467517 -1.5125535 0.82588553 1.7313988e-38
1.9518021 -1.5261137 0.82517821 1.5932863e-38
1.9647716 -1.5523963 0.8237682 1.7313632e-38
1.696617 -1.0151122 0.85262942 1.8233057e-38
1.7032393 -1.0281622 0.8519271 1.8691859e-38
1.7096237 -1.0413702 0.85122013 1.8231598e-38
1.7155602 -1.0550117 0.85049808 1.8507467e-38
1.7228022 -1.0675144 0.84981412 1.8599304e-38
1.7285171 -1.0811037 0.84909731 1.8415628e-38
1.7331762 -1.0950588 0.84837604 1.8599657e-38
1.7421613 -1.1059437 0.84774762 1.9061e-38
1.7489164 -1.1195846 0.84701556 1.8324158e-38
1.7553372 -1.1331472 0.8462913 1.8784776e-38
1.7647333 -1.1447761 0.84562242 1.8047575e-38
1.7677599 -1.1597923 0.84487075 1.8415995e-38
1.774842 -1.1725378 0.84417725 1.8140128e-38
1.780952 -1.1859275 0.84346509 1.8600745e-38
1.7874308 -1.1990727 0.84275991 1.8508911e-38
1.7941585 -1.2120533 0.84205961 1.9061003e-38
1.6931746 -0.99975842 0.85340232 1.4827963e-38
2.1883755 -2.0469584 0.79748756 1.4458457e-38
2.2024641 -2.0702615 0.79620558 1.5286057e-38
2.2126315 -2.0836823 0.79544204 1.4458099e-38
2.2158911 -2.0985496 0.79469454 1.510095e-38
2.233252 -2.1223335 0.79334944 1.7492629e-38
2.2773759 -2.2171061 0.78829759 7.0043708e-39
2.0890865 -1.8342185 0.80883056 1.4276951e-38
2.0945048 -1.8480663 0.80810505 1.6671151e-38
2.1024683 -1.8602281 0.80742854 1.750019e-38
2.1088078 -1.8734655 0.80672073 1.4185477e-38
2.1156466 -1.8863722 0.80602252 1.4369507e-38
2.121099 -1.9002883 0.80529338 1.5105629e-38
2.1293595 -1.9135689 0.80455989 1.5658438e-38
2.1364934 -1.9248737 0.80393428 1.4277668e-38
2.1432614 -1.9378276 0.80323476 1.4093276e-38
2.1480718 -1.9519942 0.80250156 1.4828683e-38
2.1538687 -1.9690644 0.8016181 1.6209093e-38
2.1595638 -1.9793396 0.80105913 1.6853379e-38
2.1661642 -1.9924043 0.80035639 1.6393841e-38
2.1737642 -2.0048068 0.79967284 1.6117251e-38
2.1804261 -2.0178311 0.79897118 1.5564081e-38
2.1868916 -2.0309849 0.79826587 1.5748833e-38
2.2271132 -2.108963 0.79406112 1.5837074e-38
2.2411194 -2.1180229 0.79345781 1.7492629e-38
2.2403562 -2.1350646 0.7926563 1.5835997e-38
2.2502987 -2.1471076 0.79196101 1.4916562e-38
2.2574661 -2.1586044 0.79132587 1.1878077e-38
2.2641635 -2.1716046 0.79062498 1.2061389e-38
2.2698569 -2.1852701 0.78990483 1.2155387e-38
1.9315873 -1.5200621 0.82571477 1.7037402e-38
1.9354388 -1.5346415 0.8249737 1.7037763e-38
1.9423825 -1.5475397 0.8242746 1.6301641e-38
1.9498324 -1.5601914 0.8235811 1.7498022e-38
1.9570498 -1.5729415 0.82288569 1.694593e-38
1.9628401 -1.5863733 0.82217538 1.7498378e-38
1.9705101 -1.5991167 0.82147473 1.6577868e-38
1.9784176 -1.6113338 0.82079619 1.501235e-38
1.9855165 -1.6241196 0.82010055 1.6485672e-38
1.9899175 -1.6383557 0.81936908 1.5749191e-38
1.9983028 -1.6503949 0.81869316 1.6853016e-38
2.0030158 -1.6645532 0.81796157 1.5841385e-38
2.0124562 -1.6773356 0.81723726 1.6946648e-38
2.0164454 -1.6902558 0.8165735 1.7958638e-38
2.02303 -1.7005312 0.81600362 1.9062457e-38
2.0300796 -1.7163733 0.8151632 1.639384e-38
2.03668 -1.7294381 0.81446046 1.7682412e-38
2.0433676 -1.7424449 0.81375933 1.620945e-38
2.0499322 -1.7555332 0.81305587 1.6393841e-38
2.0564322 -1.7686647 0.81235123 1.6946655e-38
2.0638375 -1.7811961 0.81166387 1.6946656e-38
2.0697961 -1.794686 0.81094873 1.6670065e-38
2.0793536 -1.8059963 0.81029302 1.6855545e-38
2.0838068 -1.8202789 0.80955875 1.4369147e-38
2.1572864 -1.963411 0.80184501 1.8696923e-38
1.734555 -1.1274719 0.84681684 1.7955737e-38
1.7472956 -1.1539061 0.84540248 1.869186e-38
1.7544628 -1.1665952 0.84471059 1.8876251e-38
1.7611823 -1.179581 0.84401011 1.8323798e-38
1.7671126 -1.1930898 0.84329438 1.8875891e-38
1.7713037 -1.2074475 0.84255975 1.8876969e-38
1.778742 -1.2201025 0.84186614 1.8324519e-38
1.7851319 -1.2332214 0.8411634 1.9152479e-38
1.7926507 -1.2438501 0.84056526 1.8784779e-38
1.7994585 -1.2585189 0.83978355 1.878442e-38
1.8057121 -1.2721424 0.83905852 1.860039e-38
1.8127569 -1.2849128 0.8383643 1.8692227e-38
1.8193271 -1.2979976 0.83766085 1.9245039e-38
1.8289415 -1.3094534 0.83699763 1.8324169e-38
1.8324491 -1.3241791 0.83625388 1.9797491e-38
1.8394363 -1.3369875 0.83555853 1.869295e-38
1.8461491 -1.349978 0.83485794 1.9337958e-38
1.8528874 -1.3629512 0.83415776 1.8969536e-38
1.8593313 -1.3761196 0.83345193 1.9337958e-38
1.8657357 -1.3893142 0.83274543 1.8693673e-38
1.8730736 -1.4018902 0.83205688 1.8693673e-38
1.8788109 -1.4155267 0.83133739 1.8601843e-38
1.8853434 -1.4286363 0.83063334 1.8325615e-38
1.8929355 -1.4410443 0.82994962 1.8602559e-38
1.8992122 -1.4543232 0.82924068 1.8233781e-38
1.9055717 -1.4675477 0.82853329 1.8601842e-38
1.9132223 -1.4799166 0.8278507 1.8694395e-38
1.9189638 -1.4935504 0.82713139 1.8878427e-38
1.9263836 -1.5060723 0.82644439 1.7958273e-38
1.6774653 -1.0083565 0.85318631 1.6669341e-38
1.6832269 -1.0210526 0.85251147 1.8691853e-38
1.6903427 -1.0348181 0.85176897 1.8139045e-38
1.6988168 -1.046966 0.85108674 1.8231599e-38
1.7020148 -1.0618423 0.85033965 1.8231605e-38
1.7099402 -1.0744652 0.84964162 1.8415628e-38
1.7161537 -1.0873501 0.84895217 1.8691853e-38
1.7223719 -1.1006681 0.84824198 1.841527e-38
1.7283472 -1.1141469 0.84752721 1.8231602e-38
1.7415719 -1.1402606 0.84612203 1.8140128e-38
1.6799891 -1.0030154 0.85340947 1.381417e-38
2.1332402 -1.9598976 0.80230784 1.4828326e-38
2.1397386 -1.97303 0.80160314 1.5564806e-38
2.1432941 -1.987765 0.80085832 1.6853019e-38
2.1493461 -2.0010483 0.80015188 1.5011272e-38
2.1582694 -2.0129838 0.79947424 1.5380414e-38
2.1772954 -2.0527735 0.79734713 1.3997485e-38
2.199652 -2.0905366 0.79527545 1.5192067e-38
2.2034445 -2.1051998 0.79453117 1.4823646e-38
2.2124166 -2.116786 0.79386961 1.5283542e-38
2.2206979 -2.130347 0.79312259 1.510059e-38
2.2275429 -2.141547 0.79250544 1.4915122e-38
2.2618237 -2.212353 0.788715 7.0980069e-39
2.2600842 -2.2236216 0.7882002 5.4420967e-39
1.9827863 -1.6585115 0.81849784 1.611689e-38
2.0299242 -1.7493447 0.81359637 1.6761542e-38
2.0364032 -1.7624899 0.81289124 1.8142669e-38
2.0434554 -1.7752556 0.81219715 1.4829401e-38
2.049789 -1.7884971 0.81148916 1.501343e-38
2.0566955 -1.8013589 0.81079233 1.4277309e-38
2.063298 -1.8144221 0.81008965 1.7039567e-38
2.0683768 -1.8282087 0.80937117 1.6026145e-38
2.0751731 -1.8414406 0.80865806 1.5197825e-38
2.0808964 -1.8540552 0.80798745 1.5197463e-38
2.0875132 -1.867969 0.80724406 1.4645727e-38
2.0956059 -1.8805085 0.806548 1.4092919e-38
2.103828 -1.8943559 0.80578798 1.4921594e-38
2.1098526 -1.905642 0.80517691 1.5014152e-38
2.1137171 -1.9166101 0.80460757 1.6947012e-38
2.1215174 -1.9294412 0.80390114 1.6118335e-38
2.1294317 -1.9465477 0.8029899 1.5657721e-38
2.2362235 -2.1532335 0.7918427 1.2521649e-38
2.2446604 -2.1652761 0.79116595 1.2707835e-38
2.2511506 -2.1795368 0.79040766 1.0499481e-38
1.8121364 -1.3181925 0.83678848 1.8417084e-38
1.8254822 -1.3442258 0.83538568 1.9153207e-38
1.8319408 -1.3573846 0.8346802 1.8692949e-38
1.8386835 -1.3703549 0.83398014 1.8233058e-38
1.8456296 -1.3831908 0.83328402 2.007444e-38
1.8516921 -1.3966117 0.83257085 1.933832e-38
1.8579731 -1.4098879 0.83186197 1.8878062e-38
1.8646857 -1.4228784 0.83116138 1.8693673e-38
1.8726715 -1.4350252 0.83048517 1.8233778e-38
1.8788182 -1.4483906 0.82977372 1.9062454e-38
1.8852979 -1.4615353 0.82906866 1.9338678e-38
1.8924525 -1.4742329 0.82837647 1.8601839e-38
1.8996789 -1.4868828 0.82768577 1.7867158e-38
1.9024808 -1.5020666 0.82692885 1.8326331e-38
1.9109278 -1.5119849 0.82635313 1.630128e-38
1.919614 -1.5263269 0.82556391 1.6393117e-38
1.9230932 -1.5411208 0.82481724 1.6025415e-38
1.9301025 -1.5539147 0.82412231 1.6209088e-38
1.9364697 -1.5671338 0.82341504 1.7222157e-38
1.9431807 -1.5801251 0.82271439 1.6577509e-38
1.9506345 -1.5926247 0.82202804 1.6577865e-38
1.9575043 -1.605511 0.82133043 1.8327416e-38
1.9644189 -1.6183673 0.82063365 1.8695475e-38
1.9699746 -1.6321241 0.81991082 1.6301283e-38
1.9764075 -1.6452997 0.81920481 1.8418532e-38
1.9897901 -1.6713089 0.81780279 1.5564441e-38
1.9982728 -1.6831264 0.81713617 1.5196018e-38
2.0035551 -1.6970644 0.8164081 1.731435e-38
2.0102119 -1.7100918 0.81570637 1.6116894e-38
2.0174217 -1.7227528 0.81501532 1.7958635e-38
2.0236361 -1.7360733 0.81430507 1.5933222e-38
1.7082332 -1.1080288 0.84806567 1.8323079e-38
1.714922 -1.1210349 0.8473646 1.8415633e-38
1.7215585 -1.1340756 0.84666246 1.8139408e-38
1.7280039 -1.147243 0.84595668 1.7770987e-38
1.7329397 -1.1612604 0.84522909 1.8139406e-38
1.7399051 -1.1722327 0.84462136 1.8415274e-38
1.7482334 -1.1863732 0.84384614 1.8323799e-38
1.7551481 -1.1992408 0.84314889 1.8416714e-38
1.7594163 -1.2136197 0.84241223 1.8692939e-38
1.7660389 -1.2266698 0.84170991 1.8231966e-38
1.772531 -1.2398062 0.84100509 1.9796408e-38
1.779804 -1.2524252 0.84031522 1.9060287e-38
1.786859 -1.2651888 0.83962119 1.8600389e-38
1.7933509 -1.2783254 0.83891636 1.896845e-38
1.8000215 -1.2913437 0.83821487 1.8232331e-38
1.8056487 -1.3050531 0.83749342 1.8416363e-38
1.8193389 -1.3308582 0.8360973 1.7864633e-38
1.6569278 -1.0010622 0.85378593 1.7957905e-38
1.6663603 -1.0141606 0.85304672 1.8140484e-38
1.6693045 -1.029194 0.85229522 1.8231238e-38
1.6760745 -1.0421464 0.8515957 1.8139046e-38
1.6823032 -1.0554574 0.85088581 1.8599304e-38
1.688953 -1.0684892 0.85018402 1.8323438e-38
1.6958448 -1.0813611 0.84948683 1.8323792e-38
1.7023662 -1.0944779 0.84878254 1.8691497e-38
1.6633512 -0.99709648 0.85389566 1.0316513e-38
2.1765788 -2.0861168 0.79576951 1.4731813e-38
2.1831553 -2.0991976 0.7950663 1.5192064e-38
2.1007507 -1.9271032 0.8042677 1.5935025e-38
2.105659 -1.9412884 0.80353242 1.5841389e-38
2.1122704 -1.9543167 0.80283129 1.6393482e-38
2.1192706 -1.9690169 0.8020457 1.501235e-38
2.1280656 -1.9792581 0.80145031 1.4919796e-38
2.1643448 -2.0593469 0.79719365 1.3996406e-38
2.1920133 -2.1107666 0.79440689 1.6020381e-38
2.2018034 -2.1204097 0.79382765 1.4363392e-38
2.2068098 -2.1358514 0.79303139 1.307626e-38
2.2483912 -2.2129161 0.78885335 8.2925704e-39
1.9089652 -1.5484743 0.82464105 1.6300564e-38
1.9158354 -1.5613601 0.8239435 1.7589851e-38
1.9229798 -1.5740644 0.82325119 1.703812e-38
1.9297923 -1.5869886 0.82255244 1.7774601e-38
1.9369096 -1.5997109 0.82185966 1.6116886e-38
1.9432346 -1.6129582 0.82115161 1.7129596e-38
1.9499381 -1.6259545 0.82045072 1.8234137e-38
1.9567963 -1.6388484 0.81975293 1.5564078e-38
1.9633654 -1.6519338 0.81904954 1.630056e-38
1.9703287 -1.6647583 0.81835377 1.6668623e-38
1.9769897 -1.6777828 0.81765217 1.6576788e-38
1.9794931 -1.693089 0.81689304 1.6853012e-38
1.9881897 -1.7050986 0.81621474 1.6484951e-38
1.9938607 -1.7185509 0.81550497 1.611689e-38
2.0030301 -1.7302809 0.81483412 1.5104543e-38
2.0083416 -1.7440339 0.81411445 1.7406187e-38
2.0148189 -1.7570332 0.81341624 1.712996e-38
2.023139 -1.769271 0.81273168 1.5565162e-38
2.0289443 -1.7828023 0.81201655 1.5841748e-38
2.0356009 -1.7958143 0.8113156 1.6210169e-38
2.0413005 -1.8092414 0.8106066 1.6670068e-38
2.0494714 -1.8215147 0.80992216 1.7131043e-38
2.0574088 -1.8379695 0.80904162 1.547405e-38
2.0638559 -1.8469211 0.80853641 1.4000723e-38
2.0697625 -1.8609848 0.80779469 1.6210528e-38
2.0749941 -1.8741221 0.80710524 1.464537e-38
2.0839632 -1.8855027 0.80645353 1.5382932e-38
2.088541 -1.900317 0.80569232 1.6210169e-38
2.0957162 -1.912107 0.80504316 1.6302366e-38
2.1127071 -1.9370434 0.80364782 1.5657361e-38
2.2092211 -2.1342413 0.79307842 1.2614916e-38
1.7326964 -1.1944402 0.84365344 1.8139767e-38
1.7457408 -1.2206734 0.8422448 1.7863545e-38
1.7526915 -1.2335061 0.8415488 1.8968807e-38
1.779781 -1.2853092 0.8387509 1.8969886e-38
1.7857481 -1.2987934 0.838036 1.8692945e-38
1.7921286 -1.3120037 0.83732897 1.8232692e-38
1.7994626 -1.3245825 0.8366403 1.8784784e-38
1.8055511 -1.3379864 0.83592767 1.795611e-38
1.8099089 -1.3522302 0.83519638 1.814086e-38
1.817397 -1.3671191 0.83439583 1.8785506e-38
1.8264753 -1.3767606 0.83382547 1.8509644e-38
1.8302579 -1.3897715 0.83315992 1.8601476e-38
1.8369707 -1.4040934 0.83239597 1.8325612e-38
1.8439332 -1.4169627 0.831698 1.8141221e-38
1.8521732 -1.4278933 0.83107662 1.933868e-38
1.859791 -1.4418271 0.83032 1.8049388e-38
1.8651627 -1.4552773 0.82961398 1.9061733e-38
1.8720334 -1.4684823 0.82890117 1.9154288e-38
1.880733 -1.4803849 0.82822788 1.9062454e-38
1.8870827 -1.493573 0.82752234 1.7589851e-38
1.8907926 -1.508201 0.82678074 1.8694033e-38
1.8971894 -1.5214007 0.826074 1.8601836e-38
1.9038376 -1.5344338 0.82537222 1.7957552e-38
1.6491871 -1.023078 0.85283363 1.8508188e-38
1.6562072 -1.0358647 0.85213888 1.8599304e-38
1.6623758 -1.0492154 0.85142785 1.8231241e-38
1.6693131 -1.062057 0.85073161 1.7955014e-38
1.675824 -1.0751809 0.85002702 1.8323077e-38
1.6817763 -1.088675 0.84931177 1.7955375e-38
1.6875398 -1.1001379 0.84869552 1.8323798e-38
1.6933143 -1.1138222 0.84797347 1.8139046e-38
1.7012894 -1.1297131 0.84711933 1.7771344e-38
1.7099752 -1.1401442 0.84651613 1.7586954e-38
1.7170037 -1.153001 0.84581804 1.8139408e-38
1.7199429 -1.1680145 0.8450675 1.8507827e-38
1.7263141 -1.1812311 0.84436035 1.8047571e-38
1.7396604 -1.2072642 0.84295756 1.7955738e-38
1.7598152 -1.246224 0.84085608 1.8139774e-38
1.7665657 -1.2591892 0.8401562 1.8876614e-38
1.7733431 -1.2721368 0.83945686 1.8600746e-38
1.6436826 -1.0066265 0.85368407 1.7864985e-38
2.1043029 -1.9750563 0.80194247 1.4459895e-38
2.1106374 -1.9882969 0.8012346 1.5379332e-38
2.1169398 -2.0015593 0.80052608 1.3906008e-38
2.1271522 -2.0292752 0.79908174 1.4916557e-38
2.1344833 -2.0418551 0.79839307 1.5652679e-38
2.1487484 -2.0647075 0.79713035 1.565232e-38
2.1572275 -2.0794933 0.79632258 1.4087878e-38
2.0409284 -1.8592287 0.80823278 1.6025417e-38
2.0474803 -1.8722944 0.80753052 1.5841386e-38
2.0595992 -1.8814807 0.80694443 1.6763338e-38
2.0651629 -1.8946607 0.80624896 1.6854096e-38
2.0721498 -1.9089173 0.80548471 1.6025419e-38
2.0792317 -1.9217615 0.80478656 1.5564801e-38
2.0865974 -1.9340477 0.80411136 1.5381131e-38
2.0916326 -1.948575 0.80335826 1.6117612e-38
2.1656764 -2.0913334 0.79565537 1.5836354e-38
2.1744282 -2.1019969 0.79504043 1.6296602e-38
2.1830974 -2.1149659 0.79431671 1.3812375e-38
2.1884601 -2.1293263 0.79356748 1.2432693e-38
2.1953506 -2.1451073 0.79273194 1.1328873e-38
2.2086129 -2.166064 0.79157174 1.0498038e-38
2.2111635 -2.1795869 0.79089695 9.4871311e-39
2.226979 -2.2074525 0.78937662 1.0593488e-38
1.8372858 -1.4370183 0.83082551 1.8049386e-38
1.8440284 -1.4499886 0.83012551 1.9429794e-38
1.8465497 -1.4652907 0.82936645 1.9429072e-38
1.8566976 -1.4764704 0.82870972 1.8601475e-38
1.8636285 -1.4893161 0.8280133 1.795755e-38
1.87054 -1.5021746 0.82731652 1.777352e-38
1.8766037 -1.5155947 0.82660341 1.8510001e-38
1.8837425 -1.528303 0.82591099 1.7405457e-38
1.8894917 -1.5419316 0.82519186 1.5932496e-38
1.896359 -1.5548196 0.82449418 1.9429792e-38
1.9030715 -1.5678099 0.82379353 1.593214e-38
1.9077293 -1.581876 0.82306701 1.6024333e-38
1.9166353 -1.593699 0.82239503 1.5656272e-38
1.9230834 -1.6068646 0.82168925 1.4275144e-38
1.9276551 -1.6209623 0.82096231 1.6853007e-38
1.9340038 -1.6340858 0.82025981 1.666826e-38
1.9412856 -1.6467817 0.81956619 1.5564079e-38
1.9474763 -1.6600059 0.81886089 1.6208005e-38
1.9538913 -1.6731548 0.81815642 1.7220351e-38
1.9634554 -1.6859462 0.81743014 1.6116168e-38
1.9693018 -1.698307 0.81677014 1.6576786e-38
1.9752352 -1.7118136 0.81605452 1.6668978e-38
1.9817485 -1.7249362 0.81535012 1.5656994e-38
1.9921184 -1.7358809 0.81470186 1.5565161e-38
1.9946034 -1.7512946 0.81393796 1.8143023e-38
2.0027347 -1.7633451 0.81326455 1.9063175e-38
2.0095637 -1.7755935 0.81259781 1.6302001e-38
2.0155959 -1.7896998 0.8118524 1.5565522e-38
2.022259 -1.8027228 0.81115085 1.5749193e-38
2.0288684 -1.8157816 0.81044829 1.8235227e-38
2.0357327 -1.8286715 0.80975062 1.5381849e-38
2.0421474 -1.8418592 0.80904424 1.3908882e-38
2.0526371 -1.8527436 0.80839741 1.4737202e-38
2.0567744 -1.867044 0.80766612 1.6670065e-38
1.6995239 -1.1620984 0.84560007 1.7495479e-38
1.7060851 -1.1751889 0.84489661 1.777135e-38
1.7129495 -1.1880789 0.84419888 1.8139411e-38
1.7159286 -1.2031198 0.84344655 1.8139409e-38
1.7255739 -1.2145901 0.84278226 1.8047575e-38
1.7327266 -1.2272888 0.84209013 1.7770991e-38
1.7401246 -1.2398255 0.84140265 1.7955738e-38
1.7464641 -1.2530628 0.84069484 1.8047934e-38
1.7531775 -1.2660526 0.83999431 1.8048294e-38
1.7578329 -1.2802304 0.83926249 1.7864263e-38
1.7660288 -1.2924137 0.83858198 1.8049016e-38
1.7722361 -1.3044928 0.83793098 1.8508918e-38
1.7810401 -1.3177322 0.83719277 1.8876978e-38
1.7877005 -1.3307812 0.83648998 1.7956466e-38
1.7937242 -1.3440719 0.83578354 1.8048661e-38
1.7976358 -1.3586614 0.83504128 1.7864994e-38
1.8049009 -1.3712859 0.83435124 1.9061731e-38
1.8121959 -1.3838903 0.83366185 1.8509279e-38
1.818167 -1.397372 0.83294696 1.8877702e-38
1.8240215 -1.4109308 0.83222991 1.8233417e-38
1.8309292 -1.4237918 0.83153301 1.8233057e-38
1.6302359 -1.0161892 0.85339445 1.7312537e-38
1.6350987 -1.0304002 0.85265851 1.8600383e-38
1.6405644 -1.0439686 0.85194564 1.878369e-38
1.6485947 -1.0562845 0.85126096 1.8783335e-38
1.6569953 -1.071003 0.85045737 1.8507109e-38
1.661019 -1.0827557 0.84984875 1.8046853e-38
1.6693691 -1.0927507 0.84927046 1.7587313e-38
1.6740096 -1.1092516 0.84842831 1.786282e-38
1.6810009 -1.1220573 0.84773302 1.8231241e-38
1.6877186 -1.1350443 0.84703249 1.804757e-38
1.6941494 -1.1482215 0.84632647 1.8323435e-38
1.6290947 -1.0071663 0.85383773 1.7312537e-38
2.0585344 -1.9161839 0.80530638 1.5196381e-38
2.0609596 -1.9315382 0.80454606 1.5380049e-38
2.0718608 -1.9465758 0.80369651 1.5471885e-38
2.0771258 -1.9567901 0.80314571 1.5102745e-38
2.0849252 -1.9684501 0.802495 1.4919792e-38
2.0905197 -1.9821812 0.80177301 1.5011268e-38
2.0974419 -1.9950327 0.80107635 1.841602e-38
2.104502 -2.0077927 0.80038244 1.8783365e-38
2.1097982 -2.0207639 0.79970014 1.4548854e-38
2.1154704 -2.0351474 0.79894596 1.4916913e-38
2.1216891 -2.0484195 0.7982381 1.4456302e-38
2.1311188 -2.0628595 0.7974351 1.5468651e-38
2.1443682 -2.0861952 0.79616183 1.4548857e-38
2.1530228 -2.0977101 0.79550761 1.7309679e-38
2.2108533 -2.2182329 0.78906202 7.1909186e-39
1.9480865 -1.6929185 0.81728739 1.6760813e-38
1.9551314 -1.7056888 0.81659317 1.5840303e-38
1.9613655 -1.7189959 0.8158834 1.6853728e-38
1.9687573 -1.7315367 0.81519574 1.5472965e-38
2.0082836 -1.8265009 0.81019139 1.749838e-38
2.0193584 -1.8372258 0.80954492 1.7406546e-38
2.0273137 -1.8501861 0.80883044 1.5933582e-38
2.0321231 -1.8639315 0.80811733 1.6025417e-38
2.0392923 -1.8766193 0.80742544 1.5841386e-38
2.0468869 -1.8890254 0.80674177 1.6761905e-38
2.0533767 -1.9021634 0.80603689 1.5564804e-38
2.1401279 -2.071378 0.79691899 1.4548494e-38
2.1596863 -2.1086428 0.79490542 1.2247584e-38
2.1804209 -2.1493087 0.79271567 1.16051e-38
2.1895616 -2.1608274 0.79205513 1.0684948e-38
2.1940284 -2.175169 0.79131782 9.671521e-39
2.2011077 -2.1879163 0.79062426 8.566614e-39
1.8033284 -1.4051963 0.83275717 1.8417084e-38
1.8077732 -1.4193544 0.83202887 1.8324529e-38
1.8158472 -1.4317178 0.83134133 1.8048304e-38
1.822948 -1.4447465 0.83063412 1.8508918e-38
1.829969 -1.4573725 0.82994705 1.906137e-38
1.8351208 -1.4713213 0.82922006 1.9797133e-38
1.8431182 -1.4836942 0.82853299 1.8049384e-38
1.8515757 -1.4956418 0.82786047 1.7681326e-38
1.8582357 -1.5086514 0.82715964 1.8325249e-38
1.8610803 -1.5208023 0.82654655 1.7589126e-38
1.8703523 -1.5367817 0.82567221 1.6668616e-38
1.8789774 -1.5472729 0.82506698 1.6576782e-38
1.884158 -1.5610094 0.8243497 1.7128157e-38
1.8924625 -1.5732306 0.82366604 1.6392392e-38
1.8958898 -1.587999 0.82292128 1.5103101e-38
1.9061166 -1.5990983 0.82226741 1.7128154e-38
1.9103261 -1.6132895 0.82154047 1.5839583e-38
1.9165963 -1.6265935 0.8208304 1.6668979e-38
1.9226875 -1.6399953 0.82011777 1.648351e-38
1.9294869 -1.6529285 0.81941879 1.5656273e-38
1.9362354 -1.6658949 0.81871891 1.6391675e-38
1.9426199 -1.6791028 0.81801194 1.8324892e-38
1.9761118 -1.7441018 0.81450748 1.6946649e-38
1.982776 -1.7571241 0.813806 1.7406909e-38
1.989642 -1.770013 0.81310833 1.5749554e-38
1.9959406 -1.7832774 0.81239974 1.501343e-38
2.0047224 -1.7948972 0.81173891 1.6946652e-38
2.0102751 -1.808656 0.81101596 1.759166e-38
2.0163229 -1.8220867 0.81030256 1.5289297e-38
1.6473832 -1.0900104 0.84967113 1.8046853e-38
1.6535474 -1.103364 0.84896004 1.8139045e-38
1.6606262 -1.1161119 0.84826648 1.7955012e-38
1.6666481 -1.12956 0.84755254 1.7770984e-38
1.6732349 -1.1426336 0.84684956 1.8047208e-38
1.6777437 -1.1568209 0.84611899 1.8598938e-38
1.6845224 -1.1697677 0.8454197 1.8047208e-38
1.6924272 -1.180027 0.84483433 1.8323439e-38
1.701242 -1.1942089 0.84405118 1.8691501e-38
1.7053754 -1.2085279 0.84331912 1.8047575e-38
1.7147996 -1.2200819 0.84265345 1.7955738e-38
1.7205511 -1.2335334 0.84194273 1.7956097e-38
1.7260556 -1.2469383 0.84123719 1.7772426e-38
1.7341942 -1.2594104 0.84054375 1.7680232e-38
1.7413182 -1.2722245 0.83984649 1.8140485e-38
1.7452049 -1.2867659 0.8391068 1.7772427e-38
1.7554474 -1.2978381 0.83845395 1.8324521e-38
1.7588276 -1.3126156 0.83770931 1.9152837e-38
1.7649375 -1.3260053 0.83699715 1.8232328e-38
1.7715055 -1.3390914 0.8362937 1.8233045e-38
1.7783242 -1.3520117 0.83559513 1.8693302e-38
1.7848271 -1.3651408 0.83489048 1.8508916e-38
1.7918528 -1.3779238 0.83419591 1.7957184e-38
1.798902 -1.3906912 0.8335017 1.8141217e-38
1.6166943 -1.0223578 0.85326743 1.8323799e-38
1.6217126 -1.0372673 0.85249633 1.8599659e-38
1.6282338 -1.0503845 0.85179204 1.8875527e-38
1.6353207 -1.0631268 0.85109866 1.8046852e-38
1.6417309 -1.0763174 0.85039222 1.8231242e-38
1.6143194 -1.0060128 0.8540743 1.3447198e-38
2.1363728 -2.1067343 0.7952829 1.4548861e-38
2.006089 -1.844298 0.80937159 1.6854454e-38
2.0119863 -1.8578284 0.80865532 1.538113e-38
2.0154355 -1.872592 0.80791044 1.6116891e-38
2.024374 -1.8862582 0.80715024 1.5932862e-38
2.030988 -1.8975931 0.80652964 1.6761896e-38
2.0387115 -1.9101217 0.80583858 1.4827599e-38
2.0432401 -1.9241414 0.80511582 1.4642491e-38
2.0500493 -1.9372367 0.80440909 1.5471526e-38
2.0605876 -1.9481642 0.80375952 1.4182591e-38
2.0645518 -1.9625566 0.80302596 1.6850502e-38
2.0719771 -1.9750217 0.80234158 1.7311833e-38
2.0772243 -1.9888171 0.80162072 1.7126724e-38
2.0841861 -2.0017097 0.80092168 1.6482077e-38
2.0925257 -2.0137208 0.80024767 1.7494787e-38
2.0960474 -2.0283875 0.79950655 1.5929623e-38
2.1059904 -2.039675 0.7988472 1.5284975e-38
2.1134441 -2.052175 0.79816079 1.7586261e-38
2.1182146 -2.0667634 0.79740798 1.5008398e-38
2.1273925 -2.0778089 0.79676962 1.2339778e-38
2.1337261 -2.0910504 0.79606169 1.215539e-38
2.1391256 -2.1023216 0.79545903 1.4548861e-38
2.1446645 -2.1145346 0.79480988 1.3444684e-38
2.1589782 -2.1467333 0.79310179 1.1788048e-38
2.1664755 -2.1567109 0.79253489 1.0223253e-38
2.173919 -2.1714323 0.79174298 1.0131783e-38
2.1775799 -2.1837282 0.79111284 9.8555549e-39
2.1841748 -2.1950226 0.79049438 9.4889416e-39
2.1936622 -2.2085683 0.78973323 1.1606917e-38
1.8014615 -1.4393017 0.83115745 1.8140857e-38
1.8080622 -1.4523661 0.83045471 1.7864992e-38
1.821709 -1.4782001 0.82905763 1.7773157e-38
1.8279669 -1.4914916 0.82834828 1.8417802e-38
1.8888872 -1.6080693 0.82205248 1.4734677e-38
1.902698 -1.6337947 0.82065862 1.8692593e-38
1.9089816 -1.6470693 0.81994975 1.5194936e-38
1.9148004 -1.6606517 0.81923199 1.6023614e-38
1.9222115 -1.6731791 0.81854475 1.6944843e-38
1.9286487 -1.6863524 0.81783885 1.5840303e-38
1.9319396 -1.7011571 0.81709397 1.5656272e-38
1.941503 -1.7127111 0.81642663 1.611617e-38
1.9483869 -1.7255881 0.81572932 1.71296e-38
1.9534353 -1.7394959 0.81500554 1.6117254e-38
1.9614317 -1.7527421 0.81427687 1.5656996e-38
1.9686991 -1.7646086 0.81362289 1.5749193e-38
1.9764344 -1.7771385 0.81293172 1.6301641e-38
1.9804238 -1.7876463 0.8123827 1.7866805e-38
1.9882334 -1.8027614 0.81156743 1.6853733e-38
1.9958407 -1.816416 0.81082428 1.5288936e-38
1.999982 -1.8309062 0.81008387 1.749838e-38
1.691485 -1.2157239 0.84314746 1.767951e-38
1.7319366 -1.2935498 0.83894712 1.8415993e-38
1.7522266 -1.3324199 0.83684826 1.8047574e-38
1.7579981 -1.3460338 0.83612949 1.8691866e-38
1.7647909 -1.3589711 0.83543038 1.8692226e-38
1.7710083 -1.3722894 0.83472031 1.7772433e-38
1.7776186 -1.3853475 0.83401775 1.7956467e-38
1.7821574 -1.3994572 0.83329052 1.7863911e-38
1.7911615 -1.4099368 0.83268124 1.9060649e-38
1.7955623 -1.4257724 0.8318736 1.8324169e-38
1.8355776 -1.5038871 0.82766491 1.8325607e-38
1.8430051 -1.5164038 0.82697803 1.7589128e-38
1.8495781 -1.5294865 0.82627475 1.8140858e-38
1.8567657 -1.5421624 0.82558328 1.6668256e-38
1.8636854 -1.5550157 0.82488662 1.6668256e-38
1.8699896 -1.5682766 0.82417816 1.5564074e-38
1.8767283 -1.5812497 0.8234781 1.7588407e-38
1.8825719 -1.5948159 0.8227607 1.703596e-38
1.8963921 -1.6205348 0.82136708 1.5287129e-38
1.6081076 -1.0442742 0.85233027 1.8691135e-38
1.6213521 -1.0703748 0.85092556 1.8599297e-38
1.6272435 -1.0839089 0.85020912 1.8047208e-38
1.6329008 -1.0975419 0.849491 1.8231236e-38
1.6384323 -1.1110322 0.84878105 1.8139041e-38
1.6473675 -1.1256231 0.84797698 1.8046848e-38
1.6548581 -1.1356298 0.84740871 1.7770984e-38
1.6612728 -1.1487596 0.84670508 1.8875527e-38
1.665437 -1.163231 0.84596533 1.8046486e-38
1.6719725 -1.1763384 0.84526139 1.8231238e-38
1.678847 -1.1892216 0.84456384 1.8875527e-38
1.6856074 -1.2021803 0.84386414 1.804793e-38
1.6990266 -1.228165 0.84246278 1.7771707e-38
1.7053723 -1.2413983 0.84175509 1.7310374e-38
1.7123541 -1.2542107 0.84105968 1.7679512e-38
1.718868 -1.2673326 0.84035528 1.8140128e-38
1.7259548 -1.2800751 0.83966184 1.8600383e-38
1.7390128 -1.3062991 0.83825356 1.7956097e-38
1.7458487 -1.3192078 0.83755529 1.7495483e-38
1.5845445 -1.0065942 0.85441285 1.6577149e-38
1.5971694 -1.0159893 0.85381055 1.7127774e-38
1.6021143 -1.0308073 0.85304469 1.8599659e-38
1.6155646 -1.0567713 0.85164398 1.8507464e-38
2.1222467 -2.1134956 0.7951349 1.3720905e-38
2.1760755 -2.2168887 0.78955364 8.5731468e-39
1.9462566 -1.7598683 0.81412446 1.6025415e-38
1.9527826 -1.7729821 0.81342024 1.5749549e-38
1.9797206 -1.8248856 0.81061947 1.7222516e-38
1.9854358 -1.84053 0.80980486 1.5564799e-38
1.9923036 -1.8515493 0.80919611 1.5288574e-38
2.0008049 -1.8637152 0.80851275 1.6945211e-38
2.0037813 -1.8786955 0.8077634 1.5748472e-38
2.0108964 -1.8914193 0.80707043 1.6485314e-38
2.0231872 -1.9181514 0.80564743 1.6208009e-38
2.0320132 -1.9298933 0.80498028 1.5010911e-38
2.0366745 -1.9440912 0.80424744 1.4550654e-38
2.0445778 -1.9562926 0.80356967 1.5654837e-38
2.0515671 -1.9690996 0.80287439 1.500947e-38
2.0583372 -1.9816322 0.80219477 1.6482437e-38
2.0642025 -1.9956037 0.80145788 1.6390241e-38
2.0719888 -2.0078828 0.80077797 1.4916915e-38
2.080888 -2.0198121 0.80010092 1.5009113e-38
2.0842359 -2.0346441 0.79935402 1.5930343e-38
2.0937994 -2.0459728 0.79869741 1.8138355e-38
2.1010733 -2.0587444 0.79800034 1.5009117e-38
2.1057079 -2.072731 0.79727787 1.6388455e-38
2.1139197 -2.0858912 0.79655075 1.5653053e-38
2.1178019 -2.0991185 0.79587364 1.3904577e-38
2.1264486 -2.1113193 0.79518676 1.5376466e-38
2.1313121 -2.125165 0.79446822 1.3719471e-38
2.1405573 -2.1359675 0.79384053 1.1973517e-38
2.1455445 -2.1509643 0.79306573 1.2248659e-38
2.1521196 -2.1640456 0.79236245 1.2892236e-38
2.1592367 -2.1767683 0.79166955 1.1144132e-38
2.1652799 -2.190202 0.79095614 1.0592402e-38
2.1725399 -2.2024629 0.79028344 8.4762302e-39
1.7749666 -1.4199734 0.83240283 1.8323806e-38
1.7818015 -1.4328827 0.83170462 1.8324526e-38
1.788206 -1.446077 0.83099806 1.8785142e-38
1.7921007 -1.4605473 0.83026171 1.7680956e-38
1.8002617 -1.471912 0.8296206 1.7589124e-38
1.8079661 -1.4859532 0.82885772 1.8693308e-38
1.8155913 -1.4976845 0.82820582 1.7405451e-38
1.8221343 -1.510787 0.82750195 1.8693308e-38
1.8285857 -1.5239505 0.82679635 1.8601112e-38
1.8430983 -1.5492108 0.82541597 1.7036316e-38
1.8492972 -1.5625416 0.82470548 1.7496209e-38
1.8562564 -1.5753686 0.8240096 1.6483506e-38
1.8619746 -1.5890177 0.82328987 1.6851568e-38
1.8667523 -1.6030335 0.82256424 1.6299118e-38
1.8738085 -1.6158481 0.82186776 1.5194575e-38
1.8793639 -1.6293982 0.82115477 1.5286766e-38
1.8879379 -1.6393278 0.82057691 1.6023974e-38
1.8938688 -1.6533343 0.81983757 1.6116165e-38
1.8999391 -1.668143 0.8190583 1.6300198e-38
1.9081374 -1.6804199 0.81837332 1.6208363e-38
1.9147525 -1.691798 0.81775063 1.510346e-38
1.9214302 -1.7065655 0.81696588 1.6024333e-38
1.9271282 -1.7176131 0.81637013 1.6853009e-38
1.9356072 -1.7319093 0.81558567 1.6209444e-38
1.9412986 -1.7457155 0.81485879 1.6025057e-38
1.9610085 -1.7849699 0.81274879 1.6210166e-38
1.9710919 -1.7961534 0.8120926 1.6670062e-38
1.9741486 -1.8111396 0.81134206 1.5473323e-38
1.625156 -1.1181608 0.8486051 1.8139041e-38
1.6649479 -1.1964233 0.84439206 1.7956093e-38
1.6711525 -1.2097504 0.84368175 1.8047927e-38
1.678556 -1.2222831 0.84299439 1.7587316e-38
1.6850927 -1.2353902 0.84229034 1.7862462e-38
1.6919034 -1.2483153 0.84159166 1.7494763e-38
1.6985753 -1.2613329 0.84089029 1.7310377e-38
1.705905 -1.2739143 0.84020156 1.7586959e-38
1.7119937 -1.287318 0.83948886 1.7863544e-38
1.7188632 -1.3002044 0.83879131 1.8047935e-38
1.7247778 -1.3137233 0.83807534 1.7311455e-38
1.7320921 -1.3263153 0.83738631 1.7587683e-38
1.7380592 -1.342376 0.83654875 1.7771711e-38
1.7466367 -1.3519312 0.83598864 1.8324163e-38
1.7532125 -1.3650069 0.8352856 1.80483e-38
1.7595911 -1.3781384 0.83458239 1.76806e-38
1.7669157 -1.3908437 0.83388782 1.8416358e-38
1.7697558 -1.4059876 0.83313239 1.7588043e-38
1.8369627 -1.5358382 0.82612765 1.8416723e-38
1.5789231 -1.0263221 0.85354328 1.7494759e-38
1.5855105 -1.0393995 0.85284007 1.8230157e-38
1.591869 -1.0525973 0.85213393 1.8321636e-38
1.5996038 -1.0651349 0.85144234 1.8414542e-38
1.6079128 -1.0791273 0.85067439 1.8598934e-38
1.6163502 -1.0895023 0.85007697 1.8783687e-38
1.6197904 -1.1042778 0.84933162 1.8599296e-38
1.6327088 -1.1305945 0.84792066 1.8598938e-38
1.638989 -1.1438713 0.84721172 1.7402557e-38
1.6462637 -1.1564894 0.84652191 1.7863537e-38
1.653168 -1.1693527 0.84582496 1.77717e-38
1.6592051 -1.1827908 0.84511137 1.8323794e-38
1.577565 -1.0083886 0.85441327 1.2801102e-38
2.155544 -2.2200639 0.78965503 6.6410029e-39
1.9833589 -1.8727814 0.80829591 1.5288214e-38
1.9906307 -1.8854014 0.80760598 1.501199e-38
1.9956566 -1.8995091 0.80687296 1.4827241e-38
2.002454 -1.9124434 0.80617398 1.5287496e-38
2.0094264 -1.9252616 0.80547833 1.5563364e-38
2.0172274 -1.9375306 0.80479866 1.5747035e-38
2.0305645 -1.96357 0.80339569 1.4365904e-38
2.0711033 -2.0413377 0.79919708 1.3629065e-38
2.0764236 -2.0552504 0.79846966 1.4549215e-38
2.0916519 -2.0800366 0.79710311 1.3352846e-38
2.0962825 -2.0944157 0.79636198 1.3903854e-38
2.1050344 -2.106046 0.79570103 1.556049e-38
2.1387582 -2.1708915 0.79220104 1.050019e-38
2.1516843 -2.1972029 0.7907902 1.1606539e-38
2.1567941 -2.2117734 0.79003406 7.5578921e-39
1.9207815 -1.7398639 0.81538951 1.6484592e-38
1.9264545 -1.7535433 0.81466889 1.5196378e-38
1.9327191 -1.7680562 0.81390136 1.5933218e-38
1.9392641 -1.7799764 0.81325376 1.6853731e-38
1.9457816 -1.7930548 0.81255138 1.6577144e-38
1.9537795 -1.8054569 0.81186295 1.5564799e-38
