# .PCD v0.7 - Point Cloud Data file format
VERSION 0.7
FIELDS x y z rgb
SIZE 4 4 4 4
TYPE F F F F
COUNT 1 1 1 1
WIDTH 1074
HEIGHT 1
VIEWPOINT 0 0 0 1 0 0 0
POINTS 1074
DATA ascii
-0.97768158 4.4336109 11.304151 1.2716493e-38
-0.97766507 4.4368625 11.296548 1.2348434e-38
-0.97764856 4.4401131 11.288946 1.2348431e-38
-1.0392358 4.0128608 12.287861 1.2347359e-38
-1.0392179 4.0163922 12.279602 1.2346279e-38
-1.0320535 4.0532331 12.193472 1.2440274e-38
-1.0320357 4.0567408 12.185269 1.2440274e-38
-1.0101637 4.1609797 11.941575 1.2808689e-38
-1.0101461 4.164413 11.933548 1.2625024e-38
-1.0101287 4.1678457 11.925521 1.2349526e-38
-1.0101113 4.171279 11.917493 1.2532842e-38
-1.0785778 3.6964328 13.027679 1.1979652e-38
-1.0163932 4.0128779 12.287868 1.2439555e-38
-1.0163753 4.0164104 12.27961 1.2346279e-38
-1.0163573 4.0199423 12.271352 1.2162613e-38
-1.0163394 4.0234742 12.263093 1.2255532e-38
-0.98795986 4.1609969 11.941583 1.2808689e-38
-0.9879424 4.1644297 11.933556 1.2625024e-38
-0.93564236 4.4303927 11.311767 1.2900904e-38
-0.93562585 4.4336438 11.304165 1.2624673e-38
-0.93560934 4.4368954 11.296562 1.2072567e-38
-1.054356 3.6927042 13.036451 1.2438829e-38
-1.054337 3.6964517 13.027688 1.2438109e-38
-0.99355054 4.0128961 12.287876 1.2991999e-38
-0.9935326 4.016428 12.279617 1.2530662e-38
-0.99351466 4.0199594 12.271359 1.2438832e-38
-0.99349672 4.0234919 12.263101 1.2255529e-38
-0.96575606 4.1610146 11.94159 1.2808336e-38
-0.96573859 4.1644478 11.933562 1.2809409e-38
-0.91461456 4.4304094 11.311774 1.2440993e-38
-0.91458154 4.4369116 11.296569 1.2072923e-38
-1.0301151 3.692723 13.03646 1.2346632e-38
-1.0300962 3.6964715 13.027696 1.2345913e-38
-1.0300771 3.7002189 13.018932 1.2070405e-38
-0.97068995 4.0164456 12.279626 1.2530662e-38
-0.97067201 4.0199776 12.271367 1.2438832e-38
-0.97065407 4.0235095 12.263108 1.2255529e-38
-0.94356978 4.157599 11.949625 1.2808706e-38
-0.89360321 4.4271746 11.319384 1.2532828e-38
-0.8935867 4.4304256 11.311781 1.2440993e-38
-0.89357018 4.4336772 11.304178 1.2257317e-38
-1.0058749 3.6927423 13.036468 1.2070768e-38
-1.0058558 3.6964898 13.027704 1.2346632e-38
-1.0058367 3.7002378 13.01894 1.2070405e-38
-0.94784772 4.0164633 12.279634 1.2256236e-38
-0.94782978 4.0199957 12.271375 1.2163684e-38
-0.94781184 4.0235276 12.263116 1.2256238e-38
-0.92133152 4.1644826 11.933578 1.2625374e-38
-0.87257576 4.4271908 11.31939 1.2532828e-38
-0.87255925 4.4304428 11.311788 1.2441346e-38
-0.87254274 4.4336934 11.304186 1.2256961e-38
-0.98163402 3.6927607 13.036476 1.1794541e-38
-0.98161495 3.6965096 13.027712 1.2070405e-38
-0.98159593 3.7002571 13.018949 1.2070405e-38
-0.92502308 4.0129504 12.287899 1.2440627e-38
-0.92500514 4.0164819 12.279641 1.2256236e-38
-0.9249872 4.0200138 12.271382 1.2163684e-38
-0.92496926 4.0235453 12.263124 1.2163684e-38
-0.89918005 4.1542006 11.957667 1.2440993e-38
-0.89916259 4.1576338 11.94964 1.2440274e-38
-0.89912772 4.1645002 11.933585 1.2625374e-38
-0.85156447 4.4239564 11.327 1.2533547e-38
-0.85154796 4.4272075 11.319398 1.2532828e-38
-0.85151488 4.4337106 11.304193 1.2440993e-38
-0.95737416 3.6965284 13.02772 1.2069699e-38
-0.95735514 3.7002759 13.018956 1.2253014e-38
-0.92924547 3.8546474 12.658051 1.197857e-38
-0.92922699 3.858285 12.649545 1.1978923e-38
-0.90218037 4.0129681 12.287907 1.2164766e-38
-0.90214449 4.0200315 12.27139 1.2256238e-38
-0.87695885 4.1576509 11.949648 1.2165122e-38
-0.87694144 4.1610842 11.94162 1.2440627e-38
-0.87933767 4.0129857 12.287914 1.2164766e-38
-0.87930179 4.0200496 12.271398 1.2256238e-38
-0.85477251 4.1542358 11.957683 1.2533547e-38
-0.8547551 4.1576691 11.949655 1.2165122e-38
-0.85473764 4.1611018 11.941628 1.2440627e-38
-0.85472023 4.164535 11.933599 1.2440274e-38
-0.83154595 4.3041263 11.607244 1.2808336e-38
-0.83152902 4.3074665 11.599433 1.2807631e-38
-0.80414444 4.4594431 11.244124 1.2440645e-38
-0.8041116 4.4659028 11.22902 1.2901605e-38
-0.8565129 4.0094719 12.296181 1.1888175e-38
-0.85649496 4.0130043 12.287922 1.2072567e-38
-0.83258617 4.1508203 11.965717 1.2625024e-38
-0.83256876 4.154253 11.95769 1.2533547e-38
-0.8325513 4.1576862 11.949662 1.2625024e-38
-0.83253384 4.1611195 11.941635 1.2716493e-38
-0.80996102 4.3008027 11.615061 1.2809409e-38
-0.80994409 4.304143 11.607251 1.2900533e-38
-0.80992711 4.3074827 11.599441 1.2900533e-38
-0.80991012 4.3108225 11.591631 1.2624673e-38
-0.83363485 4.0165539 12.279672 1.2072567e-38
-0.81034797 4.1577039 11.94967 1.2625024e-38
-0.81033057 4.1611366 11.941643 1.2808689e-38
-0.78835946 4.3008204 11.615067 1.2625377e-38
-0.78834254 4.3041601 11.607258 1.2808336e-38
-0.78832555 4.3074999 11.599448 1.2808336e-38
-0.78830862 4.3108397 11.591639 1.2808706e-38
-0.84138048 3.8139584 12.753384 1.2162245e-38
-0.84136188 3.8176239 12.744814 1.2070768e-38
-0.81081009 4.0130401 12.287937 1.2439923e-38
-0.81077421 4.0201035 12.27142 1.2072567e-38
-0.76675761 4.3008375 11.615075 1.2809056e-38
-0.76674062 4.3041773 11.607265 1.2625024e-38
-0.76672363 4.3075175 11.599455 1.2625038e-38
-0.76670671 4.3108573 11.591645 1.2900548e-38
-0.78793156 4.0201216 12.271428 1.2165122e-38
-0.74515569 4.3008533 11.615083 1.2625024e-38
-0.7451387 4.304193 11.607273 1.2625024e-38
-0.74512178 4.3075333 11.599463 1.2532842e-38
-0.74510479 4.3108735 11.591653 1.2992744e-38
-0.7651248 4.0130763 12.287952 1.2439923e-38
-0.76510692 4.0166078 12.279695 1.2347731e-38
-0.76508898 4.0201397 12.271436 1.2623226e-38
-0.76507103 4.0236712 12.263178 1.262322e-38
-0.72355378 4.3008709 11.615089 1.2441346e-38
-0.72353685 4.3042111 11.60728 1.2165119e-38
-0.72351986 4.3075509 11.59947 1.2441349e-38
-0.78768897 3.6966608 13.027778 1.2161541e-38
-0.74226421 4.0166254 12.279702 1.2162981e-38
-0.74224627 4.0201573 12.271443 1.253103e-38
-0.74222833 4.0236888 12.263186 1.262322e-38
-0.7019518 4.3008881 11.615097 1.2441346e-38
-0.70193487 4.3042278 11.607287 1.2072923e-38
-0.70191789 4.3075676 11.599477 1.2257317e-38
-0.7634486 3.6966805 13.027785 1.2346279e-38
-0.71942198 4.016643 12.27971 1.2163334e-38
-0.71940404 4.0201745 12.271452 1.2347359e-38
-0.6803503 4.3009048 11.615104 1.2625744e-38
-0.68033332 4.3042445 11.607294 1.2164416e-38
-0.73920774 3.6966994 13.027794 1.2346279e-38
-0.70168084 3.9745657 12.378139 1.2070065e-38
-0.71498597 3.6929708 13.036566 1.2070049e-38
-0.69915825 3.8140707 12.753431 1.2345913e-38
-0.69913965 3.8177357 12.744862 1.2345913e-38
-0.67373669 4.0166793 12.279725 1.2255532e-38
-0.67371875 4.0202107 12.271467 1.2439923e-38
-0.67547315 3.8104239 12.76201 1.2438829e-38
-0.6754545 3.8140895 12.753439 1.2530306e-38
-0.6754359 3.8177536 12.744869 1.2530306e-38
-0.65566224 3.9746017 12.378154 1.2071514e-38
-0.65091193 4.013165 12.287992 1.2162981e-38
-0.65089399 4.0166969 12.279733 1.2255532e-38
-0.65087605 4.0202284 12.271475 1.2532119e-38
-0.66650432 3.6930084 13.036582 1.1794541e-38
-0.65176934 3.8104427 12.762017 1.2438126e-38
-0.65175074 3.8141079 12.753447 1.2530324e-38
-0.65173209 3.8177729 12.744878 1.2622507e-38
-0.63265288 3.9746201 12.378161 1.2255882e-38
-0.62806922 4.0131831 12.287999 1.2163684e-38
-0.62805128 4.016715 12.27974 1.2256238e-38
-0.62803334 4.020247 12.271482 1.2807617e-38
-0.628066 3.810461 12.762025 1.234593e-38
-0.62804741 3.8141263 12.753455 1.2530324e-38
-0.62802881 3.8177912 12.744885 1.2622507e-38
-0.609644 3.974638 12.378169 1.2255882e-38
-0.60522699 4.0132012 12.288007 1.2163684e-38
-0.60519117 4.0202651 12.27149 1.253103e-38
-0.58831108 4.1578779 11.949744 1.2532823e-38
-0.58829361 4.1613107 11.941717 1.280797e-38
-0.57237506 4.2943096 11.63076 1.271794e-38
-0.57234114 4.3009896 11.61514 1.2993448e-38
-0.60436219 3.8104792 12.762033 1.2162964e-38
-0.60434359 3.8141451 12.753463 1.2163684e-38
-0.604325 3.8178103 12.744893 1.2438832e-38
-0.58665276 3.9710984 12.386496 1.2255882e-38
-0.58238435 4.0132189 12.288014 1.2162613e-38
-0.58236641 4.0167508 12.279756 1.225481e-38
-0.58234847 4.0202823 12.271498 1.225481e-38
-0.56610727 4.1578956 11.949752 1.2532823e-38
-0.56608987 4.1613283 11.941725 1.2992001e-38
-0.5660724 4.1647615 11.933697 1.2716493e-38
-0.55079007 4.2909865 11.638577 1.2625394e-38
-0.55077308 4.2943263 11.630768 1.271794e-38
-0.55073917 4.3010068 11.615148 1.3084574e-38
-0.5806585 3.8104985 12.762041 1.2162964e-38
-0.55954164 4.013237 12.288022 1.2162613e-38
-0.54390353 4.1579127 11.949759 1.2532823e-38
-0.54388607 4.161346 11.941732 1.2992001e-38
-0.5438686 4.1647792 11.933704 1.2808689e-38
-0.52918816 4.2910037 11.638584 1.2532838e-38
-0.52917123 4.2943435 11.630774 1.2625744e-38
-0.52915424 4.2976832 11.622965 1.2901252e-38
-0.52913731 4.3010235 11.615155 1.3084574e-38
-0.55695468 3.8105168 12.762049 1.216332e-38
-0.55693609 3.8141816 12.753479 1.216332e-38
-0.53671694 4.0097232 12.296288 1.2070418e-38
-0.536699 4.0132551 12.28803 1.1978222e-38
-0.53668106 4.0167871 12.279771 1.2070418e-38
-0.52169979 4.1579304 11.949767 1.271614e-38
-0.52168232 4.1613636 11.941739 1.271614e-38
-0.52166492 4.1647964 11.933712 1.2624673e-38
-0.5075863 4.2910204 11.638592 1.2440993e-38
-0.50756931 4.2943606 11.630782 1.2901605e-38
-0.50755233 4.2977004 11.622972 1.2993803e-38
-0.5075354 4.3010406 11.615162 1.3361507e-38
-0.54530072 3.6931031 13.036623 1.2162262e-38
-0.54528165 3.696852 13.027859 1.2162964e-38
-0.49951342 4.1545143 11.957802 1.2532828e-38
-0.49949598 4.1579475 11.949774 1.271614e-38
-0.49947855 4.1613808 11.941747 1.2808336e-38
-0.49946111 4.1648135 11.93372 1.2808706e-38
-0.48598436 4.2910376 11.638599 1.2533547e-38
-0.4859674 4.2943778 11.630789 1.2901605e-38
-0.48595041 4.297718 11.622979 1.2993803e-38
-0.48593345 4.3010578 11.61517 1.3269311e-38
-0.52107942 3.6893749 13.045395 1.2162245e-38
-0.52106035 3.6931229 13.036631 1.2162964e-38
-0.52104133 3.6968713 13.027866 1.2070768e-38
-0.494652 3.9640555 12.403164 1.2438476e-38
-0.49463391 3.9676132 12.394846 1.2438832e-38
-0.47731006 4.154532 11.957809 1.2532828e-38
-0.47729263 4.1579652 11.949781 1.271614e-38
-0.47727519 4.1613979 11.941754 1.2900533e-38
-0.47725776 4.1648316 11.933726 1.2625024e-38
-0.46438283 4.2910547 11.638606 1.2993082e-38
-0.46436587 4.2943945 11.630796 1.2901608e-38
-0.46434891 4.2977343 11.622987 1.2993803e-38
-0.46433195 4.3010745 11.615176 1.2993448e-38
-0.4968386 3.6893938 13.045403 1.2162245e-38
-0.49681956 3.6931417 13.036639 1.2162964e-38
-0.49680051 3.6968896 13.027875 1.2070768e-38
-0.49678147 3.7006376 13.019111 1.2162964e-38
-0.47164267 3.9640737 12.403172 1.2346279e-38
-0.47162461 3.9676311 12.394854 1.2346635e-38
-0.47160652 3.9711883 12.386535 1.2162964e-38
-0.47158846 3.9747465 12.378216 1.2070418e-38
-0.45510629 4.1545496 11.957817 1.2440274e-38
-0.45508885 4.1579828 11.949789 1.271614e-38
-0.45507142 4.1614156 11.941762 1.271614e-38
-0.44278091 4.2910714 11.638614 1.2993082e-38
-0.44276395 4.2944112 11.630804 1.2901608e-38
-0.44274697 4.2977509 11.622994 1.2993803e-38
-0.47261679 3.6856649 13.054174 1.2162248e-38
-0.47259775 3.6894135 13.045411 1.234556e-38
-0.4725787 3.693161 13.036647 1.2253717e-38
-0.47255969 3.696909 13.027884 1.2070405e-38
-0.44860822 3.9656184 12.399609 1.1793824e-38
-0.44861525 3.9676487 12.394861 1.2162964e-38
-0.44859719 3.9712069 12.386542 1.2162964e-38
-0.44857913 3.9747648 12.378223 1.2070768e-38
-0.43290251 4.1545672 11.957824 1.271614e-38
-0.43288508 4.1580005 11.949797 1.271614e-38
-0.448376 3.6856842 13.054183 1.2346279e-38
-0.44835696 3.6894314 13.04542 1.2437756e-38
-0.44833791 3.6931803 13.036655 1.2345913e-38
-0.44831887 3.6969278 13.027891 1.2070405e-38
-0.42562398 3.9641099 12.403188 1.2162245e-38
-0.42560592 3.9676676 12.394869 1.2070768e-38
-0.42558786 3.9712253 12.38655 1.1978573e-38
-0.42556977 3.9747832 12.378231 1.2070768e-38
-0.42411613 3.6894507 13.045427 1.2529602e-38
-0.42409712 3.6931987 13.036663 1.2437756e-38
-0.42407808 3.6969466 13.0279 1.234556e-38
-0.40259659 3.967685 12.394876 1.1977854e-38
-0.40257853 3.9712431 12.386558 1.1794541e-38
-0.40256047 3.9748003 12.378239 1.1977851e-38
-0.39987579 3.6894696 13.045436 1.2529602e-38
-0.3881256 3.8514345 12.666739 1.2070768e-38
-0.38810712 3.8550723 12.658233 1.2163684e-38
-0.37706032 3.961786 12.408727 1.1700547e-38
-0.37958771 3.9677036 12.394884 1.1977854e-38
-0.37956965 3.9712608 12.386565 1.1794541e-38
-0.37955156 3.9748187 12.378246 1.1885655e-38
-0.36459777 3.8514528 12.666747 1.2348431e-38
-0.36457929 3.8550906 12.65824 1.2348078e-38
-0.36456081 3.8587282 12.649734 1.2440274e-38
-0.35659647 3.964164 12.403211 1.2070771e-38
-0.35657841 3.9677219 12.394892 1.2070052e-38
-0.35656032 3.9712791 12.386573 1.2070049e-38
-0.35654226 3.9748373 12.378254 1.1701995e-38
-0.34106991 3.8514707 12.666755 1.2256236e-38
-0.34105143 3.8551085 12.658249 1.2348078e-38
-0.34103295 3.8587465 12.649742 1.2348078e-38
-0.33356905 3.9677401 12.394899 1.2346279e-38
-0.33376563 3.9702246 12.389089 1.1333206e-38
-0.31754205 3.8514893 12.666762 1.2163684e-38
-0.31752357 3.8551273 12.658257 1.2255532e-38
-0.28546649 4.0063887 12.304631 1.1887824e-38
-0.28544855 4.0099206 12.296372 1.2163334e-38
-0.28543061 4.013453 12.288114 1.2255532e-38
-0.28541267 4.016984 12.279856 1.253103e-38
-0.27367225 4.2222748 11.799849 1.2439923e-38
-0.27365506 4.2256603 11.791932 1.2440645e-38
-0.27363786 4.2290459 11.784015 1.2531772e-38
-0.26813075 4.3221502 11.566321 1.2532122e-38
-0.26811388 4.3254671 11.558565 1.280835e-38
-0.26809704 4.328784 11.550809 1.2808706e-38
-0.2680802 4.3321013 11.543053 1.29931e-38
-0.25944978 4.0060697 12.305433 1.1517964e-38
-0.26260629 4.0099387 12.29638 1.2715422e-38
-0.26258835 4.0134706 12.288121 1.2439555e-38
-0.26257041 4.0170021 12.279863 1.2623236e-38
-0.25177443 4.2222919 11.799856 1.2440274e-38
-0.25175723 4.225678 11.791939 1.2532828e-38
-0.24667738 4.3221669 11.566328 1.2440642e-38
-0.24666055 4.3254843 11.558572 1.2808706e-38
-0.24664369 4.3288012 11.550816 1.2441723e-38
-0.24662684 4.3321185 11.543059 1.2534277e-38
-0.25443137 3.689584 13.045485 1.2256238e-38
-0.25439328 3.6970799 13.027956 1.2255517e-38
-0.24694046 3.8551826 12.65828 1.2439926e-38
-0.23978157 4.0064244 12.304646 1.2255529e-38
-0.23976365 4.0099568 12.296388 1.253103e-38
-0.23974571 4.0134883 12.288129 1.2623945e-38
-0.23972777 4.0170202 12.279871 1.271579e-38
-0.22520678 4.325501 11.558579 1.2624673e-38
-0.22518992 4.3288183 11.550823 1.2441723e-38
-0.22517307 4.3321347 11.543067 1.2441723e-38
-0.22515623 4.3354521 11.535311 1.3086718e-38
-0.23019055 3.6896033 13.045493 1.2440627e-38
-0.23017152 3.6933513 13.036729 1.253103e-38
-0.23015247 3.6970992 13.027965 1.2531025e-38
-0.23013344 3.7008476 13.0192 1.2438829e-38
-0.22341262 3.8552015 12.658288 1.2623945e-38
-0.22339414 3.858839 12.649782 1.2439555e-38
-0.21509835 4.0076413 12.301855 1.1610882e-38
-0.21692097 4.009974 12.296395 1.2255535e-38
-0.21690303 4.0135064 12.288136 1.2623223e-38
-0.21688509 4.0170379 12.279879 1.3085277e-38
-0.20594974 3.6896226 13.045501 1.2256236e-38
-0.20593069 3.6933701 13.036736 1.253103e-38
-0.20591167 3.697118 13.027973 1.262322e-38
-0.20589262 3.700866 13.019209 1.2531025e-38
-0.18732405 4.1910801 11.872978 1.2256589e-38
-0.18167084 3.6971378 13.027981 1.2623939e-38
-0.097750716 4.2703977 11.687704 1.2532838e-38
-0.097716555 4.2771239 11.671977 1.271974e-38
-0.095124803 4.4052925 11.372285 1.3085643e-38
-0.095108181 4.4085655 11.364632 1.2993097e-38
-0.095091559 4.4118381 11.356979 1.3085293e-38
-0.076000646 4.2704148 11.687712 1.2440998e-38
-0.075983569 4.273778 11.679849 1.2717233e-38
-0.075966485 4.2771406 11.671985 1.2900904e-38
-0.073958062 4.4053097 11.372292 1.336151e-38
-0.073941439 4.4085822 11.364639 1.3085643e-38
-0.073924817 4.4118552 11.356986 1.3178198e-38
-0.055798631 4.1253114 12.027052 1.2255517e-38
-0.05578107 4.1287689 12.018968 1.2256236e-38
-0.055763509 4.132226 12.010883 1.2255882e-38
-0.052791335 4.4053259 11.372298 1.3269314e-38
-0.052774712 4.4085984 11.364646 1.2993448e-38
-0.033420317 4.1287861 12.018975 1.2255532e-38
-0.03340276 4.1322436 12.010891 1.2255535e-38
-0.031641625 4.40207 11.379958 1.3361159e-38
-0.031625003 4.4053426 11.372306 1.3360788e-38
-0.031608384 4.4086146 11.364654 1.3176397e-38
-0.031591762 4.4118876 11.357 1.2809407e-38
-0.011076696 4.1253462 12.027067 1.2255529e-38
-0.011059136 4.1288033 12.018983 1.2347728e-38
-0.011041576 4.1322613 12.010899 1.2347731e-38
-0.011024017 4.1357188 12.002813 1.2439923e-38
-0.010474896 4.4020863 11.379966 1.3361159e-38
-0.010441652 4.4086318 11.36466 1.3268592e-38
0.011284486 4.1253638 12.027074 1.2440274e-38
0.011302046 4.1288214 12.01899 1.2347728e-38
0.011319606 4.1322789 12.010905 1.2439926e-38
0.011337166 4.1357365 12.002821 1.2439923e-38
0.010691836 4.4021029 11.379972 1.3360804e-38
0.010708458 4.4053755 11.37232 1.3913256e-38
0.01072508 4.408648 11.364668 1.3453337e-38
0.033645242 4.1253815 12.027081 1.2532828e-38
0.0336628 4.1288385 12.018997 1.2532119e-38
0.033680361 4.1322966 12.010913 1.2439926e-38
0.033697922 4.1357536 12.002829 1.2439923e-38
0.056024406 4.1288562 12.019005 1.2532828e-38
0.056041967 4.1323137 12.010921 1.2532119e-38
0.054499347 4.2705173 11.687756 1.2438126e-38
0.054516427 4.2738805 11.679892 1.2347012e-38
0.054533508 4.2772436 11.672029 1.2532828e-38
0.076248996 4.270535 11.687762 1.234593e-38
0.076266073 4.2738976 11.679899 1.2439207e-38
0.076283157 4.2772603 11.672035 1.2809056e-38
0.074659288 4.3664465 11.463489 1.2901252e-38
0.074676022 4.36974 11.455786 1.2900533e-38
0.074692748 4.3730345 11.448083 1.3084574e-38
0.10145415 4.0923529 12.104461 1.2163684e-38
0.10147183 4.0958347 12.096319 1.2256236e-38
0.097999483 4.2705517 11.68777 1.2532119e-38
0.09801656 4.2739143 11.679907 1.2809056e-38
0.098033644 4.2772779 11.672043 1.2809056e-38
0.095982045 4.3697572 11.455792 1.2900183e-38
0.095998771 4.3730516 11.44809 1.289983e-38
0.096015505 4.3763452 11.440388 1.2993097e-38
0.12397231 4.0923705 12.104468 1.2163684e-38
0.12398999 4.0958519 12.096327 1.2348431e-38
0.12400767 4.0993333 12.088186 1.216332e-38
0.11974914 4.2705684 11.687778 1.2808706e-38
0.11976621 4.2739315 11.679914 1.2809056e-38
0.11727053 4.3664794 11.463503 1.2808706e-38
0.11728726 4.3697739 11.4558 1.2900183e-38
0.11730399 4.3730679 11.448097 1.2992025e-38
0.11732072 4.3763623 11.440394 1.2993097e-38
0.14649047 4.0923877 12.104476 1.2163334e-38
0.14650814 4.0958695 12.096334 1.2256611e-38
0.13857573 4.3664961 11.46351 1.2900886e-38
0.13859247 4.3697906 11.455807 1.3084924e-38
0.13862592 4.3763785 11.440402 1.3546258e-38
0.18193999 3.6974227 13.028103 1.1516876e-38
0.16900949 4.0924058 12.104484 1.2163334e-38
0.16902716 4.0958881 12.096342 1.2440642e-38
0.18002489 4.402236 11.38003 1.197856e-38
0.18004152 4.405509 11.372376 1.2531375e-38
0.18005814 4.4087815 11.364724 1.2993803e-38
0.2053255 4.3016005 11.615401 1.2624673e-38
0.20117541 4.3989801 11.387689 1.2993082e-38
0.20119202 4.4022527 11.380036 1.197856e-38
0.20120864 4.4055247 11.372384 1.2346982e-38
0.20122527 4.4087977 11.364732 1.2993803e-38
0.25668636 3.6491733 13.141088 1.2162245e-38
0.25670555 3.6529508 13.132255 1.2162245e-38
0.22692701 4.3016167 11.615409 1.2074021e-38
0.22234173 4.3989968 11.387696 1.2901608e-38
0.22235835 4.4022689 11.380044 1.2532823e-38
0.22237496 4.4055419 11.372391 1.2809056e-38
0.22239159 4.4088144 11.364738 1.3177488e-38
0.28112116 3.6491926 13.141097 1.2162245e-38
0.28114036 3.6529701 13.132262 1.2162245e-38
0.24851155 4.2982941 11.623226 1.2440645e-38
0.24852853 4.3016343 11.615416 1.2074021e-38
0.24349144 4.39574 11.395356 1.3178195e-38
0.24350806 4.399013 11.387703 1.2901608e-38
0.2435413 4.4055586 11.372398 1.2993448e-38
0.30557609 3.6529894 13.132271 1.2162964e-38
0.277668 4.1654239 11.93398 1.2072923e-38
0.27013084 4.3016515 11.615423 1.1981822e-38
0.27014783 4.3049912 11.607614 1.2440993e-38
0.27016479 4.308331 11.599804 1.271794e-38
0.26465854 4.3957572 11.395363 1.2718308e-38
0.26467517 4.3990297 11.387711 1.271794e-38
0.2646918 4.4023023 11.380058 1.2993803e-38
0.26470843 4.4055753 11.372405 1.3085999e-38
0.29171541 4.2983284 11.62324 1.2440642e-38
0.29173237 4.3016682 11.615431 1.2074018e-38
0.29174933 4.3050079 11.607621 1.2440993e-38
0.28582489 4.3957734 11.39537 1.2441723e-38
0.28584152 4.3990464 11.387717 1.2625744e-38
0.28585812 4.4023194 11.380065 1.3085999e-38
0.31331775 4.2983446 11.623248 1.2441346e-38
0.3133347 4.3016853 11.615438 1.2625377e-38
0.31335166 4.3050251 11.607628 1.2625377e-38
0.31336865 4.3083649 11.599818 1.2625024e-38
0.3349362 4.301702 11.615445 1.2809409e-38
0.33495316 4.3050423 11.607635 1.2625377e-38
0.33497012 4.308382 11.599825 1.2625024e-38
0.3565377 4.3017192 11.615452 1.271794e-38
0.35655466 4.305059 11.607642 1.2809409e-38
0.35657164 4.3083992 11.599833 1.2625377e-38
0.37815699 4.3050761 11.60765 1.2809409e-38
0.37817395 4.3084159 11.59984 1.2809409e-38
0.40301207 4.2298737 11.783549 1.2348803e-38
0.40520397 4.2295794 11.784243 1.3085643e-38
0.48606324 3.8223314 12.73669 1.2256236e-38
0.448966 4.2228417 11.800092 1.2900902e-38
0.44898319 4.2262282 11.792174 1.2625394e-38
0.44901761 4.2329998 11.77634 1.2348078e-38
0.50974798 3.8186848 12.745268 1.2439555e-38
0.50976658 3.8223493 12.736698 1.2256236e-38
0.47088099 4.2262444 11.792182 1.2440642e-38
0.47091538 4.2330165 11.776347 1.2348078e-38
0.53345215 3.8187027 12.745275 1.2072923e-38
0.53347081 3.8223684 12.736706 1.2163673e-38
0.5067693 4.0891895 12.112739 1.1978222e-38
0.49281403 4.2330341 11.776355 1.2347728e-38
0.47634172 4.3991961 11.387781 1.271794e-38
0.47635835 4.4024687 11.380129 1.2534277e-38
0.47637498 4.4057412 11.372477 1.2534277e-38
0.47639158 4.4090137 11.364824 1.2534277e-38
0.57436258 3.6532001 13.132361 1.1978222e-38
0.55715549 3.818722 12.745283 1.1980728e-38
0.55717409 3.8223867 12.736714 1.1978923e-38
0.49752465 4.4024854 11.380136 1.2441723e-38
0.49754128 4.4057584 11.372483 1.2441723e-38
0.49755791 4.4090309 11.364831 1.225733e-38
0.59879827 3.6532199 13.132369 1.2069699e-38
0.58087838 3.8224056 12.736722 1.2070768e-38
0.51867515 4.3992295 11.387795 1.2624673e-38
0.51869178 4.4025021 11.380143 1.2532119e-38
0.51872504 4.4090471 11.364839 1.2256614e-38
0.62323308 3.6532383 13.132378 1.1977503e-38
0.55352145 4.2651834 11.70131 1.2071134e-38
0.55473173 4.2675476 11.695786 1.2993448e-38
0.53984153 4.3992462 11.387803 1.2532119e-38
0.53985816 4.4025187 11.38015 1.2439923e-38
0.53987473 4.4057913 11.372498 1.2439923e-38
0.53989136 4.4090638 11.364845 1.2071864e-38
0.64766788 3.6532586 13.132385 1.1794541e-38
0.57646435 4.2642016 11.703657 1.225733e-38
0.57649851 4.2709274 11.68793 1.2625377e-38
0.5610078 4.3992624 11.38781 1.244063e-38
0.56102443 4.402535 11.380157 1.2257315e-38
0.56104106 4.405808 11.372505 1.1889255e-38
0.56105769 4.409081 11.364852 1.1888905e-38
0.6328916 3.982729 12.361949 1.234593e-38
0.63290966 3.9862869 12.35363 1.2622876e-38
0.59586054 4.2668691 11.697462 1.1980024e-38
0.59823191 4.2675819 11.695802 1.2532828e-38
0.59824896 4.2709451 11.687938 1.2440627e-38
0.59826607 4.2743077 11.680075 1.2165119e-38
0.58219159 4.4025521 11.380164 1.1980728e-38
0.58220822 4.4058247 11.372512 1.179706e-38
0.58222485 4.4090972 11.36486 1.1888905e-38
0.58224148 4.4123702 11.357207 1.1888905e-38
0.65588236 3.9791896 12.370275 1.2346635e-38
0.65590042 3.9827473 12.361957 1.2531025e-38
0.65591854 3.9863045 12.353639 1.2898734e-38
0.61996442 4.264235 11.703672 1.2532828e-38
0.61998153 4.2675982 11.695808 1.2440274e-38
0.61999857 4.2709613 11.687945 1.2348078e-38
0.62001568 4.2743239 11.680082 1.2255882e-38
0.6788922 3.9792078 12.370283 1.2162245e-38
0.67891026 3.9827652 12.361964 1.2162601e-38
0.67892832 3.9863229 12.353646 1.2530311e-38
0.66438138 4.0858312 12.120933 1.2255532e-38
0.66439903 4.089313 12.112791 1.2164416e-38
0.66441673 4.0927949 12.10465 1.2164418e-38
0.66443443 4.0962763 12.096509 1.2532122e-38
0.63972235 4.2667971 11.697726 1.2163688e-38
0.63819414 4.2709446 11.688025 1.2071132e-38
0.64174908 4.2709789 11.687952 1.2440274e-38
0.64176613 4.2743416 11.680089 1.2348078e-38
0.70190108 3.9792252 12.370291 1.1425033e-38
0.70191914 3.9827833 12.361972 1.1240289e-38
0.7019372 3.9863408 12.353654 1.142468e-38
0.68689954 4.0858488 12.12094 1.2255882e-38
0.68691725 4.0893302 12.112799 1.2256611e-38
0.68693495 4.0928125 12.104657 1.2439923e-38
0.68695259 4.0962939 12.096517 1.2532119e-38
0.66348171 4.2676325 11.695824 1.2623945e-38
0.66349882 4.2709951 11.68796 1.2439555e-38
0.66351587 4.2743578 11.680097 1.2439555e-38
0.7249099 3.9792435 12.370298 1.0871859e-38
0.72492802 3.9828007 12.36198 1.1148093e-38
0.72494608 3.9863584 12.353662 1.142468e-38
0.70941764 4.0858669 12.120948 1.2440274e-38
0.70943534 4.0893483 12.112806 1.2440642e-38
0.70945305 4.0928307 12.104665 1.2532119e-38
0.70947069 4.096312 12.096524 1.2532119e-38
0.68524837 4.2710123 11.687967 1.2439555e-38
0.68526548 4.274375 11.680104 1.2439555e-38
0.74791968 3.9792621 12.370306 1.1794191e-38
0.74793774 3.9828191 12.361988 1.1703065e-38
0.7479558 3.9863772 12.353669 1.1702714e-38
0.73193669 4.085885 12.120955 1.2440274e-38
0.73432827 4.0887275 12.114312 1.1980376e-38
0.73197204 4.0928478 12.104672 1.2532119e-38
0.73198974 4.0963297 12.096531 1.2532119e-38
0.70698184 4.2676668 11.695838 1.2623236e-38
0.70701599 4.2743926 11.680111 1.2716493e-38
0.69252026 4.3669314 11.463696 1.2623236e-38
0.84723651 3.4264154 13.663247 1.1240293e-38
0.7517314 4.084415 12.124434 1.207149e-38
0.75447249 4.0893831 12.112822 1.2625744e-38
0.7544902 4.0928655 12.10468 1.2532119e-38
0.7545079 4.0963473 12.096539 1.2439923e-38
0.72873145 4.267684 11.695846 1.271579e-38
0.72876561 4.2744093 11.680119 1.2439908e-38
0.8789013 3.4284165 13.658636 1.1331782e-38
0.77699155 4.0894017 12.112829 1.2718308e-38
0.77700925 4.0928831 12.104688 1.2625377e-38
0.75049907 4.2710638 11.687989 1.2439555e-38
0.75051612 4.2744265 11.680126 1.2438476e-38
0.75053322 4.2777896 11.672262 1.2438832e-38
0.81103092 4.0178456 12.280224 1.1978222e-38
0.81104887 4.0213771 12.271965 1.2162613e-38
0.7995097 4.0894189 12.112837 1.2441723e-38
0.79954505 4.0963826 12.096554 1.2257315e-38
0.77224869 4.2710814 11.687996 1.2439555e-38
0.77226579 4.2744441 11.680133 1.2346279e-38
0.87172323 3.7780755 12.841011 1.2992355e-38
0.83387315 4.0178628 12.280231 1.1702696e-38
0.83389109 4.0213952 12.271973 1.216332e-38
0.83390903 4.0249267 12.263715 1.2348434e-38
0.82375842 4.090415 12.11056 1.2162256e-38
0.82206327 4.0964003 12.096561 1.2623238e-38
0.79399836 4.2710977 11.688004 1.2440627e-38
0.79401547 4.2744603 11.68014 1.2071474e-38
0.85671622 4.0178814 12.280239 1.1794892e-38
0.85673416 4.0214133 12.271981 1.2071124e-38
0.8567521 4.0249448 12.263722 1.2256238e-38
0.84456462 4.0929365 12.104711 1.2162262e-38
0.84458232 4.0964184 12.096569 1.1977869e-38
0.8904354 4.336328 11.535686 1.2808336e-38
0.89045227 4.3396449 11.527929 1.2992001e-38
0.89048594 4.3462796 11.512416 1.2256236e-38
0.91188961 4.3363452 11.535692 1.2532828e-38
0.91190648 4.3396621 11.527936 1.2441346e-38
0.91194016 4.3462963 11.512424 1.2348434e-38
1.0760701 4.3771148 11.440717 1.2532842e-38
1.0760869 4.3804092 11.433013 1.2995618e-38
1.0940982 4.3739872 11.448071 1.2439563e-38
1.0973586 4.3738375 11.448426 1.2164065e-38
1.0973753 4.3771319 11.440723 1.2256614e-38
1.0973921 4.3804259 11.433021 1.2258053e-38
1.1186478 4.3705606 11.456136 1.2808706e-38
1.1210461 4.3780351 11.438663 1.2255173e-38
1.1186813 4.3771486 11.440731 1.207222e-38
1.118698 4.3804431 11.433027 1.2256611e-38
1.1399698 4.3738708 11.448441 1.2439926e-38
1.1399865 4.3771653 11.440738 1.2256611e-38
1.1400032 4.3804593 11.433035 1.2256611e-38
1.1176318 4.4609528 11.244769 1.2440642e-38
1.1612757 4.373888 11.448447 1.2623236e-38
1.1612926 4.3771815 11.440745 1.271579e-38
1.1613092 4.380476 11.433043 1.2715434e-38
1.2072484 4.2714224 11.688143 1.2900902e-38
1.2072655 4.274785 11.680279 1.280835e-38
1.2072827 4.2781482 11.672416 1.2809056e-38
1.1825643 4.3706102 11.456158 1.2439923e-38
1.1825809 4.3739047 11.448455 1.2807986e-38
1.1825978 4.3771987 11.440752 1.2900183e-38
1.2289981 4.2714396 11.688149 1.2441723e-38
1.2290151 4.2748022 11.680286 1.2624319e-38
1.2290322 4.2781653 11.672422 1.2532119e-38
1.2038862 4.3739214 11.448462 1.3544846e-38
1.203903 4.3772149 11.44076 1.3360087e-38
1.1803147 4.464231 11.237239 1.2534277e-38
1.1803311 4.4674606 11.229687 1.2625394e-38
1.2507485 4.2714567 11.688157 1.2441723e-38
1.2507656 4.2748194 11.680294 1.280835e-38
1.2507826 4.278183 11.67243 1.2808706e-38
1.2251923 4.3739381 11.448469 1.3360453e-38
1.225209 4.3772326 11.440766 1.3267892e-38
1.2252258 4.3805265 11.433064 1.2714715e-38
1.2011876 4.4610181 11.244798 1.2900902e-38
1.2012041 4.4642477 11.237246 1.2441723e-38
1.2012205 4.4674773 11.229693 1.2440642e-38
1.2464808 4.3706608 11.456179 1.2533921e-38
1.2464975 4.3739548 11.448476 1.2900902e-38
1.2465142 4.3772492 11.440774 1.2625038e-38
1.2220926 4.4642634 11.237253 1.2440642e-38
1.2221091 4.467494 11.2297 1.1517614e-38
1.2221254 4.4707232 11.222149 1.1517964e-38
1.2221419 4.4739532 11.214596 1.2257317e-38
1.2645286 4.3720922 11.452871 1.2441365e-38
1.2678035 4.3739715 11.448483 1.2993097e-38
1.2678202 4.3772659 11.440781 1.2809788e-38
1.2678369 4.3805599 11.433078 1.2532125e-38
1.242982 4.4642801 11.23726 1.2440642e-38
1.2429984 4.4675102 11.229708 1.160981e-38
1.2430148 4.4707394 11.222156 1.1241736e-38
1.2430313 4.4739695 11.214603 1.2257317e-38
1.2891088 4.3739886 11.44849 1.2901605e-38
1.2891254 4.3772821 11.440788 1.3086718e-38
1.2614583 4.462954 11.2404 1.2532474e-38
1.2638705 4.4642968 11.237267 1.2625744e-38
1.2638868 4.4675264 11.229714 1.2625377e-38
1.2639033 4.4707565 11.222162 1.2532828e-38
1.307811 4.3719964 11.453187 1.2348797e-38
1.306155 4.3761683 11.44343 1.2717214e-38
1.3104306 4.3772988 11.440795 1.3086718e-38
1.2847592 4.4643126 11.237274 1.2625744e-38
1.2847755 4.4675431 11.229721 1.2809409e-38
1.2847919 4.4707727 11.22217 1.2809056e-38
1.3022656 4.4647565 11.236275 1.2440995e-38
1.3056484 4.4643297 11.237281 1.2625744e-38
1.3056649 4.4675593 11.229729 1.2809056e-38
1.3056813 4.470789 11.222177 1.2808706e-38
1.3494312 4.3738403 11.448967 1.2993449e-38
1.3530251 4.3740377 11.448512 1.3086718e-38
1.3530419 4.3773322 11.440809 1.3086718e-38
1.3265206 4.4611158 11.24484 1.2717937e-38
1.3265369 4.4643459 11.237288 1.2533547e-38
1.3265533 4.467576 11.229735 1.2625024e-38
1.3265697 4.4708052 11.222183 1.2900902e-38
1.412553 4.2371421 11.768747 1.2532122e-38
1.4125701 4.2405281 11.76083 1.2808706e-38
1.4125873 4.2439137 11.752913 1.2900904e-38
1.3742976 4.3674669 11.463924 1.2993801e-38
1.3743144 4.3707614 11.456222 1.2902687e-38
1.3743311 4.3740554 11.448519 1.3086365e-38
1.34741 4.4611325 11.244846 1.3085659e-38
1.3474263 4.4643621 11.237295 1.2625038e-38
1.3474427 4.4675918 11.229742 1.2625024e-38
1.3474591 4.4708214 11.222191 1.271794e-38
1.4344509 4.2371593 11.768754 1.2439926e-38
1.434468 4.2405448 11.760838 1.2624673e-38
1.4344852 4.2439308 11.75292 1.280835e-38
1.3956028 4.3674836 11.463932 1.2901605e-38
1.3956196 4.3707781 11.456229 1.2902687e-38
1.3956363 4.3740721 11.448526 1.2902334e-38
1.3682984 4.4611492 11.244854 1.2440289e-38
1.3683149 4.4643788 11.237302 1.2440645e-38
1.3683313 4.4676085 11.22975 1.2809056e-38
1.4563487 4.2371764 11.768762 1.2346656e-38
1.4563658 4.2405624 11.760844 1.2347731e-38
1.456383 4.243948 11.752928 1.2808706e-38
1.416908 4.3675003 11.463939 1.2900902e-38
1.4169248 4.3707943 11.456236 1.2718308e-38
1.4169415 4.3740888 11.448533 1.2718308e-38
1.531371 4.0552468 12.194332 1.2072583e-38
1.5313889 4.0587544 12.186131 1.2072586e-38
1.4382142 4.367517 11.463946 1.2993097e-38
1.4382309 4.370811 11.456244 1.2349526e-38
1.4382477 4.3741055 11.448541 1.2718308e-38
1.4100927 4.4644117 11.237316 1.2072567e-38
1.5540737 4.0587726 12.186138 1.1887824e-38
1.4595194 4.3675337 11.463953 1.2809788e-38
1.4595361 4.3708277 11.45625 1.2718308e-38
1.4595529 4.3741217 11.448547 1.2810504e-38
1.6108443 3.9412508 12.461062 1.2255882e-38
1.6108624 3.944834 12.452683 1.1887824e-38
1.5767238 4.0517745 12.202549 1.1795276e-38
1.5767416 4.0552821 12.194347 1.1796709e-38
1.5767593 4.0587902 12.186146 1.1887824e-38
1.5767772 4.0622969 12.177945 1.1335371e-38
1.4808254 4.3675499 11.463961 1.2625038e-38
1.4808421 4.3708444 11.456258 1.2718308e-38
1.4808588 4.3741384 11.448555 1.2718308e-38
1.4808756 4.3774328 11.440852 1.2718308e-38
1.5994085 4.0517931 12.202557 1.1887106e-38
1.5994264 4.0553002 12.194355 1.2256238e-38
1.5994442 4.0588074 12.186153 1.2255532e-38
1.599462 4.062315 12.177953 1.2347009e-38
1.4950873 4.3636599 11.473089 1.2163699e-38
1.5021306 4.3675675 11.463967 1.2532842e-38
1.5021473 4.370862 11.456264 1.2534277e-38
1.502164 4.374156 11.448562 1.2809788e-38
1.6220933 4.0518107 12.202564 1.2163334e-38
1.6221112 4.0553179 12.194363 1.2256238e-38
1.622129 4.058825 12.186161 1.2532119e-38
1.5224552 4.3655324 11.468769 1.2071501e-38
1.5207449 4.3697371 11.458934 1.2163697e-38
1.5234525 4.3708777 11.456272 1.2441723e-38
1.5234692 4.3741722 11.448569 1.2625038e-38
1.644779 4.0518284 12.202572 1.2530324e-38
1.6447968 4.055336 12.19437 1.2347365e-38
1.6448146 4.0588431 12.186169 1.2440274e-38
1.5447251 4.3643064 11.471684 1.2257333e-38
1.5447417 4.3676009 11.463982 1.2440645e-38
1.5447586 4.3708949 11.456279 1.2532842e-38
1.5447752 4.3741889 11.448577 1.2625038e-38
1.6900232 3.9784234 12.374312 1.1885669e-38
1.6912982 3.9800024 12.370624 1.234593e-38
1.6607096 4.0533838 12.198969 1.2254094e-38
1.6674817 4.0553536 12.194378 1.2162613e-38
1.6674995 4.0588608 12.186176 1.2440274e-38
1.6675173 4.0623689 12.177975 1.271614e-38
1.6096185 4.233911 11.776731 1.2162613e-38
1.6096357 4.2372971 11.768813 1.1887824e-38
1.5674826 4.3599472 11.481928 1.1611242e-38
1.566047 4.3676176 11.463989 1.2071864e-38
1.5624332 4.3738513 11.449405 1.2347726e-38
1.5660805 4.3742056 11.448584 1.2625038e-38
1.7196268 3.9804647 12.369604 1.1977496e-38
1.7143081 3.980021 12.370631 1.1794541e-38
1.7143261 3.9835787 12.362312 1.2069699e-38
1.6898671 4.0530357 12.199846 1.243813e-38
1.6901495 4.0518637 12.202587 1.2254816e-38
1.6901852 4.0588789 12.186184 1.2256614e-38
1.6777494 4.0935907 12.10499 1.2439576e-38
1.6327578 4.2339587 11.776669 1.1886394e-38
1.6309818 4.2382812 11.766557 1.2070059e-38
1.6315343 4.2373137 11.768821 1.179491e-38
1.6315515 4.2406993 11.760903 1.1427567e-38
1.5915639 4.3693242 11.460053 1.1979661e-38
1.5873531 4.3676338 11.463996 1.2254816e-38
1.5873698 4.3709283 11.456293 1.2439926e-38
1.7897661 3.8233552 12.737127 1.2531025e-38
1.7372988 3.9764807 12.378958 1.1884936e-38
1.737317 3.9800384 12.370639 1.161015e-38
1.737335 3.9835966 12.36232 1.2069699e-38
1.7128166 4.0483742 12.210796 1.2438128e-38
1.7128345 4.0518813 12.202595 1.2162262e-38
1.7128701 4.0588965 12.186192 1.2256614e-38
1.7002498 4.0901265 12.113139 1.2440289e-38
1.7002674 4.0936079 12.104998 1.2439576e-38
1.7002852 4.0970902 12.096856 1.2255529e-38
1.6534321 4.2373319 11.768827 1.179491e-38
1.6534493 4.2407169 11.760911 1.1519762e-38
1.6086416 4.3643565 11.471706 1.2072217e-38
1.6086583 4.3676505 11.464004 1.2162262e-38
1.608675 4.370945 11.456301 1.2255535e-38
1.7602897 3.9729412 12.387284 1.2069346e-38
1.7603078 3.9764993 12.378965 1.197715e-38
1.7603258 3.9800568 12.370646 1.2069346e-38
1.7603439 3.9836144 12.362328 1.2439207e-38
1.7355014 4.0483923 12.210804 1.2070418e-38
1.7355193 4.0518994 12.202602 1.2070418e-38
1.7355549 4.0589151 12.1862 1.2256611e-38
1.7227681 4.0901442 12.113147 1.225733e-38
1.7227857 4.093626 12.105005 1.2440274e-38
1.7228034 4.0971079 12.096864 1.2347728e-38
1.6753128 4.2339625 11.776752 1.2162262e-38
1.6753472 4.2407341 11.760919 1.1978222e-38
1.6299301 4.3610787 11.479416 1.216332e-38
1.6299469 4.3643732 11.471713 1.1888175e-38
1.6299636 4.3676677 11.46401 1.2162262e-38
1.6299803 4.3709621 11.456307 1.2438128e-38
1.7833356 3.9800749 12.370654 1.197715e-38
1.7452871 4.0901618 12.113154 1.225733e-38
1.7453047 4.0936437 12.105013 1.2532828e-38
1.7453223 4.0971255 12.096871 1.2439923e-38
1.6972286 4.2373652 11.768843 1.179491e-38
1.65279 4.3595152 11.483123 1.2163324e-38
1.6512696 4.3676844 11.464018 1.2162262e-38
1.8746672 3.7788632 12.841348 1.1609447e-38
1.8746859 3.7825553 12.832715 1.1609441e-38
1.7678051 4.0901794 12.113162 1.2623945e-38
1.7678229 4.0936608 12.105021 1.3083845e-38
1.7678405 4.0971432 12.096879 1.2623592e-38
1.7678581 4.100625 12.088737 1.2530321e-38
1.719092 4.2306108 11.784684 1.2625038e-38
1.7191092 4.2339969 11.776767 1.2071864e-38
1.7191263 4.2373824 11.76885 1.179491e-38
1.7191435 4.2407684 11.760933 1.1795629e-38
1.6725414 4.3611131 11.47943 1.2440274e-38
1.6725581 4.3644071 11.471727 1.2440993e-38
1.6725749 4.3677015 11.464025 1.2348078e-38
1.6289183 4.4870067 11.184958 1.2166949e-38
1.6263751 4.4917378 11.173887 1.2255892e-38
1.897283 3.7767038 12.846445 1.1609444e-38
1.898566 3.7825737 12.832723 1.1701995e-38
1.7903242 4.0901971 12.11317 1.2623945e-38
1.790342 4.093679 12.105028 1.253103e-38
1.7903596 4.0971608 12.096887 1.2162613e-38
1.7903773 4.1006427 12.088745 1.2438126e-38
1.7409905 4.2306285 11.784691 1.2625038e-38
1.7410078 4.234014 11.776774 1.2164418e-38
1.741025 4.2374001 11.768857 1.2163334e-38
1.7410421 4.2407856 11.760941 1.1887824e-38
1.9224266 3.7789004 12.841364 1.179204e-38
1.9224641 3.7862847 12.824097 1.1702346e-38
1.8128246 4.0867333 12.121318 1.280797e-38
1.8128422 4.0902147 12.113177 1.2806886e-38
1.81286 4.0936966 12.105036 1.2346263e-38
1.8128777 4.097178 12.096894 1.2162601e-38
1.7628883 4.2306457 11.784698 1.2440642e-38
1.7629056 4.2340317 11.776781 1.2532119e-38
1.7629228 4.2374172 11.768865 1.2441349e-38
1.7629399 4.2408032 11.760947 1.1887824e-38
1.6687502 4.4873552 11.184228 1.1611602e-38
1.6704348 4.4902472 11.177469 1.2164418e-38
1.6670417 4.493619 11.169578 1.2163331e-38
1.6704674 4.4966636 11.162465 1.2532823e-38
1.9463058 3.7789192 12.841372 1.1884236e-38
1.9463433 3.786303 12.824105 1.1794541e-38
1.8353429 4.086751 12.121325 1.2715775e-38
1.8353605 4.0902324 12.113185 1.2530659e-38
1.8353782 4.0937142 12.105042 1.2254068e-38
1.8353959 4.0971961 12.096902 1.2162601e-38
1.7816241 4.2296715 11.787018 1.2164051e-38
1.7848034 4.2340488 11.776789 1.2347728e-38
1.7848207 4.2374344 11.768872 1.2072567e-38
1.7848378 4.2408204 11.760955 1.1980021e-38
1.6911845 4.4902635 11.177476 1.1887473e-38
1.6912007 4.4934716 11.169974 1.2070418e-38
1.6912171 4.4966803 11.162472 1.2901605e-38
1.9701672 3.7752461 12.850014 1.1978222e-38
1.9701859 3.7789378 12.84138 1.2161895e-38
1.9702046 3.7826302 12.832747 1.2530324e-38
1.9702234 3.7863224 12.824113 1.2347012e-38
1.9121672 3.9486544 12.444406 1.1980021e-38
1.8581779 4.0867462 12.121386 1.2623238e-38
1.8578795 4.0902505 12.113193 1.2623236e-38
1.8578972 4.0937324 12.10505 1.2438126e-38
1.8579149 4.0972137 12.09691 1.2438481e-38
1.8066677 4.2272944 11.79263 1.2164418e-38
1.8066849 4.23068 11.784713 1.2164416e-38
1.806702 4.234066 11.776796 1.2072217e-38
1.8067193 4.2374516 11.768879 1.2070418e-38
1.7243191 4.4563885 11.25676 1.1887466e-38
1.7233931 4.4581981 11.252525 1.2071864e-38
1.7234094 4.4614277 11.244973 1.1979671e-38
1.7234259 4.4646578 11.237421 1.2071864e-38
1.9940464 3.7752645 12.850021 1.1978222e-38
1.9940652 3.7789567 12.841388 1.2069699e-38
1.9940839 3.7826493 12.832755 1.2530324e-38
1.9353064 3.941505 12.461171 1.197857e-38
1.9353245 3.9450886 12.452792 1.2162964e-38
1.9353428 3.9486721 12.444413 1.1887824e-38
1.8803799 4.0867863 12.121341 1.3267889e-38
1.8803977 4.0902681 12.113199 1.2623236e-38
1.8804153 4.09375 12.105058 1.2438126e-38
1.880433 4.0972314 12.096917 1.2345926e-38
1.824532 4.2294226 11.787693 1.2347729e-38
1.8285826 4.2306972 11.78472 1.2256611e-38
1.8285998 4.2340822 11.776804 1.2072217e-38
1.7674572 4.3903918 11.411173 1.225733e-38
1.7647644 4.3965149 11.39685 1.2440271e-38
1.7674905 4.3969378 11.395867 1.2164416e-38
1.7675071 4.4002104 11.388215 1.1888905e-38
1.7442652 4.4549851 11.260084 1.2072217e-38
1.7442815 4.4582143 11.252532 1.1979668e-38
1.744298 4.4614444 11.24498 1.1795278e-38
1.7443144 4.464674 11.237428 1.1887473e-38
2.0832019 3.6057827 13.246515 1.161052e-38
2.0805354 3.607455 13.242599 1.1793838e-38
2.0179267 3.7752826 12.85003 1.1702361e-38
2.0179453 3.7789755 12.841395 1.1702361e-38
2.0179641 3.7826672 12.832763 1.1978222e-38
1.9023045 4.0864949 12.122069 1.2347724e-38
1.9028989 4.0868039 12.121348 1.2810135e-38
1.9029167 4.0902858 12.113207 1.2256611e-38
1.9029343 4.0937672 12.105065 1.1979315e-38
1.8504813 4.2307138 11.784728 1.2439923e-38
1.8504984 4.2341008 11.776811 1.2072217e-38
1.7886575 4.3969536 11.395875 1.2256961e-38
1.7886741 4.4002266 11.388223 1.2072217e-38
1.7652624 4.4583101 11.252354 1.2071504e-38
1.7651709 4.458231 11.25254 1.2071867e-38
1.7651874 4.4614611 11.244987 1.188712e-38
1.7652038 4.4646902 11.237435 1.2162262e-38
2.1051943 3.6150877 13.224805 1.2623939e-38
1.9254171 4.086822 12.121356 1.2440993e-38
1.9254347 4.0903034 12.113214 1.2440642e-38
1.8062429 4.40064 11.387293 1.2440277e-38
1.8098406 4.4002433 11.388229 1.2072217e-38
1.7923995 4.4602294 11.247925 1.1887113e-38
1.7860596 4.4582472 11.252546 1.2256258e-38
1.7860761 4.4614768 11.244994 1.207187e-38
1.7860924 4.4647069 11.237442 1.2162262e-38
1.9291708 4.2029681 11.849777 1.2532119e-38
1.852174 4.4002767 11.388244 1.2164416e-38
1.9512169 4.2029858 11.849785 1.2623238e-38
1.9512342 4.2063947 11.841814 1.2439923e-38
1.9512516 4.2098031 11.833844 1.2165134e-38
1.8733405 4.4002929 11.38825 1.2622885e-38
1.8733571 4.4035654 11.380598 1.2254826e-38
1.8610663 4.4358397 11.305104 1.2256614e-38
1.8610829 4.4390912 11.297502 1.2071864e-38
1.8610994 4.4423432 11.289899 1.207187e-38
1.9873172 4.1599011 11.950609 1.2438857e-38
1.9732465 4.199594 11.857762 1.2439929e-38
1.9732637 4.2030029 11.849792 1.2715434e-38
1.973281 4.2064114 11.841822 1.2624673e-38
1.9732983 4.2098203 11.833851 1.2441723e-38
1.8945075 4.4003091 11.388258 1.2622885e-38
1.8945241 4.4035821 11.380605 1.234738e-38
1.8945574 4.4101276 11.3653 1.2164418e-38
1.8820947 4.4358563 11.305111 1.2071864e-38
1.8821113 4.4391079 11.297508 1.2071864e-38
1.8821278 4.442359 11.289907 1.2164065e-38
2.1134789 3.9048519 12.547265 1.2070405e-38
2.113497 3.9084625 12.538823 1.2162964e-38
1.9953096 4.2030201 11.8498 1.2807986e-38
1.9953269 4.206429 11.841829 1.2624673e-38
1.9953442 4.2098379 11.833858 1.2624673e-38
1.9031221 4.4358735 11.305118 1.179706e-38
1.9031385 4.4391241 11.297516 1.1979668e-38
1.9031551 4.4423761 11.289913 1.2072217e-38
2.136812 3.9012601 12.555716 1.2438109e-38
2.1368301 3.9048698 12.547274 1.1977851e-38
2.1368484 3.9084802 12.538831 1.2162964e-38
2.0757966 4.0521665 12.202717 1.2162601e-38
2.0758142 4.0556741 12.194515 1.2163684e-38
2.0758321 4.0591817 12.186314 1.2439923e-38
2.0173554 4.2030377 11.849807 1.271579e-38
2.0173726 4.2064462 11.841836 1.2532119e-38
1.9241496 4.4358897 11.305125 1.1889255e-38
1.9241661 4.4391408 11.297523 1.1979668e-38
1.9241827 4.4423919 11.289921 1.2072217e-38
2.1601641 3.9012787 12.555723 1.1979301e-38
2.1601825 3.9048889 12.547281 1.1795257e-38
2.1602008 3.9084995 12.538838 1.2162613e-38
2.0984826 4.0521846 12.202724 1.2345212e-38
2.0985003 4.0556922 12.194523 1.2712917e-38
2.0985181 4.0591993 12.186321 1.271579e-38
1.9451612 4.4326549 11.312735 1.2347731e-38
1.9451778 4.4359064 11.305132 1.2255182e-38
1.9451942 4.4391575 11.297529 1.2254826e-38
1.9452108 4.4424086 11.289927 1.207187e-38
2.1835341 3.9049072 12.547289 1.2256236e-38
2.1211674 4.0522017 12.202732 1.2529605e-38
2.1212029 4.059217 12.186329 1.2807986e-38
2.0761492 4.1634035 11.942612 1.2532122e-38
2.0198791 4.3030252 11.616011 1.2440645e-38
1.9661888 4.4326715 11.312741 1.2162981e-38
1.9662054 4.4359226 11.30514 1.2347377e-38
1.9662218 4.4391742 11.297537 1.234738e-38
1.9662384 4.4424253 11.289935 1.207187e-38
2.1438532 4.0522203 12.20274 1.2530324e-38
2.1438708 4.0557275 12.194538 1.3082426e-38
2.1438887 4.0592346 12.186337 1.3360804e-38
2.1439066 4.0627427 12.178135 1.2808353e-38
2.0945089 4.1628342 11.943982 1.2623949e-38
2.0983708 4.1668539 11.934591 1.2348078e-38
2.0983882 4.1702876 11.926564 1.2164416e-38
2.0414646 4.2997026 11.623828 1.2440292e-38
2.0414815 4.3030424 11.616018 1.2441375e-38
1.9872169 4.4326882 11.312748 1.2162262e-38
1.98725 4.4391904 11.297544 1.2439926e-38
2.1665378 4.0522385 12.202747 1.2530324e-38
2.1665556 4.0557456 12.194546 1.3082426e-38
2.1665735 4.0592527 12.186344 1.3084577e-38
2.1205389 4.1600051 11.950654 1.2532828e-38
2.1205566 4.1634378 11.942627 1.271614e-38
2.1205914 4.1703043 11.926572 1.207222e-38
2.1047864 4.2019796 11.852471 1.22566e-38
2.1055412 4.2031069 11.849836 1.1888905e-38
2.1055584 4.2065153 11.841866 1.2072567e-38
2.063066 4.2997193 11.623836 1.2256261e-38
2.0630829 4.3030591 11.616025 1.2533571e-38
2.0630999 4.3063989 11.608215 1.2992744e-38
2.0082774 4.4392066 11.297551 1.2162981e-38
2.253571 3.9013515 12.555755 1.234593e-38
2.2535894 3.9049621 12.547313 1.2162964e-38
2.1892223 4.0522552 12.202755 1.1978949e-38
2.1892402 4.0557632 12.194553 1.2071864e-38
2.1892581 4.0592709 12.186352 1.2623238e-38
2.1380908 4.1626873 11.944422 1.2440645e-38
2.14276 4.163456 11.942635 1.2809056e-38
2.1275697 4.1997156 11.857815 1.1887806e-38
2.1275868 4.2031245 11.849844 1.179526e-38
2.084651 4.2963958 11.631653 1.1611963e-38
2.2769051 3.8977592 12.564205 1.2070065e-38
2.2769234 3.9013693 12.555763 1.234593e-38
2.2769418 3.9049804 12.54732 1.2162964e-38
2.2119083 4.0522733 12.202763 1.2162981e-38
2.2119262 4.0557809 12.194561 1.2071864e-38
2.1496165 4.1997328 11.857821 1.1795611e-38
2.1496336 4.2031412 11.849852 1.1149891e-38
2.3002565 3.8977776 12.564214 1.2161897e-38
2.3002748 3.9013882 12.555771 1.2069699e-38
2.3002932 3.9049988 12.547328 1.1794541e-38
2.3003116 3.9086099 12.538885 1.1704512e-38
2.2345929 4.0522909 12.20277 1.3177141e-38
2.2366598 4.060266 12.184128 1.2532488e-38
2.1716449 4.1963415 11.8658 1.2347731e-38
2.1716623 4.1997504 11.857829 1.2347375e-38
2.113296 4.3372884 11.536096 1.2440289e-38
2.1133127 4.3406053 11.528339 1.2440295e-38
2.3236272 3.9014065 12.555779 1.2161895e-38
2.3236456 3.9050167 12.547337 1.1702346e-38
2.1937091 4.1997671 11.857837 1.2808353e-38
2.1937263 4.2031765 11.849866 1.2439926e-38
2.1347332 4.3339882 11.543859 1.2256258e-38
2.1347499 4.3373055 11.536103 1.2440289e-38
2.1347668 4.3406224 11.528347 1.2532492e-38
2.3292789 3.9382317 12.469683 1.1887824e-38
2.2157378 4.1963763 11.865815 1.2624319e-38
2.2157724 4.2031937 11.849874 1.2439926e-38
2.1562033 4.3373218 11.536111 1.207187e-38
2.1562202 4.3406391 11.528354 1.2256983e-38
2.3524544 3.9382501 12.46969 1.1980021e-38
2.3524725 3.9418335 12.461311 1.2530324e-38
2.3524907 3.9454162 12.452932 1.2805113e-38
2.2377837 4.1963935 11.865822 1.2532122e-38
2.2378182 4.2032108 11.849881 1.2439926e-38
2.375649 3.9418514 12.461319 1.2530321e-38
2.3756671 3.945435 12.45294 1.2438126e-38
2.325352 4.0558701 12.194599 1.2715071e-38
2.3253696 4.0593777 12.186398 1.2623238e-38
2.2446477 4.2310238 11.784861 1.1979671e-38
2.2446649 4.2344103 11.776943 1.2071864e-38
2.3988066 3.9382865 12.469706 1.2530321e-38
2.3988247 3.9418697 12.461327 1.2438126e-38
2.3988428 3.9454532 12.452948 1.234593e-38
2.3707228 4.0559053 12.194614 1.2900902e-38
2.3707404 4.0594125 12.186413 1.271579e-38
2.2729809 4.2688966 11.696364 1.2256261e-38
2.2729981 4.2722597 11.6885 1.2532845e-38
2.393425 4.0594306 12.18642 1.2439205e-38
2.2932262 4.2663851 11.702282 1.2164061e-38
2.2913029 4.2707963 11.691961 1.2347731e-38
2.2947478 4.2722759 11.688508 1.2440289e-38
2.2947648 4.2756395 11.680644 1.2165137e-38
2.5620303 3.7383461 12.937582 1.2070065e-38
2.4160922 4.0559416 12.19463 1.2440289e-38
2.4161279 4.0629563 12.178226 1.207187e-38
2.3164802 4.2689309 11.696379 1.2071864e-38
2.2395329 4.4296346 11.320436 1.1519059e-38
2.5104418 3.9015536 12.555841 1.1887824e-38
2.437645 4.0548468 12.197235 1.2163699e-38
2.4387777 4.0559587 12.194637 1.2440289e-38
2.6101413 3.7383838 12.937598 1.2070065e-38
2.5337746 3.8979609 12.564292 1.1794557e-38
2.5338113 3.9051821 12.547406 1.1887473e-38
2.4614449 4.0524693 12.202847 1.1978573e-38
2.4614625 4.0559773 12.194645 1.2256238e-38
2.4091871 4.1602316 11.950751 1.2347731e-38
2.4092045 4.1636648 11.942724 1.2164418e-38
2.4092219 4.167098 11.934696 1.2164418e-38
