# .PCD v0.7 - Point Cloud Data file format
VERSION 0.7
FIELDS x y z rgb
SIZE 4 4 4 4
TYPE F F F F
COUNT 1 1 1 1
WIDTH 1049
HEIGHT 1
VIEWPOINT 0 0 0 1 0 0 0
POINTS 1049
DATA ascii
-1.3410279 -4.3624353 1.5248632 1.0131773e-38
-1.308673 -4.4263487 1.5252534 1.022325e-38
-1.2813843 -4.4749999 1.5255712 1.0592398e-38
-1.2756997 -4.49367 1.5256559 1.0591679e-38
-1.255839 -4.5321765 1.5258938 1.0040299e-38
-1.2390848 -4.5548229 1.5260733 4.5139985e-39
-1.2355245 -4.5696588 1.5261332 4.1455776e-39
-1.2272363 -4.5819759 1.5262244 3.9611807e-39
-1.2101904 -4.6060538 1.5264091 1.1967733e-39
-2.5849872 -1.9529102 1.5099634 6.1745891e-39
-2.5561514 -2.0050337 1.5103008 1.0045366e-38
-2.5230677 -2.0718131 1.510703 1.1978952e-38
-2.5172186 -2.0829473 1.5107725 1.2162986e-38
-2.5113845 -2.096401 1.510847 7.0965426e-39
-2.4096601 -2.2911632 1.5120604 1.2441732e-38
-2.4045248 -2.3049629 1.5121305 1.2257343e-38
-2.3957727 -2.3175926 1.5122259 1.235026e-38
-1.6550223 -3.7478192 1.5210885 9.578947e-39
-1.6019278 -3.8522666 1.5217279 9.9473792e-39
-1.5880445 -3.8763547 1.5218881 9.6707839e-39
-1.5779625 -3.8894255 1.5219949 9.6711412e-39
-1.5727357 -3.9035602 1.5220662 9.6718713e-39
-1.5668001 -3.9165833 1.5221405 9.5800358e-39
-1.5608371 -3.9299729 1.5222158 9.5796757e-39
-1.4930154 -4.0598116 1.5230249 9.7640683e-39
-1.486473 -4.0708427 1.5230998 9.7637054e-39
-1.4783002 -4.0848947 1.5231938 9.9470135e-39
-1.4723095 -4.0985856 1.5232701 9.8559038e-39
-1.4193797 -4.1866355 1.5238727 1.0223246e-38
-1.3966203 -4.2436881 1.5241735 9.9473862e-39
-1.3619148 -4.304575 1.5245755 9.7633481e-39
-1.3088366 -4.4098516 1.5252165 1.022361e-38
-1.2701797 -4.4881234 1.5256869 1.0593113e-38
-1.2629567 -4.5025072 1.5257742 1.0133222e-38
-1.2415448 -4.540369 1.526023 5.1600854e-39
-1.2332344 -4.5521803 1.5261133 1.1985768e-39
-1.2316545 -4.5606565 1.5261438 3.961901e-39
-1.216524 -4.5922036 1.5263299 1.0134569e-39
-1.2090734 -4.607326 1.5264207 8.2870269e-40
-1.1974516 -4.6160555 1.52653 5.5247313e-40
-1.5146631 -3.9886546 1.5227025 9.8566269e-39
-1.3860804 -4.253747 1.5242773 9.8559094e-39
-1.3452041 -4.3298054 1.5247601 1.0039943e-38
-1.3134199 -4.3950939 1.525149 1.0131777e-38
-1.3097686 -4.4104471 1.5252105 9.7647956e-39
-1.2911367 -4.431839 1.5254019 9.856994e-39
-1.283111 -4.4461384 1.5254954 9.9484708e-39
-1.2767532 -4.4593329 1.5255734 9.9484708e-39
-1.2732813 -4.4740229 1.5256323 9.9491897e-39
-1.2658552 -4.4866428 1.5257175 9.8573528e-39
-1.2336583 -4.5450306 1.5260944 1.1985768e-39
-1.2340354 -4.5362325 1.5260725 3.7789642e-39
-2.5687432 -2.0748556 1.5103537 3.3179735e-39
-2.5646713 -2.0905621 1.5104194 3.2261408e-39
-2.3944829 -2.4075129 1.5124302 1.5209783e-38
-1.6486145 -3.8595366 1.5213797 1.2617417e-38
-2.5711627 -2.0593898 1.5103012 3.133585e-39
-2.3920093 -2.3988109 1.5124307 1.3274021e-38
-1.6891091 -3.7554569 1.5208393 7.2772932e-39
-1.6822374 -3.7615499 1.5209061 7.2772932e-39
-1.6812788 -3.77352 1.5209395 8.7491863e-39
-1.6452608 -3.8386571 1.5213609 1.2066413e-38
-1.6373099 -3.8537512 1.5214553 1.169691e-38
-1.6249665 -3.8793969 1.5216069 1.1235935e-38
-1.5303235 -4.0611815 1.5227373 1.0223596e-38
-1.5031468 -4.1138926 1.5230629 1.031543e-38
-1.2468473 -4.6083865 1.5261286 6.9992953e-39
-1.2327033 -4.6339636 1.5262941 7.828693e-39
-1.2314935 -4.6498437 1.5263379 7.3680764e-39
-1.2214694 -4.6611485 1.5264404 7.1836907e-39
-1.2118322 -4.6726551 1.5265404 6.263182e-39
-1.2076522 -4.6842895 1.526598 1.0499112e-38
-1.2009352 -4.6999445 1.5266843 1.0683502e-38
-1.1936758 -4.7126918 1.5267684 1.2341203e-38
-2.5695837 -2.0444186 1.5102812 4.1466524e-39
-2.3996954 -2.3682728 1.5123047 1.2719397e-38
-2.3930089 -2.3851175 1.5123932 1.2351335e-38
-1.6854186 -3.7476888 1.5208513 6.9085261e-39
-1.6733922 -3.7727833 1.5209992 1.1326701e-38
-1.6707104 -3.7887118 1.5210545 1.1970624e-38
-1.6549022 -3.813534 1.5212314 1.0315063e-38
-1.6367203 -3.8446796 1.5214404 1.096151e-38
-1.6155351 -3.8755686 1.5216722 1.1696193e-38
-1.612011 -3.8907635 1.5217323 1.1605436e-38
-1.6075999 -3.9044352 1.5217962 1.1697272e-38
-1.5977162 -3.9158337 1.521898 1.0684209e-38
-1.5921695 -3.9295273 1.5219707 1.0407978e-38
-1.5458225 -4.0197058 1.5225269 9.8544493e-39
-1.5388592 -4.0340481 1.5226121 1.0499457e-38
-1.5323905 -4.0469513 1.5226904 1.0039202e-38
-1.5247738 -4.0589194 1.5227757 1.077605e-38
-1.4825568 -4.1366768 1.5232726 9.578947e-39
-1.4781995 -4.1496711 1.5233346 1.0499097e-38
-1.4724462 -4.1626883 1.5234076 1.0039565e-38
-1.4567188 -4.1892519 1.5235876 9.7637068e-39
-1.4497567 -4.2021465 1.5236697 9.4874772e-39
-1.422037 -4.2537894 1.5239973 9.8555451e-39
-1.4023764 -4.3095703 1.524271 9.5782267e-39
-1.2419946 -4.6047387 1.5261586 9.0257858e-39
-1.2351277 -4.6188202 1.5262425 7.552462e-39
-1.2199708 -4.6439385 1.5264149 6.4472117e-39
-2.570684 -2.0288577 1.5102391 4.9756942e-39
-2.5164874 -2.1319432 1.5108842 6.3589817e-39
-2.5119338 -2.1459341 1.5109497 8.1103386e-39
-2.4427342 -2.2751875 1.5117683 1.2533569e-38
-2.4385378 -2.2894969 1.5118319 1.0967677e-38
-2.408129 -2.3438442 1.5121863 1.271868e-38
-2.405004 -2.3545589 1.5122337 1.3272215e-38
-1.6625905 -3.7810125 1.5211011 1.2894011e-38
-1.6523055 -3.7983747 1.5212188 1.0315788e-38
-1.6429402 -3.8199806 1.5213385 1.0500177e-38
-1.6303315 -3.8452315 1.5214913 9.7640655e-39
-1.6063073 -3.8874507 1.5217698 9.6707839e-39
-1.6001184 -3.9008815 1.521847 1.0407986e-38
-1.5850385 -3.9423988 1.5220541 1.160544e-38
-1.5742974 -3.955689 1.5221666 1.0592014e-38
-1.5677463 -3.9674304 1.522243 1.0315785e-38
-1.5517268 -3.9911618 1.5224191 9.3027188e-39
-1.5451645 -4.0042548 1.5224986 9.2108889e-39
-1.5332866 -4.0300388 1.5226468 9.6711468e-39
-1.521034 -4.0590391 1.522805 1.0039572e-38
-1.5013349 -4.0969825 1.5230405 9.7633425e-39
-1.482198 -4.1307797 1.5232627 9.578947e-39
-1.4699538 -4.1543827 1.5234091 1.0039572e-38
-1.4641305 -4.1602364 1.5234671 1.003922e-38
-1.4617662 -4.1749763 1.5235174 9.8551808e-39
-1.4399779 -4.2127576 1.5237688 9.763711e-39
-1.4313241 -4.2257028 1.5238643 9.9477463e-39
-1.4282204 -4.2368345 1.5239125 9.7633509e-39
-1.4157494 -4.2588687 1.5240573 1.0039931e-38
-1.3868086 -4.3015676 1.524375 9.9481009e-39
-1.2773075 -4.525526 1.5257123 1.0776422e-38
-1.2713237 -4.5417895 1.5257939 1.0868617e-38
-1.2656127 -4.5541215 1.5258652 1.0500919e-38
-1.243553 -4.5898333 1.5261142 6.2628204e-39
-2.5732992 -2.0129628 1.5101844 4.6994646e-39
-2.5667694 -2.0266497 1.5102648 9.6765853e-39
-2.5179644 -2.1198394 1.5108464 9.5840281e-39
-2.5124896 -2.1464555 1.5109466 1.1980393e-38
-2.4506826 -2.246361 1.5116441 1.1704166e-38
-2.4484816 -2.2616909 1.5116944 1.2441731e-38
-2.4255359 -2.2993374 1.5119544 1.2072947e-38
-2.416908 -2.3113477 1.5120475 1.1244627e-38
-2.413975 -2.3263152 1.5121028 1.1613052e-38
-1.6622397 -3.7688634 1.5210776 1.0039198e-38
-1.6299865 -3.8341696 1.5214701 9.8555381e-39
-1.610642 -3.8727562 1.5217042 9.8555437e-39
-1.572178 -3.9505217 1.522172 9.3034447e-39
-1.5635337 -3.963485 1.5222673 9.5796687e-39
-1.5570419 -3.9750514 1.5223429 9.6718629e-39
-1.5357689 -4.0158868 1.522597 9.6718699e-39
-1.526668 -4.0312042 1.5227009 9.5796757e-39
-1.5106323 -4.0666823 1.5229026 9.8555423e-39
-1.500147 -4.0800152 1.523013 9.8555367e-39
-1.49303 -4.0928335 1.5230962 9.7637082e-39
-1.4795294 -4.1188331 1.5232576 9.8559038e-39
-1.4771559 -4.1287351 1.5232975 1.0039217e-38
-1.4148649 -4.2498746 1.5240446 1.0039219e-38
-1.3773957 -4.3133073 1.5244737 1.0131766e-38
-1.3614436 -4.3538547 1.5246856 9.9480981e-39
-1.3533618 -4.3668613 1.5247767 1.0039934e-38
-1.346909 -4.3798046 1.524855 1.0039932e-38
-1.3066818 -4.4581518 1.5253377 1.0315447e-38
-1.2874541 -4.4811587 1.5255373 1.0683878e-38
-1.2677944 -4.536273 1.5258095 1.031689e-38
-1.2528183 -4.5637851 1.5259857 7.5542781e-39
-1.246381 -4.5753636 1.5260609 4.605834e-39
-2.537616 -2.0770352 1.5106008 1.1794921e-38
-2.531193 -2.0901971 1.5106794 1.2255183e-38
-2.524776 -2.1033618 1.5107578 1.2440652e-38
-1.6005908 -3.8846188 1.5218083 9.5785813e-39
-1.5891429 -3.8952186 1.5219203 9.7629795e-39
-1.5860932 -3.9101241 1.5219762 9.6718727e-39
-1.5800989 -3.9234982 1.522052 9.67223e-39
-1.5731661 -3.9364076 1.5221338 9.5800344e-39
-1.4830412 -4.1037445 1.5231977 9.8555437e-39
-1.4040897 -4.2593932 1.5241493 9.8555563e-39
-1.3757049 -4.3125663 1.5244853 9.855908e-39
-1.2544537 -4.546659 1.525936 9.858443e-39
-1.2413503 -4.5728765 1.5260947 2.3967529e-39
-1.2361196 -4.5816026 1.5261543 1.8621855e-40
-1.3642615 -4.3226299 1.5245962 9.9481051e-39
-1.3081429 -4.4261246 1.5252571 9.7647956e-39
-1.302635 -4.4397936 1.5253296 9.8569898e-39
-1.2964994 -4.4546418 1.5254095 9.764797e-39
-1.2884183 -4.4653921 1.5254956 9.7647984e-39
-1.2839236 -4.4795556 1.5255613 9.9491897e-39
-1.2761244 -4.4943147 1.525654 9.8573528e-39
-1.2403311 -4.5572586 1.5260689 3.2257919e-39
-1.3579013 -4.3365688 1.524676 9.7637236e-39
-2.5753567 -2.1001689 1.5103567 3.3179805e-39
-2.5701303 -2.0955408 1.5103874 3.1343081e-39
-1.6894077 -3.7972894 1.5209274 9.8533787e-39
-1.6635273 -3.8474944 1.5212376 1.077604e-38
-1.6501812 -3.8768625 1.5214049 1.0315059e-38
-1.6401812 -3.8891957 1.5215095 1.0683483e-38
-2.5852852 -2.0519469 1.510175 3.6853141e-39
-2.5709832 -2.0798242 1.5103469 3.7793146e-39
-2.5707016 -2.0938442 1.5103793 3.2264995e-39
-2.4034882 -2.4031663 1.5123507 1.2167664e-38
-1.6842127 -3.7943866 1.5209616 9.9459204e-39
-1.6678203 -3.8201888 1.5211451 1.1328126e-38
-1.6604227 -3.8403065 1.5212462 1.1605799e-38
-1.6325177 -3.8992772 1.5215911 1.0131751e-38
-1.5210847 -4.1071157 1.5229084 9.6707853e-39
-1.5083814 -4.1334138 1.5230643 9.9470107e-39
-1.4930891 -4.158565 1.5232379 1.0223232e-38
-1.4678828 -4.2114525 1.5235485 9.7633369e-39
-1.2649087 -4.601151 1.5259724 8.4733421e-39
-1.243638 -4.6437182 1.52623 7.3680764e-39
-1.2403561 -4.6544256 1.5262787 7.3680764e-39
-1.2310679 -4.6693449 1.5263834 6.9074668e-39
-1.2257769 -4.6799378 1.5264475 6.4472117e-39
-1.2199662 -4.6905484 1.5265155 7.2758863e-39
-1.2138212 -4.7066555 1.5265982 1.0499112e-38
-1.2065555 -4.7193995 1.5266824 9.6707993e-39
-1.1995779 -4.7322865 1.5267646 9.3020168e-39
-2.5862825 -2.0438166 1.5101498 3.6853141e-39
-2.5795727 -2.0655322 1.510249 3.2254177e-39
-2.507349 -2.1931183 1.5110875 9.2166861e-39
-2.4139884 -2.3753517 1.5122087 1.1797443e-38
-2.4053123 -2.3876569 1.5123029 1.2166226e-38
-1.686192 -3.7801921 1.5209156 8.3811185e-39
-1.6705358 -3.8051171 1.5210913 1.0406177e-38
-1.6622999 -3.8249245 1.5211984 1.0868961e-38
-1.6533549 -3.8457534 1.521313 1.1421768e-38
-1.6477832 -3.8529072 1.5213718 1.1421762e-38
-1.6261182 -3.8981242 1.5216384 1.1237014e-38
-1.619193 -3.9105053 1.5217191 1.1236291e-38
-1.6128545 -3.9237092 1.5217971 1.1881662e-38
-1.6051724 -3.9362471 1.521884 1.0315785e-38
-1.5976859 -3.9467108 1.5219649 1.188166e-38
-1.5887663 -3.9608068 1.5220648 1.0960437e-38
-1.5525463 -4.0409408 1.5225203 1.0407257e-38
-1.5364165 -4.082128 1.522735 9.7633425e-39
-1.5240519 -4.0898986 1.5228481 9.7629837e-39
-1.5179698 -4.1015601 1.5229207 9.5789526e-39
-1.5079054 -4.1333365 1.5230678 9.486757e-39
-1.5022703 -4.1469197 1.523141 9.6707881e-39
-1.4934186 -4.1547847 1.5232271 1.0039203e-38
-1.483313 -4.171711 1.5233425 9.5793113e-39
-1.4691457 -4.1942387 1.5235015 9.8555395e-39
-1.4572033 -4.2060041 1.52362 9.9477295e-39
-1.4550873 -4.2227073 1.5236726 9.763697e-39
-1.4223399 -4.2869444 1.5240666 1.0315436e-38
-1.4094625 -4.3133912 1.524224 9.9466533e-39
-1.3218275 -4.4818683 1.5252711 1.0867887e-38
-1.2929087 -4.5333652 1.5256077 1.0683867e-38
-1.2882552 -4.5467801 1.5256729 1.1051927e-38
-1.2609274 -4.5997701 1.5260004 8.8421204e-39
-1.2557153 -4.6130028 1.5260695 7.5521103e-39
-1.2483592 -4.6218028 1.5261459 9.5789582e-39
-1.2376535 -4.6386294 1.5262656 5.986951e-39
-2.5800173 -2.0441298 1.5101994 5.2522796e-39
-2.5302916 -2.1391089 1.5107921 6.6359274e-39
-2.5152831 -2.164361 1.5109636 1.1887481e-38
-2.5086827 -2.1797574 1.5110483 1.0690018e-38
-2.4559176 -2.2803264 1.5116767 9.8616912e-39
-2.4449859 -2.3066421 1.5118186 1.1152426e-38
-2.4340127 -2.3202252 1.5119336 1.1244626e-38
-2.4278736 -2.3335278 1.5120101 1.124427e-38
-2.4221892 -2.3453372 1.51208 1.2166227e-38
-2.4178538 -2.3612516 1.5121481 1.3180021e-38
-1.674382 -3.7904184 1.5210296 1.5656636e-38
-1.6672027 -3.8006372 1.5211077 1.4275497e-38
-1.6521024 -3.8286765 1.521286 9.7629795e-39
-1.6433513 -3.8406544 1.5213801 1.1513242e-38
-1.6404244 -3.8553901 1.5214345 1.0132122e-38
-1.6191808 -3.8946817 1.5216849 1.0224322e-38
-1.6089118 -3.9202795 1.5218203 1.2342642e-38
-1.5941778 -3.9464543 1.5219917 1.0316152e-38
-1.5857313 -3.9617202 1.5220906 9.4874772e-39
-1.5722637 -3.9854932 1.5222468 9.3945585e-39
-1.5669256 -3.9990652 1.5223178 9.5793085e-39
-1.5591689 -4.0134335 1.5224092 9.3030818e-39
-1.5514338 -4.0239863 1.5224923 9.2108861e-39
-1.5453272 -4.0373354 1.5225688 9.302723e-39
-1.5400627 -4.0526209 1.5226429 9.7629851e-39
-1.5308245 -4.0628529 1.5227369 9.8551836e-39
-1.5247006 -4.0761623 1.5228136 9.8555423e-39
-1.5193956 -4.090415 1.5228856 9.8555409e-39
-1.5091424 -4.1083932 1.5230044 1.0039573e-38
-1.5035813 -4.1312094 1.523097 9.9477379e-39
-1.4921606 -4.140029 1.523205 1.0039573e-38
-1.4731731 -4.1649008 1.5234066 1.0039568e-38
-1.4718648 -4.1806183 1.5234509 9.9470205e-39
-1.4426283 -4.2315488 1.5237888 9.8559038e-39
-1.43959 -4.2464681 1.5238447 9.9484652e-39
-1.4333421 -4.259717 1.523922 9.7633509e-39
-1.4223878 -4.2705526 1.5240308 1.0039942e-38
-1.420259 -4.2830768 1.5240744 1.0039935e-38
-1.4057693 -4.3114324 1.5242486 9.856264e-39
-1.3808397 -4.3645549 1.5245577 9.9470135e-39
-1.3502769 -4.4142466 1.5249032 9.9473792e-39
-1.3171376 -4.4799938 1.5253035 1.0315799e-38
-1.2922294 -4.5265241 1.5255982 1.0683867e-38
-1.2796236 -4.5508232 1.5257488 1.0685311e-38
-1.2607859 -4.5828271 1.5259647 8.383673e-39
-1.2550418 -4.5964594 1.5260391 7.0003855e-39
-1.2228475 -4.6619287 1.5264314 1.1974936e-39
-2.5774746 -2.0372679 1.5102043 1.0137562e-38
-2.5484781 -2.0991659 1.5105641 1.1426863e-38
-2.5408301 -2.1116915 1.5106508 1.1427223e-38
-2.5328598 -2.1244955 1.5107405 1.0137202e-38
-2.5185826 -2.1496475 1.5109061 1.2072228e-38
-1.6105462 -3.8897514 1.5217416 9.7629879e-39
-1.6090519 -3.9047711 1.5217857 9.6707867e-39
-1.5993959 -3.9170413 1.5218875 9.7629795e-39
-1.5933579 -3.9303937 1.5219634 9.67223e-39
-1.5860882 -3.9431362 1.5220475 9.580033e-39
-1.579805 -3.9563673 1.5221251 9.5800344e-39
-1.5761789 -3.9691896 1.522181 9.6718713e-39
-1.535264 -4.0322084 1.5226362 9.6718699e-39
-1.5343502 -4.0482306 1.5226779 9.6718713e-39
-1.5148377 -4.0868993 1.5229135 9.8551794e-39
-1.5071071 -4.0997267 1.5230016 9.8551836e-39
-1.4989318 -4.1124277 1.5230926 9.7633467e-39
-1.4918324 -4.1252546 1.5231757 9.9473764e-39
-1.4869144 -4.1395235 1.5232447 1.0039215e-38
-1.4148321 -4.2667613 1.5240815 1.0039576e-38
-1.4144715 -4.2810159 1.5241151 9.9473806e-39
-1.4057765 -4.2953658 1.5242139 9.947382e-39
-1.3602328 -4.3704462 1.5247309 1.0040298e-38
-1.3503597 -4.3983889 1.5248684 1.0039943e-38
-1.3320864 -4.4422126 1.5251054 1.0223612e-38
-1.3238009 -4.4505696 1.5251881 1.0131776e-38
-1.3184375 -4.464293 1.5252594 1.0131777e-38
-1.3082734 -4.4788628 1.5253701 1.0408357e-38
-1.2978622 -4.5034399 1.5255044 1.049985e-38
-1.2921919 -4.5199628 1.5255843 1.0683872e-38
-1.2796992 -4.5266862 1.5256962 1.0776062e-38
-1.2793866 -4.5416865 1.525731 1.0684228e-38
-1.2712474 -4.555223 1.5258236 1.0317253e-38
-1.2661436 -4.5691371 1.5258934 9.7651627e-39
-1.4101204 -4.2803721 1.5241476 9.8551962e-39
-1.4019741 -4.2932124 1.5242388 1.0039576e-38
-1.347149 -4.3963785 1.5248889 9.9477533e-39
-1.3073465 -4.4754119 1.5253699 9.948468e-39
-1.2911669 -4.499815 1.5255486 9.9491897e-39
-1.2849166 -4.513062 1.5256261 1.0225774e-38
-1.2815921 -4.5277591 1.5256836 1.0500201e-38
-1.275009 -4.5425234 1.525767 1.0408727e-38
-1.2554139 -4.5637083 1.5259653 9.5832994e-39
-1.3773019 -4.3300161 1.5245106 9.6718811e-39
-1.3131905 -4.445281 1.5252593 9.7647956e-39
-1.3098317 -4.4600301 1.5253172 9.6726e-39
-1.297452 -4.4865847 1.5254711 9.7647984e-39
-1.2757548 -4.5083613 1.5256872 1.0225774e-38
-1.3854265 -4.3006935 1.5243839 9.7640795e-39
-2.5849154 -2.1156809 1.5103158 3.4101719e-39
-2.5785403 -2.130698 1.5103978 3.2257835e-39
-2.5797606 -2.1094694 1.5103425 3.1339494e-39
-2.5699978 -2.1429248 1.5104909 3.4098174e-39
-1.6945509 -3.8189175 1.5209341 1.2430892e-38
-1.6838622 -3.8284061 1.5210378 1.2708191e-38
-1.6834376 -3.8372588 1.5210602 1.1880941e-38
-1.6769212 -3.8552701 1.52115 1.1604717e-38
-1.6684222 -3.8702822 1.5212486 1.1052623e-38
-1.655643 -3.8908374 1.5213926 1.0592006e-38
-1.6460997 -3.9088521 1.5215058 1.1144817e-38
-1.6070421 -3.9854751 1.5219758 1.096007e-38
-1.5993855 -3.9991553 1.5220649 1.1327772e-38
-1.4968172 -4.2099137 1.5233196 9.7629697e-39
-1.4853417 -4.2199502 1.5234307 1.0407975e-38
-1.2466754 -4.6742272 1.5262723 7.4599105e-39
-1.240899 -4.6877089 1.5263463 6.0784306e-39
-1.2350651 -4.7011585 1.526421 8.3811451e-39
-1.2273704 -4.7136941 1.526508 7.2758863e-39
-1.2201653 -4.726469 1.5265918 9.4864095e-39
-1.2096893 -4.7536058 1.526732 8.4729792e-39
-2.5748918 -2.1070907 1.5103753 2.9499168e-39
-2.5122366 -2.2288818 1.5111266 7.0972698e-39
-2.4260137 -2.398387 1.5121648 1.2719764e-38
-1.6873056 -3.8158517 1.5209839 1.1143022e-38
-1.6802222 -3.8266594 1.5210624 1.5195655e-38
-1.6741978 -3.8416986 1.521142 1.3078041e-38
-1.6616191 -3.8678355 1.5212964 9.7636984e-39
-1.6527858 -3.8783741 1.5213879 9.5796659e-39
-1.6516794 -3.8867137 1.5214145 9.3945501e-39
-1.6396668 -3.9098699 1.5215583 1.2064964e-38
-1.6208689 -3.9458411 1.5217824 1.0775681e-38
-1.6185551 -3.9596479 1.5218303 1.1236655e-38
-1.5450488 -4.0865707 1.5226773 9.7633425e-39
-1.5412431 -4.1003952 1.5227369 1.0131042e-38
-1.5272087 -4.126924 1.5229036 9.486757e-39
-1.4868021 -4.2042456 1.5233855 9.9473694e-39
-1.4773941 -4.2226734 1.5234987 9.3952802e-39
-1.4708984 -4.2296181 1.5235642 9.5796729e-39
-1.4463035 -4.2828298 1.5238708 1.003921e-38
-1.2829344 -4.5975218 1.5258241 9.8559122e-39
-1.2782912 -4.60817 1.5258832 9.8559122e-39
-1.2723125 -4.6220641 1.5259598 8.1056442e-39
-1.2633862 -4.6340742 1.5260553 5.4341458e-39
-1.2528743 -4.6576481 1.5261881 7.3680708e-39
-1.2122825 -4.7389073 1.52668 9.6707993e-39
-2.5917759 -2.0554073 1.510132 3.5009228e-39
-2.5805151 -2.0833416 1.5102801 3.5942016e-39
-2.5763559 -2.0968814 1.5103418 2.9499154e-39
-2.5188091 -2.1991224 1.5110111 1.1704529e-38
-2.5074279 -2.2256801 1.5111573 7.6504408e-39
-2.4322422 -2.3712912 1.5120577 1.1889639e-38
-2.4271371 -2.3825214 1.5121218 1.1613411e-38
-1.6656276 -3.8356354 1.5211957 1.4275138e-38
-1.6509342 -3.877254 1.5213999 9.8558968e-39
-1.6312867 -3.9168236 1.5216385 1.1789462e-38
-1.6235024 -3.9293113 1.5217261 1.0777127e-38
-1.6170677 -3.9440126 1.5218081 1.0500179e-38
-1.5806594 -4.0061493 1.522226 9.4867542e-39
-1.5672733 -4.0322051 1.5223867 9.302723e-39
-1.561834 -4.0458546 1.5224586 9.2108861e-39
-1.5443997 -4.0850987 1.5226792 9.4871115e-39
-1.5336704 -4.1024289 1.5228003 9.9477393e-39
-1.5195254 -4.1296954 1.5229694 9.486757e-39
-1.5175474 -4.1383214 1.5230033 9.486757e-39
-1.508845 -4.1531248 1.5231032 9.7629823e-39
-1.4972384 -4.1745186 1.52324 9.3949215e-39
-1.4879922 -4.1890078 1.5233432 9.5793057e-39
-1.4823264 -4.2024021 1.5234163 9.671507e-39
-1.4603707 -4.2422671 1.5236737 9.3952774e-39
-1.4532019 -4.2535391 1.5237539 9.8559038e-39
-1.4394141 -4.2793956 1.5239172 9.9477477e-39
-1.4334265 -4.2927732 1.5239929 1.0132135e-38
-1.4001569 -4.3570704 1.5243909 1.0039208e-38
-1.3172379 -4.5295105 1.5254098 1.050019e-38
-1.2916011 -4.565732 1.5256877 1.0868619e-38
-1.2728032 -4.6067114 1.5259228 9.1194318e-39
-1.2626872 -4.6167102 1.5260233 7.4613622e-39
-1.25043 -4.6433988 1.5261765 8.013087e-39
-1.2479688 -4.6531596 1.5262167 3.8686193e-39
-2.5859492 -2.0525227 1.5101712 7.5568075e-39
-2.5833039 -2.0675547 1.5102242 6.9114394e-39
-2.5539432 -2.1184652 1.5105631 1.0505989e-38
-2.5476406 -2.1316867 1.5106409 1.1149917e-38
-2.5406795 -2.1445818 1.510723 1.1703807e-38
-2.5292363 -2.1715641 1.5108705 1.0966245e-38
-2.521734 -2.1841984 1.5109562 1.1335751e-38
-2.5068762 -2.2094731 1.5111265 1.1888557e-38
-2.4468086 -2.3268366 1.5118481 1.2534288e-38
-2.4409666 -2.3403232 1.5119228 1.1797441e-38
-2.4370842 -2.3547614 1.5119842 1.1889642e-38
-1.6155759 -3.9386735 1.5218081 1.0869326e-38
-1.5895652 -3.9818597 1.5221041 9.3030874e-39
-1.5856121 -3.992259 1.5221574 9.1183332e-39
-1.5725838 -4.0184917 1.5223156 9.2105288e-39
-1.5542759 -4.055707 1.5225388 9.8551822e-39
-1.5458611 -4.0706778 1.5226367 9.8555409e-39
-1.5378184 -4.0796776 1.5227187 1.013177e-38
-1.5237532 -4.1067753 1.522887 9.9470149e-39
-1.5175749 -4.1232429 1.5229707 9.9470149e-39
-1.4991994 -4.1619196 1.5231974 9.9477393e-39
-1.4455366 -4.2660847 1.5238408 9.9484652e-39
-1.4229096 -4.3035927 1.5240982 9.9473834e-39
-1.3959605 -4.3584905 1.5244267 1.0039572e-38
-1.3886327 -4.3706117 1.52451 9.9477379e-39
-1.3687382 -4.4068432 1.5247434 1.0039576e-38
-1.3620759 -4.4217634 1.5248275 1.0131772e-38
-1.3076822 -4.5246673 1.5254737 1.0683878e-38
-1.3024689 -4.5368528 1.5255407 1.0776069e-38
-1.2912445 -4.5491357 1.5256548 1.0868256e-38
-1.2871858 -4.5594482 1.5257087 1.0868619e-38
-1.2819459 -4.5762196 1.5257857 1.0593116e-38
-1.2748076 -4.587893 1.5258665 1.0409808e-38
-1.2564888 -4.6300564 1.5261004 3.960466e-39
-2.5603044 -2.1023219 1.5104787 1.0598544e-38
-2.5314384 -2.1563294 1.5108204 1.1980033e-38
-2.5111201 -2.1954203 1.5110631 1.2255902e-38
-1.6610811 -3.8335142 1.5212264 9.7629753e-39
-1.6084927 -3.9217319 1.5218267 9.6707839e-39
-1.6075959 -3.9369433 1.5218666 9.6707839e-39
-1.5982828 -3.9495039 1.5219662 9.5793001e-39
-1.5915489 -3.9657726 1.5220538 9.4878388e-39
-1.5485979 -4.0556407 1.5225828 9.6718699e-39
-1.5136664 -4.1184592 1.5229907 9.8551808e-39
-1.50555 -4.129447 1.5230778 1.0039576e-38
-1.4451277 -4.2495222 1.5238082 9.9481107e-39
-1.4159645 -4.3057966 1.524157 9.8551962e-39
-1.3770819 -4.3792734 1.5246187 9.8559066e-39
-1.3454643 -4.4444637 1.5250061 1.0039945e-38
-1.3371297 -4.4575367 1.5250992 9.9481093e-39
-1.3299578 -4.4703279 1.5251827 1.0040302e-38
-1.3224069 -4.4798117 1.5252621 1.013178e-38
-1.3145863 -4.5012174 1.5253693 1.040872e-38
-1.3114976 -4.5102134 1.5254128 1.040872e-38
-1.4052291 -4.3135552 1.5242573 1.0039578e-38
-1.3775936 -4.3631759 1.52458 9.9481051e-39
-1.3726577 -4.3789015 1.5246524 1.013177e-38
-1.3649589 -4.3898587 1.524736 9.9477463e-39
-1.3233428 -4.4670501 1.5252272 9.6726e-39
-1.3170794 -4.4802914 1.5253046 9.6726e-39
-1.3107381 -4.4934931 1.5253825 9.856994e-39
-1.3058636 -4.5074224 1.5254506 9.7647984e-39
-1.2985003 -4.5219178 1.5255393 1.0040666e-38
-1.2891288 -4.5317445 1.5256336 1.0500203e-38
-1.3453802 -4.4125919 1.5249377 9.7637236e-39
-2.5610099 -2.2040722 1.5106928 3.5023689e-39
-2.5764163 -2.1498463 1.5104556 3.1343095e-39
-2.5766041 -2.1627069 1.5104821 3.1343095e-39
-2.5648355 -2.1896758 1.5106319 3.6867616e-39
-2.5560405 -2.2016072 1.5107263 3.502013e-39
-2.547358 -2.2135971 1.5108199 3.3179791e-39
-1.706278 -3.8345482 1.5208764 1.289115e-38
-1.6969233 -3.8513224 1.5209856 1.1419609e-38
-1.689442 -3.8656042 1.5210748 1.1880936e-38
-1.6866882 -3.8792989 1.5211258 1.086787e-38
-1.6767658 -3.8898716 1.5212259 1.1512159e-38
-1.657966 -3.9292634 1.5214576 1.0774958e-38
-1.2497356 -4.7087574 1.5263231 9.8551822e-39
-2.5873406 -2.1189334 1.5103039 3.1339494e-39
-2.57847 -2.130825 1.5103986 3.4101775e-39
-2.5730383 -2.1519811 1.5104866 3.1335906e-39
-2.5685408 -2.1752167 1.5105718 3.0421139e-39
-2.5598047 -2.1871789 1.5106658 3.3179833e-39
-2.5511227 -2.1991689 1.5107595 3.1332319e-39
-2.5424373 -2.2111573 1.5108529 3.2254191e-39
-1.6993978 -3.8364863 1.5209342 1.3905289e-38
-1.6944796 -3.8475587 1.5209965 1.3262071e-38
-1.6813933 -3.8766634 1.5211614 1.344681e-38
-1.6697077 -3.8932788 1.5212883 1.0776031e-38
-1.6460688 -3.9243131 1.5215396 1.0591287e-38
-1.6481129 -3.9349058 1.5215466 1.1144811e-38
-1.6312412 -3.9659488 1.5217451 1.0959711e-38
-1.5103524 -4.2002344 1.5231934 9.6711426e-39
-1.5027733 -4.215939 1.5232863 9.7629697e-39
-1.4953336 -4.2257061 1.5233654 9.9473694e-39
-1.2592877 -4.6808014 1.5261883 6.2628092e-39
-1.2541707 -4.6951189 1.5262589 9.486401e-39
-1.2414328 -4.7211275 1.5264145 8.7495661e-39
-1.2337147 -4.7334991 1.5265013 8.9335958e-39
-1.2259021 -4.7480712 1.5265937 8.1045596e-39
-1.2204267 -4.7605324 1.5266633 8.5651762e-39
-1.215305 -4.7734189 1.526731 8.3811451e-39
-2.5824277 -2.116498 1.5103369 2.9499168e-39
-2.5736852 -2.1284564 1.5104309 2.7655256e-39
-2.5686443 -2.1448805 1.5105056 3.5942044e-39
-2.5636828 -2.1728098 1.5106046 3.6856812e-39
-2.5548785 -2.1847363 1.510699 4.5161593e-39
-2.545928 -2.1965861 1.5107943 4.1470195e-39
-2.441174 -2.3898022 1.5120282 1.1797443e-38
-1.6965681 -3.8297374 1.5209417 1.5563722e-38
-1.6854854 -3.8459373 1.5210631 1.620908e-38
-1.6784637 -3.858753 1.5211455 1.1236658e-38
-1.6633099 -3.8938472 1.5213393 9.5796659e-39
-1.6431462 -3.9267282 1.5215675 1.1420683e-38
-1.6343169 -3.9511898 1.5216892 1.105226e-38
-1.6262481 -3.9636855 1.5217791 9.8559038e-39
-1.6218663 -3.973736 1.521835 1.0684203e-38
-1.532286 -4.1451683 1.5229034 9.5785911e-39
-1.5182958 -4.1727147 1.523072 9.5793099e-39
-1.5146807 -4.1863256 1.5231296 9.6711468e-39
-1.5033849 -4.1970072 1.5232406 9.48675e-39
-1.5015801 -4.2056046 1.5232732 1.049982e-38
-1.4832805 -4.2360053 1.5234816 9.7633425e-39
-1.4778091 -4.2501383 1.5235548 9.4874772e-39
-1.4513947 -4.3018737 1.5238724 9.7629851e-39
-1.4436735 -4.3145204 1.5239599 9.8551822e-39
-1.2950068 -4.6004338 1.5257363 1.0500552e-38
-1.2879226 -4.6147861 1.5258224 1.0317245e-38
-1.2840929 -4.6293449 1.5258837 8.475147e-39
-1.2626333 -4.6663051 1.5261308 4.7894938e-39
-2.5862434 -2.1020963 1.5102761 2.9499154e-39
-2.577431 -2.1140184 1.5103705 3.595645e-39
-2.5698204 -2.1291461 1.5104624 4.0555413e-39
-2.5585878 -2.170279 1.510639 6.0809627e-39
-2.547405 -2.1809781 1.5107491 9.3078056e-39
-2.539948 -2.1935997 1.5108345 1.0138288e-38
-2.5329924 -2.2054193 1.5109141 1.050671e-38
-2.5249918 -2.2197552 1.5110074 1.124391e-38
-2.5173852 -2.2314317 1.5110919 1.1703806e-38
-2.5127394 -2.2454896 1.5111585 9.5851071e-39
-2.5042801 -2.2576268 1.5112506 7.0039896e-39
-2.4493594 -2.3641045 1.5119089 1.1613411e-38
-2.4464419 -2.3760679 1.5119574 1.1336824e-38
-1.6918815 -3.8327622 1.5209849 1.593214e-38
-1.6817412 -3.8605816 1.5211239 9.5785813e-39
-1.669386 -3.8706496 1.5212419 9.8562584e-39
-1.6638547 -3.8842533 1.5213144 9.9484526e-39
-1.6372539 -3.9364505 1.5216345 1.1237373e-38
-1.6293051 -3.9450574 1.521715 1.0131765e-38
-1.5920672 -4.0194144 1.5221659 1.0131399e-38
-1.5873021 -4.0273914 1.5222201 9.8551724e-39
-1.5793647 -4.0385222 1.5223061 9.2101687e-39
-1.5745244 -4.0517268 1.5223724 9.3949131e-39
-1.5690938 -4.0631671 1.5224394 9.5789484e-39
-1.5662084 -4.0811672 1.5225008 9.3027146e-39
-1.5484043 -4.1044836 1.5226899 1.0039932e-38
-1.5400037 -4.1191349 1.5227871 9.9477393e-39
-1.5314866 -4.1361909 1.5228902 9.5789512e-39
-1.5215186 -4.1569591 1.5230128 1.0039575e-38
-1.5111036 -4.1719708 1.5231265 9.8551794e-39
-1.5061151 -4.1834717 1.5231901 9.7633425e-39
-1.4673611 -4.2578254 1.5236528 9.7640641e-39
-1.4587787 -4.2729721 1.5237525 1.0040659e-38
-1.4526982 -4.286303 1.5238285 9.9484652e-39
-1.4474481 -4.3002892 1.5238997 9.9477407e-39
-1.4339542 -4.3095431 1.524025 9.8551822e-39
-1.4358922 -4.3204637 1.5240334 1.0315079e-38
-1.4149553 -4.3643684 1.5242914 1.0039571e-38
-1.4062032 -4.37748 1.524388 1.0132131e-38
-1.3260461 -4.5334964 1.5253497 1.0592026e-38
-1.3193358 -4.5437331 1.5254242 1.0407999e-38
-1.3046459 -4.5727763 1.5256014 1.0776425e-38
-1.3001158 -4.5866928 1.5256667 1.0868261e-38
-1.2901776 -4.5972848 1.5257671 1.0224689e-38
-1.2773143 -4.6246238 1.5259264 9.0279564e-39
-1.2696272 -4.6368918 1.5260129 7.1858585e-39
-1.2576931 -4.6642566 1.526165 3.5927597e-39
-2.5892167 -2.0867739 1.5102198 4.1470111e-39
-2.5824423 -2.0980127 1.5102968 4.3321254e-39
-2.5725369 -2.1115925 1.5104034 5.0696891e-39
-2.5647371 -2.1268854 1.5104972 8.7553548e-39
-2.562808 -2.1395814 1.5105397 9.399641e-39
-2.5540426 -2.1515288 1.5106338 1.1611614e-38
-2.5486033 -2.1669681 1.5107095 1.1058439e-38
-1.6218661 -3.9502091 1.5217841 9.7637082e-39
-1.6231623 -3.9623184 1.5218002 9.7637068e-39
-1.6102691 -3.9721203 1.5219218 9.9477393e-39
-1.5998554 -3.9978685 1.5220586 9.6715098e-39
-1.5903897 -4.0112677 1.5221612 9.7633425e-39
-1.5585757 -4.0772548 1.5225518 9.9473778e-39
-1.5519602 -4.0903206 1.5226315 9.9477365e-39
-1.5317631 -4.1293468 1.5228733 9.9466505e-39
-1.4362051 -4.3099084 1.524008 9.7633621e-39
-1.4026256 -4.3748884 1.5244102 1.0039938e-38
-1.3829436 -4.4141603 1.5246484 1.0039572e-38
-1.3702047 -4.4353223 1.5247935 1.0315803e-38
-1.3517234 -4.4650927 1.5250019 1.0315448e-38
-1.3316454 -4.504178 1.5252427 1.013178e-38
-1.3274014 -4.5176878 1.5253049 1.0683861e-38
-1.3185583 -4.5303822 1.5254014 1.040872e-38
-1.3165758 -4.5386996 1.5254347 1.0500556e-38
-1.307942 -4.556232 1.5255399 1.0683876e-38
-1.3017924 -4.5671964 1.5256115 1.0868258e-38
-1.2818922 -4.6102805 1.5258597 1.0409808e-38
-1.2619138 -4.6494145 1.5260999 9.2232064e-41
-1.6105344 -3.9558294 1.5218846 9.5789484e-39
-1.6056498 -3.9698915 1.521953 9.395276e-39
-1.5997618 -3.9832516 1.5220277 9.3956361e-39
-1.4245665 -4.3197517 1.5241202 9.7633621e-39
-1.369987 -4.4251099 1.5247731 9.4871115e-39
-1.3535416 -4.4556785 1.5249673 1.0315448e-38
-1.3421612 -4.4771357 1.5251024 1.0039945e-38
-1.3281542 -4.5019698 1.5252651 1.013178e-38
-1.3847165 -4.3850136 1.5245717 9.8559052e-39
-1.3445671 -4.4615474 1.5250499 9.7644425e-39
-1.3244171 -4.4988399 1.5252875 9.948468e-39
-1.3133222 -4.5113325 1.525401 9.9491897e-39
-1.3867209 -4.3682642 1.5245198 9.7640767e-39
-2.5591741 -2.2196398 1.5107409 3.5023689e-39
-2.5594113 -2.2346525 1.5107715 3.5945674e-39
-2.5822282 -2.1657104 1.5104448 3.1339494e-39
-2.5735707 -2.1777134 1.5105381 3.2261436e-39
-2.5543315 -2.2323377 1.5108061 3.4101761e-39
-1.7096597 -3.8579798 1.5209007 1.3352122e-38
-1.7002205 -3.8699086 1.521 1.3907077e-38
-1.6890166 -3.8970459 1.5211459 1.1328853e-38
-1.6685389 -3.9395859 1.5213975 1.0499089e-38
-1.6149263 -4.0401716 1.5220326 1.1051908e-38
-1.5455034 -4.1691685 1.5228524 9.670414e-39
-1.5181308 -4.2209835 1.5231776 9.8551695e-39
-1.5013179 -4.2652817 1.5234044 1.1144827e-38
-1.4918895 -4.2733083 1.5234952 1.0499823e-38
-1.4865234 -4.2881098 1.523569 1.0315433e-38
-1.2815343 -4.6922536 1.5260396 7.2758835e-39
-1.2764757 -4.7061377 1.526109 1.0591661e-38
-1.2349709 -4.7671447 1.5265642 7.8283357e-39
-1.2219583 -4.7933855 1.5267224 8.3811451e-39
-2.5770743 -2.1631489 1.5104795 3.1335906e-39
-2.5494258 -2.2299466 1.5108392 3.6867602e-39
-2.5087297 -2.3092601 1.5113277 6.6366532e-39
-1.7133307 -3.8437159 1.5208412 1.2246509e-38
-1.7007959 -3.8629048 1.5209804 1.3907077e-38
-1.6939385 -3.8761234 1.5210625 1.344681e-38
-1.6874745 -3.8885834 1.5211397 1.0777126e-38
-1.6772408 -3.9077289 1.5212609 9.8544437e-39
-1.669457 -3.9365332 1.5213838 9.8551681e-39
-1.6562228 -3.9461124 1.5215076 1.0223584e-38
-1.6507635 -3.9601791 1.5215806 1.105226e-38
-1.6452514 -3.9734271 1.5216521 1.0868231e-38
-1.6358082 -3.985904 1.5217526 1.0776041e-38
-1.5428933 -4.1683359 1.5228709 9.4863898e-39
-1.529886 -4.194149 1.523028 9.486757e-39
-1.5160203 -4.2190862 1.52319 9.5785855e-39
-1.4271697 -4.4048948 1.5242838 1.0407267e-38
-1.4150054 -4.4143624 1.524399 1.0683492e-38
-1.2844471 -4.6609049 1.5259491 5.7110984e-39
-1.2712747 -4.6870675 1.5261083 3.8686235e-39
-1.2689325 -4.69976 1.5261539 8.4729778e-39
-1.2592615 -4.7138653 1.5262598 8.1967496e-39
-1.2510571 -4.7298403 1.5263584 8.2893124e-39
-1.239797 -4.7528424 1.5264958 8.6577306e-39
-1.225563 -4.7786951 1.5266625 8.4733393e-39
-2.5721581 -2.1607115 1.5105124 3.593487e-39
-2.5444303 -2.2123301 1.5108399 7.3735022e-39
-2.5437014 -2.2275858 1.5108787 7.0972712e-39
-2.5363564 -2.2411644 1.5109652 5.8068884e-39
-2.5228133 -2.2658138 1.511124 6.636656e-39
-2.5179651 -2.2785997 1.5111895 8.9404664e-39
-2.5052614 -2.3004196 1.5113355 7.0969111e-39
-2.4979157 -2.3201764 1.5114354 7.0047183e-39
-1.7029743 -3.8424859 1.5209193 1.5379692e-38
-1.7016897 -3.854346 1.520955 1.3630136e-38
-1.6932495 -3.8664629 1.521047 1.6024333e-38
-1.6862164 -3.8793147 1.5211295 1.0316513e-38
-1.6691203 -3.9034564 1.5213149 9.9484526e-39
-1.6692367 -3.9119761 1.5213324 1.0409788e-38
-1.6492515 -3.9426339 1.5215544 1.2526669e-38
-1.6461676 -3.9557655 1.5216068 1.1052625e-38
-1.6385223 -3.9700787 1.5216973 1.0960788e-38
-1.5512601 -4.1389294 1.5227422 9.7633439e-39
-1.5458474 -4.1529951 1.5228148 9.6711482e-39
-1.5396022 -4.1646724 1.5228885 9.8555409e-39
-1.5304918 -4.178277 1.522989 9.8551808e-39
-1.5155722 -4.2032909 1.5231593 9.3949159e-39
-1.5056261 -4.231132 1.523297 9.9477337e-39
-1.4995863 -4.2444844 1.5233729 9.7633439e-39
-1.4914356 -4.2567897 1.5234629 9.5789512e-39
-1.4842919 -4.2668982 1.5235405 9.7640641e-39
-1.4805629 -4.2841849 1.5236069 9.8559038e-39
-1.4702853 -4.2933569 1.5237068 9.855901e-39
-1.4648874 -4.3090129 1.5237827 9.9477365e-39
-1.4573212 -4.3189158 1.5238631 1.0131769e-38
-1.453419 -4.3361082 1.5239305 1.0223249e-38
-1.4435236 -4.3454313 1.5240278 1.0131047e-38
-1.4386977 -4.3594904 1.5240958 1.013105e-38
-1.4095891 -4.4123683 1.524437 1.0315436e-38
-1.2886331 -4.6502709 1.5258936 7.8305021e-39
-1.2766484 -4.6569104 1.5260013 5.7110984e-39
-1.2766227 -4.6733727 1.5260371 4.328887e-39
-1.242336 -4.7381063 1.5264442 5.9869538e-39
-1.2393612 -4.7531137 1.5264997 1.7510275e-39
-2.5759921 -2.1463196 1.5104513 4.608355e-39
-2.567234 -2.1582701 1.5105455 5.0671723e-39
-2.5317326 -2.2388649 1.5109962 1.1243908e-38
-2.5265756 -2.2526553 1.5110662 9.3088832e-39
-2.5120647 -2.2616565 1.5111986 7.0047155e-39
-2.5111589 -2.2780578 1.5112413 7.7411959e-39
-2.5031774 -2.290046 1.5113293 6.7277628e-39
-1.689986 -3.8622792 1.5210633 9.5785813e-39
-1.6839541 -3.8718421 1.5211309 9.8558996e-39
-1.6766133 -3.8909006 1.5212294 9.9488113e-39
-1.6375434 -3.9531744 1.5216684 9.6711426e-39
-1.6324098 -3.9682269 1.5217409 1.0039924e-38
-1.5991999 -4.0335999 1.522141 9.3949159e-39
-1.5939516 -4.0470204 1.5222108 9.3949145e-39
-1.5851254 -4.0580468 1.5223035 9.8555409e-39
-1.5784881 -4.0740323 1.5223897 9.5789484e-39
-1.5750204 -4.0857286 1.522442 9.3027146e-39
-1.5672984 -4.0951276 1.5225224 9.4867542e-39
-1.5564276 -4.1238484 1.5226692 1.0039934e-38
-1.5465547 -4.1369839 1.5227746 9.8551808e-39
-1.4733734 -4.2640338 1.5236194 9.8562556e-39
-1.4714247 -4.2812285 1.5236716 9.9481009e-39
-1.4647975 -4.2926054 1.5237479 9.9484568e-39
-1.4452478 -4.3320003 1.5239854 1.0131047e-38
-1.4426075 -4.3471174 1.5240387 1.031472e-38
-1.4046502 -4.409152 1.5244685 9.8555395e-39
-1.4003679 -4.4184942 1.5245221 9.9473736e-39
-1.364302 -4.4879794 1.5249532 1.0407638e-38
-1.3299912 -4.5527472 1.5253606 1.050055e-38
-1.3218927 -4.5650487 1.5254503 1.059204e-38
-1.3146231 -4.5837798 1.5255475 1.0868261e-38
-1.3124455 -4.5930567 1.5255845 1.0868261e-38
-1.3036882 -4.6050615 1.5256786 1.0868261e-38
-1.2960343 -4.619153 1.5257688 1.0225414e-38
-1.2946967 -4.633419 1.52581 1.0593473e-38
-1.2822747 -4.6434846 1.5259285 5.5299469e-39
-1.2767218 -4.6574607 1.5260019 5.8043716e-39
-2.5621631 -2.1557522 1.5105796 9.0308613e-39
-1.6237011 -3.9790945 1.5218322 9.8559038e-39
-1.6171697 -3.9912002 1.5219092 9.8555395e-39
-1.6068344 -4.0034256 1.5220163 9.487836e-39
-1.6039381 -4.0157418 1.5220654 9.9477379e-39
-1.5550517 -4.1093521 1.5226486 9.6707811e-39
-1.4397532 -4.3299236 1.5240237 9.8551948e-39
-1.3874443 -4.4341121 1.5246564 1.0223603e-38
-1.3796856 -4.4460573 1.5247428 1.0131775e-38
-1.354337 -4.4994469 1.5250558 1.0591665e-38
-1.341272 -4.5224051 1.5252072 1.0408001e-38
-1.3304505 -4.5365191 1.525322 1.0775697e-38
-1.3258208 -4.55057 1.5253885 1.0500194e-38
-1.3145568 -4.5777583 1.525535 1.1144483e-38
-1.2876637 -4.6298103 1.525857 9.8588003e-39
-1.2843518 -4.6446719 1.5259148 9.3063496e-39
-1.4273329 -4.3393941 1.524141 9.8551962e-39
-1.4213812 -4.3538547 1.5242186 9.8551948e-39
-1.3650333 -4.4630799 1.5248938 1.0039587e-38
-1.3605863 -4.4698105 1.524943 9.9477547e-39
-1.3568434 -4.4843001 1.5250034 1.0131783e-38
-1.348799 -4.4946508 1.5250885 1.0132138e-38
-1.3370374 -4.517046 1.5252286 1.013178e-38
-1.3873104 -4.4013305 1.5245868 9.7640795e-39
-2.5643828 -2.2541082 1.5107749 3.5023703e-39
-2.5570467 -2.2680955 1.5108622 3.318342e-39
-1.7171743 -3.8786342 1.5208868 1.2247218e-38
-1.6973134 -3.9178269 1.5211263 1.1605072e-38
-2.5540886 -2.2532864 1.5108533 3.1335836e-39
-2.5151904 -2.3290615 1.5113201 5.5310273e-39
-1.7187225 -3.8669419 1.5208495 1.2246864e-38
-1.6926122 -3.9154973 1.521158 9.8558996e-39
-1.6809515 -3.9415243 1.5213051 8.564072e-39
-1.6740841 -3.9559541 1.5213897 9.3016286e-39
-1.6628047 -3.9659791 1.5214993 1.0590567e-38
-1.6624917 -3.9801514 1.5215323 1.0592003e-38
-1.6543157 -3.9949059 1.5216279 1.0499814e-38
-1.6337969 -4.0333691 1.521871 1.04991e-38
-1.627067 -4.0469265 1.5219527 1.0499101e-38
-1.519165 -4.2540851 1.523241 1.0684203e-38
-1.5128206 -4.2677112 1.52332 1.0868247e-38
-1.5043911 -4.2798791 1.523412 1.0223605e-38
-1.4981427 -4.2970719 1.5234978 9.8551766e-39
-1.3301535 -4.6192646 1.5255029 1.1051195e-38
-1.2910372 -4.6964989 1.5259746 7.6446633e-39
-1.2827179 -4.7094069 1.5260673 7.2762409e-39
-1.278996 -4.7239723 1.5261278 9.9466519e-39
-1.2707796 -4.7361803 1.5262183 1.0039568e-38
-1.2623248 -4.7493277 1.5263125 9.3020084e-39
-1.2584748 -4.7628384 1.5263717 1.003921e-38
-1.2511387 -4.7755618 1.5264565 8.3811395e-39
-1.2450908 -4.7889056 1.5265324 7.0914951e-39
-1.2366295 -4.800848 1.5266242 8.7492045e-39
-1.2282358 -4.8157101 1.5267217 8.6573648e-39
-1.2234637 -4.8271461 1.5267836 1.077569e-38
-2.5539606 -2.2489932 1.5108449 5.3462717e-39
-2.5490088 -2.2641706 1.5109164 6.267512e-39
-2.531991 -2.288353 1.5111011 6.8210473e-39
-2.5216737 -2.3122215 1.5112332 6.2685896e-39
-2.5066893 -2.3246918 1.5113769 5.5310273e-39
-2.5064843 -2.3383536 1.511408 9.3085286e-39
-1.7107179 -3.8745632 1.5209284 1.5380049e-38
-1.7064198 -3.8816168 1.520977 1.2341194e-38
-1.6978158 -3.9000418 1.5210838 1.2066054e-38
-1.6833589 -3.9260702 1.5212528 1.0684202e-38
-1.6713589 -3.9526672 1.5214039 9.1179604e-39
-1.666774 -3.9681845 1.5214731 9.7629725e-39
-1.6463792 -3.9973533 1.521695 1.1973863e-38
-1.5482179 -4.1851926 1.5228658 9.1179688e-39
-1.5449021 -4.2019606 1.5229279 9.5789512e-39
-1.5359021 -4.2121234 1.52302 9.6711482e-39
-1.5278305 -4.2259836 1.5231129 9.3945599e-39
-1.5195748 -4.2403674 1.5232083 9.2105232e-39
-1.512531 -4.2512236 1.5232866 9.9477337e-39
-1.4940681 -4.2911086 1.5235167 9.8555437e-39
-1.4876196 -4.3042712 1.5235953 9.6711468e-39
-1.4618961 -4.3569465 1.5239096 9.9470163e-39
-1.4345969 -4.4083891 1.5242336 1.022324e-38
-1.2975397 -4.6680145 1.5258625 9.671514e-39
-1.2904981 -4.6805735 1.5259445 5.7110984e-39
-1.2844988 -4.6933765 1.5260189 5.5259813e-39
-1.2764776 -4.706315 1.5261093 3.8686235e-39
-1.2733859 -4.716351 1.526155 9.0257858e-39
-1.2574613 -4.7464619 1.5263443 6.3550118e-39
-1.2518451 -4.7634754 1.5264249 6.2631721e-39
-1.2416793 -4.7872472 1.5265555 1.3815261e-39
-2.5418668 -2.2603495 1.5109638 8.2950928e-39
-2.5369978 -2.2744892 1.5110322 6.636656e-39
-2.5201218 -2.2987685 1.5112162 7.0969097e-39
-1.6978927 -3.8855155 1.5210519 1.0407982e-38
-1.6933268 -3.8995779 1.5211179 1.0776406e-38
-1.6832799 -3.91255 1.5212241 9.9484526e-39
-1.6815711 -3.9264677 1.5212677 9.7629725e-39
-1.6730096 -3.9384737 1.5213603 1.0409788e-38
-1.6462785 -3.988004 1.5216756 1.1053347e-38
-1.6374167 -4.0019751 1.5217749 1.0408345e-38
-1.6161611 -4.0410609 1.5220249 9.2112421e-39
-1.6029909 -4.0837283 1.5222198 9.7633425e-39
-1.5622962 -4.1451268 1.5226696 1.0131772e-38
-1.55645 -4.1593351 1.5227457 9.8555423e-39
-1.5520964 -4.1727614 1.5228088 9.6711482e-39
-1.5042757 -4.2634778 1.5233774 9.9477379e-39
-1.4933193 -4.2743158 1.5234861 9.9473806e-39
-1.4754938 -4.3149719 1.5237129 9.9481009e-39
-1.4663404 -4.3263268 1.5238088 1.0132132e-38
-1.4645454 -4.3418579 1.5238564 1.0223249e-38
-1.4487656 -4.3682451 1.5240363 1.0223247e-38
-1.3194382 -4.6131911 1.5255733 1.0868261e-38
-1.3161478 -4.6279855 1.5256308 1.0868261e-38
-1.3070149 -4.6385107 1.5257248 1.1237035e-38
-1.3020902 -4.6536283 1.5257958 1.0041741e-38
-1.250024 -4.7496209 1.526409 1.7510275e-39
-1.2473509 -4.7607703 1.5264541 3.2236241e-39
-2.5365572 -2.2578032 1.5109997 1.0414508e-38
-1.6931957 -3.8831346 1.5210834 9.5789428e-39
-1.6428814 -3.9805682 1.521686 9.7633397e-39
-1.6145952 -4.0350947 1.5220243 9.2112421e-39
-1.6061881 -4.0500112 1.5221219 9.7633411e-39
-1.600955 -4.0662756 1.5221978 9.8555409e-39
-1.5923175 -4.0775628 1.5222896 9.578947e-39
-1.586934 -4.0919566 1.5223627 9.6707839e-39
-1.5817066 -4.0984912 1.5224174 9.7633397e-39
-1.5627933 -4.1349502 1.5226436 1.0131772e-38
-1.4813883 -4.2860951 1.5236046 9.7647886e-39
-1.47844 -4.3011994 1.5236602 9.8566255e-39
-1.4095306 -4.4291353 1.5244737 1.0132129e-38
-1.3399072 -4.5645938 1.5253088 1.0408716e-38
-1.3339198 -4.5712557 1.52537 1.0408716e-38
-1.329415 -4.586441 1.5254378 1.0684227e-38
-1.3234566 -4.5988379 1.525511 1.0776427e-38
-1.2928017 -4.6489649 1.5258582 9.4896577e-39
-1.6348244 -3.9849312 1.5217582 9.671144e-39
-1.6286862 -3.9982345 1.5218349 1.0039575e-38
-1.6189958 -4.009707 1.5219351 1.0039934e-38
-1.615762 -4.0245194 1.5219922 9.9480981e-39
-1.5737678 -4.101944 1.5224868 9.6707769e-39
-1.5681567 -4.1153421 1.5225595 9.6707769e-39
-1.5624466 -4.1288576 1.5226332 9.6707769e-39
-1.442005 -4.3509231 1.5240515 9.8551948e-39
-1.4434285 -4.3642044 1.5240692 9.7630005e-39
-1.4301459 -4.373847 1.5241935 9.8551962e-39
-1.4156098 -4.4157753 1.5243974 9.8566269e-39
-1.3991905 -4.4403405 1.5245785 1.0039934e-38
-1.3771526 -4.4805269 1.524837 1.022361e-38
-1.3697659 -4.4909711 1.5249171 1.0499827e-38
-1.3668817 -4.5059443 1.524972 1.0591665e-38
-1.3595052 -4.5160084 1.5250511 1.0499833e-38
-1.3519821 -4.5312691 1.5251428 1.0499838e-38
-1.3438213 -4.5453181 1.5252367 1.0407643e-38
-1.3398505 -4.5579281 1.5252949 1.0775695e-38
-1.2919841 -4.6482153 1.5258631 8.2929221e-39
-1.4364332 -4.3606176 1.5241159 9.8551962e-39
-1.422413 -4.3698816 1.5242453 9.8551962e-39
-1.4233832 -4.3801546 1.5242598 1.0039942e-38
-1.4061139 -4.4109726 1.524461 9.8566297e-39
-1.4045601 -4.4266605 1.524507 9.7644313e-39
-1.3945401 -4.4379406 1.5246094 9.7644327e-39
-1.3766772 -4.4759784 1.5248308 1.0039585e-38
-1.3498404 -4.5175843 1.52513 1.0407643e-38
-1.3435137 -4.5285897 1.5252031 1.0040305e-38
-1.4154546 -4.3851981 1.5243324 9.7633565e-39
-2.5556035 -2.300302 1.5109431 3.5949275e-39
-2.5532348 -2.3151755 1.5109937 3.3190623e-39
-2.5396533 -2.3418961 1.5111573 3.1346696e-39
-2.5637414 -2.2872655 1.5108515 3.4105377e-39
-2.5347493 -2.3390779 1.5111893 2.7651654e-39
-1.7196584 -3.909179 1.5209335 1.0776033e-38
-1.7130318 -3.924216 1.5210177 1.1236645e-38
-1.702652 -3.9371419 1.5211265 9.7626054e-39
-1.6962324 -3.9503059 1.5212049 8.1027337e-39
-1.6911381 -3.9641361 1.5212746 9.1168744e-39
-1.677166 -3.9911335 1.5214417 1.1972763e-38
-1.5551933 -4.2243271 1.5228961 1.0223591e-38
-1.5542653 -4.2396674 1.5229365 1.0315789e-38
-1.520704 -4.2882872 1.523303 1.0407986e-38
-1.2706681 -4.7691398 1.5262903 1.003921e-38
-2.5633235 -2.2703075 1.5108181 3.9633457e-39
-2.5352366 -2.3229752 1.5111507 5.7154172e-39
-2.529006 -2.3362324 1.5112281 5.5310259e-39
-1.7272838 -3.8839695 1.5208197 1.427407e-38
-1.7216645 -3.8975294 1.5208927 1.0407253e-38
-1.7144775 -3.9103451 1.5209764 9.6707769e-39
-1.6965684 -3.9505675 1.5212029 9.3012811e-39
-1.6865373 -3.961729 1.5213052 9.20944e-39
-1.6774925 -3.9737091 1.5214015 9.7629725e-39
-1.6665102 -3.9986608 1.521541 1.0776762e-38
-1.549553 -4.2208595 1.5229325 9.3945613e-39
-1.5255485 -4.27385 1.5232341 1.1328855e-38
-1.5163872 -4.2861485 1.5233321 1.0223963e-38
-1.5113995 -4.3006067 1.5234022 9.9473792e-39
-1.4839777 -4.3517542 1.5237263 1.003921e-38
-1.3380523 -4.6391516 1.5254844 1.0498024e-38
-1.3221346 -4.6642156 1.5256625 1.0593107e-38
-1.2950696 -4.7158704 1.525985 6.4472103e-39
-1.2922162 -4.7308884 1.5260398 5.5259813e-39
-1.2818928 -4.7416639 1.5261436 8.7495563e-39
-1.2760503 -4.7554622 1.5262188 1.0131405e-38
-1.2638042 -4.7821488 1.526372 2.7588204e-40
-1.2535955 -4.7959199 1.5264813 6.4468487e-39
-1.2469549 -4.8079004 1.5265589 6.2624617e-39
-2.5536125 -2.2811639 1.5109172 6.6362959e-39
-2.533766 -2.3163428 1.5111479 5.7154172e-39
-2.521414 -2.3401532 1.5112957 1.0045734e-38
-2.5161204 -2.3461926 1.5113499 1.2072597e-38
-2.5104263 -2.3616776 1.5114278 7.0972726e-39
-2.5050883 -2.3739409 1.5114958 1.0137929e-38
-1.7042301 -3.9177623 1.5210723 9.948454e-39
-1.6933341 -3.9324598 1.5211889 9.5796687e-39
-1.6882319 -3.9449883 1.5212557 9.0257662e-39
-1.6717104 -3.9780774 1.521456 1.1144811e-38
-1.6591604 -4.0022688 1.5216061 1.0039572e-38
-1.5803558 -4.1544309 1.522549 9.7629753e-39
-1.5651708 -4.1795654 1.5227215 9.9477393e-39
-1.5603367 -4.192977 1.5227882 9.5789512e-39
-1.5512416 -4.2053523 1.5228859 9.9473764e-39
-1.5498494 -4.2129822 1.5229132 9.3945613e-39
-1.5413046 -4.2331171 1.5230232 9.6711482e-39
-1.5330132 -4.2464442 1.5231167 9.5789498e-39
-1.5248692 -4.2576628 1.5232043 9.7633439e-39
-1.5059851 -4.2972031 1.523437 9.9473736e-39
-1.4982746 -4.3134732 1.5235323 9.947375e-39
-1.4796182 -4.3503094 1.5237572 9.7637054e-39
-1.4760522 -4.3642979 1.5238152 9.9473778e-39
-1.4653955 -4.3752661 1.523922 1.0038855e-38
-1.4574492 -4.3876743 1.5240107 1.0039213e-38
-1.45417 -4.3994455 1.5240617 1.0039212e-38
-1.4511511 -4.4174252 1.5241241 1.0131408e-38
-1.4189504 -4.4660487 1.52448 1.0591657e-38
-1.3299533 -4.6350713 1.5255387 1.0868261e-38
-1.3251419 -4.6490951 1.5256065 1.0868612e-38
-1.3192852 -4.6625443 1.5256813 1.0868977e-38
-1.3014616 -4.6917844 1.5258832 7.1833292e-39
-1.2996824 -4.7018433 1.5259188 8.1056414e-39
-1.2909206 -4.7104125 1.5260056 2.3945921e-39
-1.2831424 -4.7268586 1.5261018 3.8682676e-39
-1.2548524 -4.7816305 1.5264406 1.3815261e-39
-1.2469826 -4.8035069 1.5265491 2.8548471e-39
-2.5400519 -2.2925129 1.5110474 9.7698655e-39
-2.5347514 -2.3063908 1.5111188 6.8203242e-39
-1.6955601 -3.9175401 1.5211394 9.8555339e-39
-1.6840713 -3.9437959 1.5212857 9.7629725e-39
-1.6777927 -3.957514 1.5213641 9.7629725e-39
-1.6721126 -3.9710436 1.5214376 9.7629725e-39
-1.6545565 -3.9957378 1.5216278 1.0868961e-38
-1.6125833 -4.0802894 1.5221375 9.7633425e-39
-1.6112075 -4.0879655 1.5221649 9.7633425e-39
-1.6031008 -4.0964432 1.5222464 9.5789484e-39
-1.5825696 -4.1412683 1.5225033 9.3945529e-39
-1.5750872 -4.1517816 1.5225843 9.7633383e-39
-1.5700927 -4.1656599 1.5226532 1.0039935e-38
-1.5170652 -4.2701402 1.5232921 1.0039934e-38
-1.5093391 -4.2826567 1.5233793 9.9477435e-39
-1.4899596 -4.3220873 1.5236156 9.7644271e-39
-1.4826065 -4.3347883 1.5237004 1.0040296e-38
-1.4567888 -4.3839765 1.5240078 1.022325e-38
-1.4498175 -4.4003329 1.5240976 1.0315446e-38
-1.4135441 -4.464488 1.5245188 1.0223603e-38
-1.4110322 -4.4792271 1.5245702 1.0131406e-38
-1.3377098 -4.6062255 1.5254159 1.059275e-38
-1.3325763 -4.6201367 1.525486 1.0776424e-38
-1.3076108 -4.6730337 1.5257949 1.0041741e-38
-1.3007741 -4.6860127 1.525876 8.936844e-39
-1.2965122 -4.7003422 1.5259403 6.3589887e-39
-1.2518873 -4.7760258 1.5264516 2.3031167e-39
-1.2472554 -4.7902279 1.5265183 5.7103739e-39
-2.534987 -2.2903605 1.5110822 1.1243551e-38
-1.6846056 -3.9281633 1.5212476 9.7633369e-39
-1.6457454 -3.9905126 1.5216852 9.7637026e-39
-1.6450613 -4.0064449 1.5217249 9.671144e-39
-1.6359621 -4.0185094 1.5218219 1.0039575e-38
-1.6236585 -4.0468206 1.521979 9.5793113e-39
-1.6177616 -4.0585217 1.5220503 9.8555367e-39
-1.6127846 -4.072403 1.5221189 9.8555409e-39
-1.5891466 -4.1096687 1.5223837 9.7629795e-39
-1.5826356 -4.1255283 1.5224688 9.7633411e-39
-1.5755935 -4.138238 1.5225511 9.8551752e-39
-1.4567579 -4.3703823 1.5239787 9.8551934e-39
-1.435734 -4.4094234 1.5242269 1.0315441e-38
-1.4197474 -4.4343982 1.5244054 9.7644313e-39
-1.4106134 -4.4625607 1.5245374 1.0223966e-38
-1.4065551 -4.4770193 1.5246003 1.0223966e-38
-1.3805441 -4.515419 1.5248859 1.0407996e-38
