# .PCD v0.7 - Point Cloud Data file format
VERSION 0.7
FIELDS x y z rgb
SIZE 4 4 4 4
TYPE F F F F
COUNT 1 1 1 1
WIDTH 930
HEIGHT 1
VIEWPOINT 0 0 0 1 0 0 0
POINTS 930
DATA ascii
-2.6058557 2.3424702 1.4458029 2.3418052e-38
-2.6054628 2.3660288 1.4271904 2.3418052e-38
-2.6047697 2.3792114 1.4082544 2.3418052e-38
-2.6032372 2.3866842 1.376969 2.3418052e-38
-2.6022797 2.3827505 1.3616335 2.3418052e-38
-2.5995924 2.3512692 1.3286006 2.3418052e-38
-2.5986116 2.3418574 1.3155247 2.3418052e-38
-2.596354 2.3302796 1.2804927 2.3418052e-38
-2.595252 2.3289642 1.2612714 2.3418052e-38
-2.5948296 2.3271031 1.2545671 2.3418052e-38
-2.5911341 2.3101301 1.1962569 2.3418052e-38
-2.5867267 2.3191612 1.1123985 2.3418052e-38
-2.5851407 2.3302045 1.0784113 2.3418052e-38
-2.5841985 2.3311629 1.0609611 2.3418052e-38
-2.5834441 2.3344715 1.0457443 2.3418052e-38
-2.5807672 2.3299863 0.9996804 2.3418052e-38
-2.579746 2.3318577 0.98035705 2.3418052e-38
-2.5781655 2.3283193 0.95360446 2.3418052e-38
-2.5768168 2.3189032 0.9339053 2.3418052e-38
-2.575999 2.3161719 0.92049706 2.3418052e-38
-2.5751889 2.3137186 0.907098 2.3418052e-38
-2.572608 2.3243575 0.85536325 2.3418052e-38
-2.570735 2.3266068 0.82050431 2.3418052e-38
-2.5699759 2.327677 0.80629575 2.3418052e-38
-2.5673575 2.3302102 0.75786012 2.3418052e-38
-2.5664637 2.3282707 0.74269909 2.3418052e-38
-2.565146 2.3311756 0.71752846 2.3418052e-38
-2.5631237 2.3356268 0.67890525 2.3418052e-38
-2.5621812 2.3402088 0.6596719 2.3418052e-38
-2.5614834 2.3416278 0.64640182 2.3418052e-38
-2.560472 2.3438435 0.62708986 2.3418052e-38
-2.5588999 2.3405735 0.60034609 2.3418052e-38
-2.5581183 2.3391051 0.58697999 2.3418052e-38
-2.5576642 2.3367605 0.57993901 2.3418052e-38
-2.5561874 2.3273032 0.5579437 2.3418052e-38
-2.5525424 2.3356137 0.48817748 2.3418052e-38
-2.5507782 2.3362312 0.45607173 2.3418052e-38
-2.5471759 2.3371527 0.39069614 2.3418052e-38
-2.5463901 2.3355212 0.37732446 2.3418052e-38
-2.5442791 2.3262351 0.34381789 2.3418052e-38
-2.5417583 2.3260887 0.29845485 2.3418052e-38
-2.5405223 2.3208694 0.27872747 2.3418052e-38
-2.5396922 2.3156297 0.2663306 2.3418052e-38
-2.5387883 2.3112972 0.25216478 2.3418052e-38
-2.5365851 2.3007829 0.2175944 2.3418052e-38
-2.5344098 2.3116517 0.17306224 2.3418052e-38
-2.5336237 2.3188877 0.15535134 2.3418052e-38
-2.5319638 2.3215597 0.12412094 2.3418052e-38
-2.530983 2.3302207 0.10220568 2.3418052e-38
-2.5291591 2.3186102 0.075015396 2.3418052e-38
-2.5269606 2.3060946 0.041506454 2.3418052e-38
-2.5260928 2.3005755 0.028563693 2.3418052e-38
-2.522649 2.306963 -0.036629967 2.3418052e-38
-2.5216556 2.2981782 -0.050239719 2.3418052e-38
-2.5188015 2.2877836 -0.096606195 2.3418052e-38
-2.5180728 2.2895815 -0.11061801 2.3418052e-38
-2.5172215 2.2958777 -0.12903994 2.3418052e-38
-2.5160816 2.2996023 -0.15141037 2.3418052e-38
-2.5134907 2.2923515 -0.19456355 2.3418052e-38
-2.5117819 2.2959826 -0.22714582 2.3418052e-38
-2.5099115 2.2989969 -0.26233396 2.3418052e-38
-2.509325 2.2983718 -0.2725991 2.3418052e-38
-2.5083196 2.2990081 -0.29102913 2.3418052e-38
-2.5073762 2.2946677 -0.30591327 2.3418052e-38
-2.5058999 2.2947152 -0.33254653 2.3418052e-38
-2.5038655 2.2987423 -0.3711839 2.3418052e-38
-2.5012589 2.3012881 -0.41941774 2.3418052e-38
-2.5003402 2.3047562 -0.43766752 2.3418052e-38
-2.4996612 2.3048012 -0.44993269 2.3418052e-38
-2.498955 2.3002613 -0.46043751 2.3418052e-38
-2.4967601 2.2899039 -0.49493855 2.3418052e-38
-2.4947903 2.287004 -0.5290218 2.3418052e-38
-2.4940958 2.2885313 -0.54228854 2.3418052e-38
-2.4922967 2.2890477 -0.57497436 2.3418052e-38
-2.4905438 2.2935915 -0.60879117 2.3418052e-38
-2.4898283 2.3036008 -0.62657893 2.3418052e-38
-2.4868925 2.2903984 -0.67303872 2.3418052e-38
-2.4855924 2.2965105 -0.69947022 2.3418052e-38
-2.4853621 2.298986 -0.70483255 2.3418052e-38
-2.4837303 2.3064721 -0.73791015 2.3418052e-38
-2.4818263 2.3019397 -0.77000928 2.3418052e-38
-2.4810548 2.2990324 -0.78248978 2.3418052e-38
-2.4791012 2.2974582 -0.81693369 2.3418052e-38
-2.478363 2.297483 -0.83025032 2.3418052e-38
-2.4766366 2.3007131 -0.86295092 2.3418052e-38
-2.4736598 2.2863073 -0.909563 2.3418052e-38
-2.4728937 2.2868977 -0.92365783 2.3418052e-38
-2.4718456 2.2859087 -0.94206226 2.3418052e-38
-2.4692414 2.284142 -0.98814154 2.3418052e-38
-2.4658537 2.266942 -1.0407908 2.3418052e-38
-2.4647548 2.2689638 -1.061588 2.3418052e-38
-2.4638469 2.2625918 -1.0748317 2.3418052e-38
-2.4627838 2.2264588 -1.0763276 2.3418052e-38
-2.462527 2.2093661 -1.0725946 2.3418052e-38
-2.4621031 2.1941035 -1.0727711 2.3418052e-38
-2.4615901 2.1804955 -1.0753598 2.3418052e-38
-2.461318 2.1675336 -1.0739202 2.3418052e-38
-2.4610963 2.1517358 -1.0701848 2.3418052e-38
-2.4597828 2.1148553 -1.0758251 2.3418052e-38
-2.4591305 2.0836875 -1.0723386 2.3418052e-38
-2.4587362 2.0678835 -1.0717121 2.3418052e-38
-2.4585912 2.0501156 -1.0656328 2.3418052e-38
-2.4585035 2.0362659 -1.0604448 2.3418052e-38
-2.4585345 2.0244722 -1.0541089 2.3418052e-38
-2.4558334 1.9280227 -1.0556178 2.3418052e-38
-2.4542382 1.9004173 -1.0708759 2.3418052e-38
-2.4538898 1.8860508 -1.0701226 2.3418052e-38
-2.4536123 1.8700835 -1.0673152 2.3418052e-38
-2.4518633 1.8198812 -1.074279 2.3418052e-38
-2.4514732 1.8070629 -1.0750439 2.3418052e-38
-2.4511812 1.7905453 -1.0722219 2.3418052e-38
-2.4508348 1.776067 -1.071383 2.3418052e-38
-2.4506509 1.7582839 -1.0659971 2.3418052e-38
-2.4488585 1.7081455 -1.0737848 2.3418052e-38
-2.4485288 1.6904832 -1.0710814 2.3418052e-38
-2.448189 1.6767781 -1.0705054 2.3418052e-38
-2.4469032 1.6394426 -1.0754155 2.3418052e-38
-2.4464831 1.6223571 -1.0746391 2.3418052e-38
-2.446085 1.6098697 -1.0757014 2.3418052e-38
-2.4460175 1.592491 -1.0684141 2.3418052e-38
-2.4442244 1.5338672 -1.0720645 2.3418052e-38
-2.4440594 1.5218766 -1.0691775 2.3418052e-38
-2.4433365 1.4939047 -1.0685213 2.3418052e-38
-2.4430745 1.4762642 -1.0646176 2.3418052e-38
-2.4427445 1.4609418 -1.0630634 2.3418052e-38
-2.442039 1.4326218 -1.0619237 2.3418052e-38
-2.4404964 1.3981301 -1.0728582 2.3418052e-38
-2.4399352 1.3694069 -1.0689238 2.3418052e-38
-2.4395838 1.3550678 -1.0682497 2.3418052e-38
-2.4393125 1.3419235 -1.0667076 2.3418052e-38
-2.4389193 1.3250872 -1.0655551 2.3418052e-38
-2.4384954 1.3077438 -1.06472 2.3418052e-38
-2.437458 1.2657975 -1.0628949 2.3418052e-38
-2.436877 1.2295905 -1.0556543 2.3418052e-38
-2.4366171 1.2170097 -1.0541821 2.3418052e-38
-2.4353118 1.1828645 -1.061007 2.3418052e-38
-2.434489 1.1527659 -1.0611187 2.3418052e-38
-2.4341099 1.1390157 -1.0612235 2.3418052e-38
-2.4337142 1.1263466 -1.0621556 2.3418052e-38
-2.4322343 1.0951067 -1.0735557 2.3418052e-38
-2.4316337 1.0620128 -1.0681895 2.3418052e-38
-2.4299738 1.0099344 -1.0726345 2.3418052e-38
-2.4292586 0.98313057 -1.0724151 2.3418052e-38
-2.428941 0.96625549 -1.0698915 2.3418052e-38
-2.4287066 0.94948864 -1.0659078 2.3418052e-38
-2.4267011 0.88387632 -1.0699641 2.3418052e-38
-2.4260781 0.84921265 -1.0642375 2.3418052e-38
-2.4243326 0.80003083 -1.0716377 2.3418052e-38
-2.4236884 0.74510169 -1.0563797 2.3418052e-38
-2.4217503 0.69992125 -1.069216 2.3418052e-38
-2.4213881 0.68455744 -1.068226 2.3418052e-38
-2.4211164 0.66876519 -1.0653983 2.3418052e-38
-2.4210374 0.65916675 -1.0621314 2.3418052e-38
-2.4189529 0.58067071 -1.0613034 2.3418052e-38
-2.4186103 0.5673033 -1.0609388 2.3418052e-38
-2.4174492 0.53991014 -1.0684782 2.3418052e-38
-2.4172926 0.52797794 -1.0654548 2.3418052e-38
-2.4170084 0.51189232 -1.062712 2.3418052e-38
-2.4166429 0.49763015 -1.062325 2.3418052e-38
-2.4149251 0.4472613 -1.0686435 2.3418052e-38
-2.4144464 0.42683181 -1.0672777 2.3418052e-38
-2.414139 0.4167825 -1.0679138 2.3418052e-38
-2.4136384 0.38501218 -1.0613925 2.3418052e-38
-2.4119518 0.33904228 -1.0693028 2.3418052e-38
-2.4111681 0.30881092 -1.0686384 2.3418052e-38
-2.4107611 0.2917347 -1.0676235 2.3418052e-38
-2.4105322 0.27773279 -1.0648969 2.3418052e-38
-2.4093204 0.2406759 -1.0686156 2.3418052e-38
-2.4086971 0.22042292 -1.0699419 2.3418052e-38
-2.4083533 0.19641164 -1.0643958 2.3418052e-38
-2.4070015 0.15811607 -1.0700334 2.3418052e-38
-2.4066708 0.14303266 -1.0686077 2.3418052e-38
-2.4065168 0.1346534 -1.067287 2.3418052e-38
-2.4060283 0.10824573 -1.0631751 2.3418052e-38
-2.4047773 0.072036535 -1.0680088 2.3418052e-38
-2.4040108 0.047677681 -1.0699129 2.3418052e-38
-2.4036472 0.031939983 -1.0687643 2.3418052e-38
-2.4032693 0.014487602 -1.0670397 2.3418052e-38
-2.4024096 -0.017415598 -1.0669271 2.3418052e-38
-2.4018145 -0.041296199 -1.0659778 2.3418052e-38
-2.4007149 -0.082016751 -1.0658827 2.3418052e-38
-2.4004128 -0.098651648 -1.063183 2.3418052e-38
-2.4001064 -0.11572611 -1.0603569 2.3418052e-38
-2.3984766 -0.16806658 -1.0641285 2.3418052e-38
-2.3976417 -0.19464532 -1.0661787 2.3418052e-38
-2.3968847 -0.22340009 -1.0657511 2.3418052e-38
-2.3964872 -0.23692679 -1.0663037 2.3418052e-38
-2.3955967 -0.26958263 -1.0663794 2.3418052e-38
-2.3952677 -0.2826139 -1.0659374 2.3418052e-38
-2.3948035 -0.29601169 -1.067749 2.3418052e-38
-2.3939061 -0.33477363 -1.0649579 2.3418052e-38
-2.3935392 -0.34833127 -1.0649471 2.3418052e-38
-2.3924167 -0.39262494 -1.0635129 2.3418052e-38
-2.3923974 -0.40117177 -1.0596756 2.3418052e-38
-2.3922265 -0.42022389 -1.0534379 2.3418052e-38
-2.3905394 -0.5387212 -1.0258847 2.3418052e-38
-2.3892767 -0.55112231 -1.0425726 2.3418052e-38
-2.3880503 -0.56654787 -1.0571393 2.3418052e-38
-2.387578 -0.57361042 -1.0621907 2.3418052e-38
-2.3866713 -0.60122383 -1.0650344 2.3418052e-38
-2.3860731 -0.62614441 -1.0636201 2.3418052e-38
-2.3856153 -0.63855004 -1.0658046 2.3418052e-38
-2.3853436 -0.65968239 -1.0603676 2.3418052e-38
-2.384043 -0.70071244 -1.0637405 2.3418052e-38
-2.383378 -0.73507869 -1.0589097 2.3418052e-38
-2.3827176 -0.75898981 -1.0591202 2.3418052e-38
-2.3824368 -0.7758733 -1.0559205 2.3418052e-38
-2.3820498 -0.79059184 -1.0557015 2.3418052e-38
-2.3807127 -0.82581496 -1.0625718 2.3418052e-38
-2.3799913 -0.85373974 -1.0619164 2.3418052e-38
-2.3796334 -0.867805 -1.0614847 2.3418052e-38
-2.3784173 -0.90925276 -1.0631336 2.3418052e-38
-2.3781784 -0.92332268 -1.0605569 2.3418052e-38
-2.37779 -0.9406538 -1.0590767 2.3418052e-38
-2.3774192 -0.95422494 -1.0591278 2.3418052e-38
-2.3772125 -0.96995342 -1.0551506 2.3418052e-38
-2.375448 -1.0223596 -1.0613235 2.3418052e-38
-2.375071 -1.0357158 -1.0615845 2.3418052e-38
-2.3748283 -1.0503179 -1.0588177 2.3418052e-38
-2.374711 -1.0633169 -1.0545746 2.3418052e-38
-2.3741963 -1.0852522 -1.0531212 2.3418052e-38
-2.3738906 -1.1012411 -1.0508112 2.3418052e-38
-2.3735621 -1.1159042 -1.0495557 2.3418052e-38
-2.3732896 -1.1341301 -1.0455493 2.3418052e-38
-2.3730998 -1.1538497 -1.0393291 2.3418052e-38
-2.3728735 -1.1728888 -1.0340949 2.3418052e-38
-2.3698068 -1.2864063 -1.0338372 2.3418052e-38
-2.3688009 -1.299639 -1.0454974 2.3418052e-38
-2.367259 -1.3336475 -1.0566599 2.3418052e-38
-2.3668818 -1.3482955 -1.0562909 2.3418052e-38
-2.3667891 -1.3665178 -1.0490444 2.3418052e-38
-2.3658247 -1.4120749 -1.0441447 2.3418052e-38
-2.3654759 -1.4314805 -1.0409443 2.3418052e-38
-2.3651061 -1.4576089 -1.0348296 2.3418052e-38
-2.3636739 -1.498173 -1.0407977 2.3418052e-38
-2.3630064 -1.5142635 -1.0449551 2.3418052e-38
-2.3616543 -1.5449034 -1.0543424 2.3418052e-38
-2.361305 -1.5592793 -1.0536073 2.3418052e-38
-2.3609447 -1.5725052 -1.0536319 2.3418052e-38
-2.3604469 -1.5881526 -1.0549512 2.3418052e-38
-2.3602111 -1.6007105 -1.0530601 2.3418052e-38
-2.3590298 -1.6398048 -1.0552241 2.3418052e-38
-2.3585961 -1.654706 -1.055759 2.3418052e-38
-2.3580756 -1.6797652 -1.0528786 2.3418052e-38
-2.356586 -1.7207869 -1.0596652 2.3418052e-38
-2.3549085 -1.7865533 -1.0577235 2.3418052e-38
-2.3543925 -1.8032466 -1.0588573 2.3418052e-38
-2.3531516 -1.8463613 -1.0601418 2.3418052e-38
-2.3529418 -1.8655009 -1.054562 2.3418052e-38
-2.3526843 -1.8819091 -1.0511723 2.3418052e-38
-2.3510718 -1.9302442 -1.0565999 2.3418052e-38
-2.3504031 -1.9647173 -1.0517796 2.3418052e-38
-2.3487146 -2.0170689 -1.0566062 2.3418052e-38
-2.3480489 -2.0471182 -1.0539099 2.3418052e-38
-2.3478379 -2.0620461 -1.050406 2.3418052e-38
-2.3483152 -2.093025 -1.0266516 2.3418052e-38
-2.3499403 -2.1004829 -0.99371874 2.3418052e-38
-2.3507836 -2.0982533 -0.97959948 2.3418052e-38
-2.3525405 -2.1040962 -0.9450773 2.3418052e-38
-2.3534355 -2.2036545 -0.88024753 2.3418052e-38
-2.3518753 -2.2341955 -0.89342642 2.3418052e-38
-2.3517768 -2.2449532 -0.8899399 2.3418052e-38
-2.3513091 -2.2678454 -0.88717318 2.3418052e-38
-2.3532522 -2.3488386 -0.81253117 2.3418052e-38
-2.3582594 -2.3129444 -0.73983401 2.3418052e-38
-2.3589556 -2.3141541 -0.7266919 2.3418052e-38
-2.363862 -2.3049748 -0.6427502 2.3418052e-38
-2.3647156 -2.3088503 -0.6254651 2.3418052e-38
-2.3668256 -2.3186779 -0.5826214 2.3418052e-38
-2.3679135 -2.319304 -0.56270134 2.3418052e-38
-2.3686066 -2.3208632 -0.54945314 2.3418052e-38
-2.3694456 -2.3212078 -0.53415447 2.3418052e-38
-2.3710833 -2.3187361 -0.50585115 2.3418052e-38
-2.3718457 -2.3197668 -0.49159822 2.3418052e-38
-2.3729601 -2.3181524 -0.47230023 2.3418052e-38
-2.3737164 -2.3188264 -0.4583402 2.3418052e-38
-2.3746402 -2.3209763 -0.44064543 2.3418052e-38
-2.3753741 -2.3228879 -0.42647666 2.3418052e-38
-2.3765666 -2.3214488 -0.40568048 2.3418052e-38
-2.377265 -2.3227103 -0.392479 2.3418052e-38
-2.3780365 -2.3266282 -0.37665892 2.3418052e-38
-2.3788919 -2.3259981 -0.36155045 2.3418052e-38
-2.3798771 -2.323806 -0.34485829 2.3418052e-38
-2.3814869 -2.3223431 -0.31655431 2.3418052e-38
-2.3832016 -2.3299944 -0.28191215 2.3418052e-38
-2.3843777 -2.3310711 -0.26017857 2.3418052e-38
-2.3850672 -2.3321149 -0.24724658 2.3418052e-38
-2.3859761 -2.3327444 -0.23055212 2.3418052e-38
-2.3869469 -2.3305693 -0.21411769 2.3418052e-38
-2.3876634 -2.3314772 -0.2007623 2.3418052e-38
-2.3887017 -2.3349726 -0.18033665 2.3418052e-38
-2.390481 -2.3331175 -0.14916524 2.3418052e-38
-2.3912952 -2.3321867 -0.1349528 2.3418052e-38
-2.3921123 -2.3310876 -0.12075914 2.3418052e-38
-2.3931954 -2.3344703 -0.099583641 2.3418052e-38
-2.3939703 -2.3356194 -0.085049376 2.3418052e-38
-2.3948832 -2.338356 -0.06725613 2.3418052e-38
-2.3956637 -2.340239 -0.052266046 2.3418052e-38
-2.3984015 -2.3405061 -0.0027876496 2.3418052e-38
-2.3993948 -2.3429489 0.016311914 2.3418052e-38
-2.4018254 -2.3378656 0.057637036 2.3418052e-38
-2.4029541 -2.3448448 0.081391275 2.3418052e-38
-2.4037025 -2.3452435 0.095079035 2.3418052e-38
-2.4060581 -2.3388777 0.13443099 2.3418052e-38
-2.4077122 -2.3389876 0.16429423 2.3418052e-38
-2.4101698 -2.3469787 0.21250248 2.3418052e-38
-2.4118049 -2.3433757 0.24021722 2.3418052e-38
-2.4128571 -2.3408518 0.2579388 2.3418052e-38
-2.4153891 -2.3864043 0.32586235 2.3418052e-38
-2.4169879 -2.3929467 0.35788354 2.3418052e-38
-2.4177387 -2.3931201 0.37150919 2.3418052e-38
-2.4184868 -2.3959897 0.38639155 2.3418052e-38
-2.4233744 -2.3452487 0.44966802 2.3418052e-38
-2.4242296 -2.3449435 0.46493876 2.3418052e-38
-2.4258485 -2.3577945 0.50040245 2.3418052e-38
-2.4291379 -2.3627307 0.56210732 2.3418052e-38
-2.4303627 -2.3631639 0.58439851 2.3418052e-38
-2.4319265 -2.3613775 0.61170995 2.3418052e-38
-2.4344714 -2.3636682 0.65870118 2.3418052e-38
-2.4352763 -2.3668947 0.67479235 2.3418052e-38
-2.4361758 -2.3664467 0.69077861 2.3418052e-38
-2.4398351 -2.364393 0.75573945 2.3418052e-38
-2.4405477 -2.3668056 0.76976478 2.3418052e-38
-2.4422064 -2.3701937 0.80131209 2.3418052e-38
-2.4429216 -2.3695276 0.81388754 2.3418052e-38
-2.4441614 -2.3692544 0.83609903 2.3418052e-38
-2.4448624 -2.3689456 0.84857678 2.3418052e-38
-2.446305 -2.3655415 0.8729226 2.3418052e-38
-2.4473181 -2.3692946 0.89302236 2.3418052e-38
-2.448262 -2.3695869 0.91017681 2.3418052e-38
-2.4490521 -2.3714166 0.92530906 2.3418052e-38
-2.4499848 -2.3755105 0.94412601 2.3418052e-38
-2.4519277 -2.3750269 0.97891158 2.3418052e-38
-2.454047 -2.4152555 1.0367862 2.3418052e-38
-2.4549191 -2.4216576 1.0556444 2.3418052e-38
-2.4557769 -2.4393339 1.0797499 2.3418052e-38
-2.4567091 -2.4369812 1.0953994 2.3418052e-38
-2.4585726 -2.4192901 1.1203417 2.3418052e-38
-2.4623353 -2.3855221 1.171645 2.3418052e-38
-2.4628603 -2.38375 1.1802372 2.3418052e-38
-2.4637609 -2.382112 1.1956646 2.3418052e-38
-2.4650209 -2.3864846 1.2205157 2.3418052e-38
-2.4679177 -2.4211085 1.289674 2.3418052e-38
-2.4680769 -2.4262397 1.2950555 2.3418052e-38
-2.4685209 -2.4294534 1.3046242 2.3418052e-38
-2.4687288 -2.4316573 1.309454 2.3418052e-38
-2.4695055 -2.4426467 1.3288268 2.3418052e-38
-2.4702721 -2.4504635 1.3464674 2.3418052e-38
-2.4707868 -2.4568644 1.3588755 2.3418052e-38
-2.4717643 -2.4637277 1.3798614 2.3418052e-38
-2.47363 -2.4621503 1.4127123 2.3418052e-38
-2.4744394 -2.4598782 1.4261844 2.3418052e-38
-2.4760463 -2.4311593 1.4410992 2.3418052e-38
-2.477236 -2.3908186 1.4428196 2.3418052e-38
-2.4783072 -2.3511405 1.4427191 2.3418052e-38
-2.4798279 -2.3051379 1.4476205 2.3418052e-38
-2.4800427 -2.2992394 1.4486134 2.3418052e-38
-2.480247 -2.290313 1.4479231 2.3418052e-38
-2.4804468 -2.2812343 1.447083 2.3418052e-38
-2.4763939 -2.2223287 1.3452148 2.3418052e-38
-2.4766116 -2.2017708 1.3390874 2.3418052e-38
-2.4771807 -2.1695759 1.3335927 2.3418052e-38
-2.4778872 -2.1382101 1.3309853 2.3418052e-38
-2.479588 -2.0903223 1.3382099 2.3418052e-38
-2.4807034 -2.0561931 1.3416301 2.3418052e-38
-2.4813764 -2.0428879 1.3472459 2.3418052e-38
-2.4826756 -2.0050313 1.3521477 2.3418052e-38
-2.4836304 -1.9746526 1.354503 2.3418052e-38
-2.4843445 -1.9419898 1.351386 2.3418052e-38
-2.4853413 -1.9093311 1.3533889 2.3418052e-38
-2.4873488 -1.8539917 1.3625015 2.3418052e-38
-2.488939 -1.8104541 1.3698705 2.3418052e-38
-2.4903765 -1.7771562 1.3794897 2.3418052e-38
-2.4906895 -1.7658231 1.3795892 2.3418052e-38
-2.4903834 -1.7301495 1.3566175 2.3418052e-38
-2.490953 -1.6978157 1.3510721 2.3418052e-38
-2.4914072 -1.6820382 1.3515407 2.3418052e-38
-2.4926572 -1.6493373 1.3580734 2.3418052e-38
-2.4982245 -1.5533329 1.4114635 2.3418052e-38
-2.4992955 -1.5410513 1.4247577 2.3418052e-38
-2.5013237 -1.5081128 1.445201 2.3418052e-38
-2.501838 -1.4901795 1.4457037 2.3418052e-38
-2.502053 -1.4702762 1.4398416 2.3418052e-38
-2.5028238 -1.4374425 1.4376717 2.3418052e-38
-2.5031383 -1.4242882 1.4369071 2.3418052e-38
-2.5033109 -1.4050275 1.4306 2.3418052e-38
-2.5027063 -1.3898264 1.4122622 2.3418052e-38
-2.5027561 -1.3392318 1.3884044 2.3418052e-38
-2.5054569 -1.2842945 1.4102218 2.3418052e-38
-2.5065053 -1.2734721 1.4238186 2.3418052e-38
-2.5080652 -1.2468027 1.4388926 2.3418052e-38
-2.5085821 -1.2173274 1.4337916 2.3418052e-38
-2.5101204 -1.1790197 1.4427829 2.3418052e-38
-2.5108552 -1.1397942 1.4368387 2.3418052e-38
-2.5120068 -1.1104822 1.4432576 2.3418052e-38
-2.5122905 -1.0930848 1.4398608 2.3418052e-38
-2.5126107 -1.0810921 1.4397736 2.3418052e-38
-2.5130103 -1.0667663 1.4399635 2.3418052e-38
-2.5156829 -0.96740538 1.4395339 2.3418052e-38
-2.516654 -0.94610775 1.4466106 2.3418052e-38
-2.5170851 -0.920708 1.4419641 2.3418052e-38
-2.5175953 -0.90051854 1.4412897 2.3418052e-38
-2.5185771 -0.87597358 1.4469717 2.3418052e-38
-2.5182724 -0.86783993 1.4375018 2.3418052e-38
-2.5166421 -0.82367694 1.3865077 2.3418052e-38
-2.5169377 -0.80263364 1.3815457 2.3418052e-38
-2.5175045 -0.771505 1.3765308 2.3418052e-38
-2.5180216 -0.75664598 1.378588 2.3418052e-38
-2.5218887 -0.67325068 1.407499 2.3418052e-38
-2.5233018 -0.64115357 1.4172627 2.3418052e-38
-2.5260634 -0.55832988 1.4265277 2.3418052e-38
-2.5268257 -0.54441345 1.4334625 2.3418052e-38
-2.5281239 -0.51029032 1.4401735 2.3418052e-38
-2.5296559 -0.43722573 1.4320434 2.3418052e-38
-2.5307202 -0.41105017 1.4384246 2.3418052e-38
-2.5312343 -0.39728692 1.440956 2.3418052e-38
-2.5322187 -0.3516939 1.4364027 2.3418052e-38
-2.5325098 -0.33559325 1.4337741 2.3418052e-38
-2.5330272 -0.29980937 1.4255927 2.3418052e-38
-2.5335197 -0.28573251 1.4275881 2.3418052e-38
-2.5336733 -0.27029249 1.4227984 2.3418052e-38
-2.5343089 -0.23515001 1.4170635 2.3418052e-38
-2.5340571 -0.22936288 1.4096996 2.3418052e-38
-2.5344939 -0.16643469 1.3867805 2.3418052e-38
-2.5363882 -0.081535578 1.379397 2.3418052e-38
-2.5374379 -0.010795973 1.3637208 2.3418052e-38
-2.5379682 0.021368168 1.3575445 2.3418052e-38
-2.5380609 0.028071687 1.3559315 2.3418052e-38
-2.5374134 0.05119133 1.3329527 2.3418052e-38
-2.5373945 0.075423665 1.3207642 2.3418052e-38
-2.5408499 0.15586899 1.3436912 2.3418052e-38
-2.5413864 0.16568521 1.348559 2.3418052e-38
-2.5416884 0.18509814 1.3445091 2.3418052e-38
-2.5422485 0.20520848 1.3447694 2.3418052e-38
-2.5429218 0.24989724 1.3350443 2.3418052e-38
-2.5439301 0.28262475 1.3372033 2.3418052e-38
-2.5444896 0.29701442 1.3402498 2.3418052e-38
-2.5452404 0.32977855 1.337754 2.3418052e-38
-2.5458531 0.36216712 1.3329538 2.3418052e-38
-2.5468495 0.39588895 1.3344249 2.3418052e-38
-2.5472262 0.41673023 1.3310207 2.3418052e-38
-2.5475142 0.4280723 1.3306655 2.3418052e-38
-2.5489166 0.46248487 1.339105 2.3418052e-38
-2.5496404 0.47676823 1.3451641 2.3418052e-38
-2.5500796 0.50868535 1.3374723 2.3418052e-38
-2.5505035 0.52842927 1.3354524 2.3418052e-38
-2.551904 0.57513118 1.3378485 2.3418052e-38
-2.5527296 0.58946967 1.3457221 2.3418052e-38
-2.5536709 0.62208474 1.3467221 2.3418052e-38
-2.555512 0.66842109 1.3572503 2.3418052e-38
-2.5561497 0.70369923 1.3514917 2.3418052e-38
-2.5569606 0.75255281 1.3422095 2.3418052e-38
-2.5572665 0.7665714 1.3408654 2.3418052e-38
-2.5573986 0.78528988 1.3340836 2.3418052e-38
-2.5575721 0.83751237 1.3116709 2.3418052e-38
-2.5592961 0.8825841 1.320693 2.3418052e-38
-2.5611672 0.92960918 1.3314171 2.3418052e-38
-2.5620108 0.96478963 1.3294137 2.3418052e-38
-2.5614116 1.0011977 1.3008094 2.3418052e-38
-2.5645647 1.1316843 1.293804 2.3418052e-38
-2.5658293 1.1458033 1.3096955 2.3418052e-38
-2.5667062 1.155381 1.3208109 2.3418052e-38
-2.5676029 1.1764659 1.3266684 2.3418052e-38
-2.568254 1.2089585 1.3225095 2.3418052e-38
-2.5689061 1.2290608 1.3244268 2.3418052e-38
-2.5693347 1.2432255 1.3252298 2.3418052e-38
-2.5701447 1.2755451 1.3240106 2.3418052e-38
-2.5713146 1.308856 1.3288131 2.3418052e-38
-2.5717366 1.3242931 1.3288648 2.3418052e-38
-2.572217 1.3548347 1.3225834 2.3418052e-38
-2.5728602 1.3867443 1.3185651 2.3418052e-38
-2.5734589 1.4074491 1.3192258 2.3418052e-38
-2.5739763 1.4209876 1.321928 2.3418052e-38
-2.5752037 1.4550494 1.3273953 2.3418052e-38
-2.576055 1.471036 1.3349216 2.3418052e-38
-2.5825558 1.449982 1.4624004 2.3418052e-38
-2.5822494 1.4340743 1.4646508 2.3418052e-38
-2.582262 1.406321 1.4784577 2.3418052e-38
-2.5818307 1.3799704 1.4835798 2.3418052e-38
-2.5816674 1.3739814 1.4835633 2.3418052e-38
-2.5824115 1.3897399 1.4892691 2.3418052e-38
-2.5828748 1.401256 1.4919752 2.3418052e-38
-2.583113 1.4127928 1.4906305 2.3418052e-38
-2.5834122 1.4708955 1.4676057 2.3418052e-38
-2.584131 1.4891886 1.471608 2.3418052e-38
-2.5845063 1.5102776 1.468053 2.3418052e-38
-2.585196 1.5363151 1.467759 2.3418052e-38
-2.5856864 1.5506592 1.4695767 2.3418052e-38
-2.5865562 1.5913463 1.465355 2.3418052e-38
-2.5866756 1.5962086 1.4651301 2.3418052e-38
-2.5869913 1.6079047 1.4650996 2.3418052e-38
-2.5873826 1.6199235 1.4662682 2.3418052e-38
-2.5877788 1.6365707 1.4652658 2.3418052e-38
-2.5889292 1.6702297 1.4695402 2.3418052e-38
-2.5893047 1.6833864 1.4698697 2.3418052e-38
-2.5896974 1.6965908 1.4704922 2.3418052e-38
-2.5901754 1.7221633 1.4665972 2.3418052e-38
-2.5904119 1.7343804 1.464884 2.3418052e-38
-2.5908198 1.7546394 1.4623314 2.3418052e-38
-2.5911791 1.7677516 1.4623865 2.3418052e-38
-2.591315 1.7745708 1.4614992 2.3418052e-38
-2.591624 1.7875482 1.4607251 2.3418052e-38
-2.5917208 1.7944882 1.4590755 2.3418052e-38
-2.5918074 1.8001833 1.4578477 2.3418052e-38
-2.5930574 1.848331 1.4568278 2.3418052e-38
-2.5934212 1.8603294 1.457515 2.3418052e-38
-2.5944226 1.8949425 1.4586284 2.3418052e-38
-2.5953853 1.9329954 1.4573767 2.3418052e-38
-2.5964136 1.9663192 1.4596065 2.3418052e-38
-2.5966597 1.9734899 1.4605325 2.3418052e-38
-2.5969322 1.9806281 1.4619546 2.3418052e-38
-2.5980613 2.008225 1.4688075 2.3418052e-38
-2.5984087 2.0396378 1.4597025 2.3418052e-38
-2.5990274 2.0655932 1.4581598 2.3418052e-38
-2.5992692 2.0726416 1.4590718 2.3418052e-38
-2.5993142 2.0785086 1.4570066 2.3418052e-38
-2.6001508 2.1179569 1.4527931 2.3418052e-38
-2.6010647 2.1447132 1.4561744 2.3418052e-38
-2.6010678 2.1633096 1.4471362 2.3418052e-38
-2.6020012 2.2030203 1.4445369 2.3418052e-38
-2.60237 2.2161593 1.4447578 2.3418052e-38
-2.6030087 2.2372608 1.4459456 2.3418052e-38
-2.6031811 2.2490873 1.4432679 2.3418052e-38
-2.6040344 2.2877133 1.4397516 2.3418052e-38
-2.6046154 2.3022954 1.4430922 2.3418052e-38
-2.6053944 2.3218775 1.4475609 2.3418052e-38
-2.6057653 2.3321435 1.4492228 2.3418052e-38
-2.6058557 2.3424702 1.4458029 2.3418052e-38
-2.4004185 -1.0525198 -0.59647626 2.3433177e-38
-2.4004905 -1.0126724 -0.61467326 2.3433177e-38
-2.403481 -0.94084585 -0.59590793 2.3433177e-38
-2.4045775 -0.91850901 -0.5870682 2.3433177e-38
-2.4071352 -0.84789729 -0.57550323 2.3433177e-38
-2.4078126 -0.81671023 -0.57854509 2.3433177e-38
-2.4088347 -0.78527009 -0.57550496 2.3433177e-38
-2.4093609 -0.76417112 -0.57634181 2.3433177e-38
-2.4094026 -0.74609125 -0.58443296 2.3433177e-38
-2.411015 -0.68908215 -0.58325964 2.3433177e-38
-2.4117575 -0.66117442 -0.583534 2.3433177e-38
-2.4127336 -0.60911036 -0.59140265 2.3433177e-38
-2.4128766 -0.5920732 -0.59715623 2.3433177e-38
-2.413203 -0.57694167 -0.59868181 2.3433177e-38
-2.4146097 -0.5368818 -0.59291941 2.3433177e-38
-2.4155054 -0.4991571 -0.5952307 2.3433177e-38
-2.4165854 -0.4702197 -0.58991468 2.3433177e-38
-2.4170344 -0.46070275 -0.58647776 2.3433177e-38
-2.418112 -0.42098647 -0.58647925 2.3433177e-38
-2.4186835 -0.40637764 -0.58332026 2.3433177e-38
-2.4190464 -0.37623546 -0.5915243 2.3433177e-38
-2.4196467 -0.34933716 -0.59386426 2.3433177e-38
-2.4205227 -0.32138848 -0.5917533 2.3433177e-38
-2.421037 -0.30331525 -0.59132302 2.3433177e-38
-2.4212456 -0.29665971 -0.59081644 2.3433177e-38
-2.4224069 -0.25061667 -0.59240431 2.3433177e-38
-2.422796 -0.23100285 -0.59498465 2.3433177e-38
-2.4231772 -0.21764876 -0.59464753 2.3433177e-38
-2.424355 -0.18315499 -0.59028661 2.3433177e-38
-2.4250934 -0.16660137 -0.58507377 2.3433177e-38
-2.4253736 -0.1530924 -0.58663309 2.3433177e-38
-2.4255772 -0.14594504 -0.58645988 2.3433177e-38
-2.4267681 -0.10374057 -0.58564258 2.3433177e-38
-2.4274576 -0.083319321 -0.58320153 2.3433177e-38
-2.4280317 -0.061835188 -0.58336383 2.3433177e-38
-2.4284799 -0.048764672 -0.58167678 2.3433177e-38
-2.4287379 -0.033104923 -0.58468473 2.3433177e-38
-2.4299624 0.009521693 -0.5834673 2.3433177e-38
-2.4311793 0.050157242 -0.5814141 2.3433177e-38
-2.431879 0.07017982 -0.5785898 2.3433177e-38
-2.4327414 0.096796453 -0.57606709 2.3433177e-38
-2.4331288 0.11965716 -0.58026963 2.3433177e-38
-2.4333472 0.13536781 -0.58401358 2.3433177e-38
-2.4333305 0.14419241 -0.58863533 2.3433177e-38
-2.4334965 0.19122615 -0.60865319 2.3433177e-38
-2.4343274 0.22402298 -0.60972029 2.3433177e-38
-2.4347904 0.23744357 -0.60794336 2.3433177e-38
-2.4368336 0.28523439 -0.59448528 2.3433177e-38
-2.4381807 0.31966218 -0.58705139 2.3433177e-38
-2.4383767 0.32793504 -0.58756155 2.3433177e-38
-2.4385517 0.35196432 -0.59615517 2.3433177e-38
-2.4386287 0.35874271 -0.59808677 2.3433177e-38
-2.4391766 0.40295681 -0.60983539 2.3433177e-38
-2.4402964 0.43183291 -0.60378146 2.3433177e-38
-2.4408185 0.45028999 -0.60340059 2.3433177e-38
-2.4409771 0.46337816 -0.60693848 2.3433177e-38
-2.4417892 0.49582037 -0.60817581 2.3433177e-38
-2.4424083 0.51605272 -0.60691005 2.3433177e-38
-2.4432373 0.55545354 -0.61124188 2.3433177e-38
-2.4437647 0.58074665 -0.61410999 2.3433177e-38
-2.4449003 0.6256001 -0.61557853 2.3433177e-38
-2.4455416 0.65962946 -0.62066692 2.3433177e-38
-2.4465837 0.69943368 -0.62135422 2.3433177e-38
-2.4470012 0.71262944 -0.6202842 2.3433177e-38
-2.4474709 0.72519255 -0.61795962 2.3433177e-38
-2.4476514 0.7453568 -0.62457514 2.3433177e-38
-2.4478126 0.75512588 -0.62645042 2.3433177e-38
-2.4488432 0.79148197 -0.62565064 2.3433177e-38
-2.449261 0.80478233 -0.62462169 2.3433177e-38
-2.4501889 0.84440529 -0.62729347 2.3433177e-38
-2.4506831 0.85679793 -0.62444365 2.3433177e-38
-2.4519866 0.8922143 -0.61826992 2.3433177e-38
-2.4527471 0.92411423 -0.62016726 2.3433177e-38
-2.4530902 0.93682969 -0.62020063 2.3433177e-38
-2.4536238 0.95166159 -0.61784172 2.3433177e-38
-2.4541178 0.97797954 -0.62181073 2.3433177e-38
-2.4542923 0.98420298 -0.62170929 2.3433177e-38
-2.4543047 0.99062848 -0.624623 2.3433177e-38
-2.4543762 1.002997 -0.62938774 2.3433177e-38
-2.4547632 1.0370383 -0.63906527 2.3433177e-38
-2.4599762 1.1249503 -0.58810812 2.3433177e-38
-2.4615133 1.1264944 -0.56115389 2.3433177e-38
-2.462213 1.1250141 -0.54781538 2.3433177e-38
-2.4625671 1.1261419 -0.54197872 2.3433177e-38
-2.4633455 1.1272455 -0.52849424 2.3433177e-38
-2.4640863 1.127035 -0.51503879 2.3433177e-38
-2.465656 1.1302074 -0.4883045 2.3433177e-38
-2.4659033 1.1301767 -0.48382634 2.3433177e-38
-2.4670842 1.1313492 -0.46311682 2.3433177e-38
-2.4677901 1.1324645 -0.4509384 2.3433177e-38
-2.468724 1.1365157 -0.43608221 2.3433177e-38
-2.4701946 1.1355963 -0.40912431 2.3433177e-38
-2.4704766 1.1344645 -0.40348464 2.3433177e-38
-2.4712029 1.1329194 -0.38964522 2.3433177e-38
-2.4723256 1.1304392 -0.36819145 2.3433177e-38
-2.4729214 1.1281224 -0.35632116 2.3433177e-38
-2.4739358 1.1270796 -0.33752632 2.3433177e-38
-2.4755008 1.1294631 -0.31047887 2.3433177e-38
-2.4764221 1.1269385 -0.29263678 2.3433177e-38
-2.4775496 1.1284195 -0.2730462 2.3433177e-38
-2.47838 1.1313748 -0.25952065 2.3433177e-38
-2.4791975 1.1337496 -0.24594739 2.3433177e-38
-2.4801714 1.1399726 -0.23143341 2.3433177e-38
-2.4812913 1.143837 -0.21314108 2.3433177e-38
-2.4820828 1.1452124 -0.19954532 2.3433177e-38
-2.4839356 1.1469004 -0.16697001 2.3433177e-38
-2.4853673 1.1446154 -0.1400477 2.3433177e-38
-2.4857144 1.1457478 -0.13435248 2.3433177e-38
-2.4865334 1.1480875 -0.12072598 2.3433177e-38
-2.4885063 1.1527193 -0.08743158 2.3433177e-38
-2.489445 1.1604489 -0.074294113 2.3433177e-38
-2.4903233 1.1652672 -0.060816273 2.3433177e-38
-2.4939895 1.1666242 0.004598096 2.3433177e-38
-2.4956279 1.1604768 0.037133634 2.3433177e-38
-2.4964831 1.1671133 0.049306408 2.3433177e-38
-2.4971309 1.1750852 0.057080626 2.3433177e-38
-2.5027797 1.2171792 0.13831086 2.3433177e-38
-2.5042691 1.2203727 0.16359259 2.3433177e-38
-2.5047207 1.2292912 0.16737637 2.3433177e-38
-2.5056729 1.25234 0.17325981 2.3433177e-38
-2.5060265 1.2673355 0.17230017 2.3433177e-38
-2.5059342 1.2708347 0.16893135 2.3433177e-38
-2.5035834 1.2622688 0.13074568 2.3433177e-38
-2.503166 1.2553542 0.12659287 2.3433177e-38
-2.4965363 1.2181432 0.025305703 2.3433177e-38
-2.4956658 1.2185092 0.0094313025 2.3433177e-38
-2.4934454 1.233197 -0.037773743 2.3433177e-38
-2.493304 1.2882251 -0.067239016 2.3433177e-38
-2.4936907 1.3025253 -0.067262426 2.3433177e-38
-2.4943485 1.3522986 -0.079757206 2.3433177e-38
-2.4956455 1.3921835 -0.075885653 2.3433177e-38
-2.4965484 1.4179118 -0.072199777 2.3433177e-38
-2.4974577 1.440924 -0.067064069 2.3433177e-38
-2.497824 1.4621602 -0.070851177 2.3433177e-38
-2.4984806 1.4874848 -0.071408957 2.3433177e-38
-2.4995008 1.5316441 -0.074620903 2.3433177e-38
-2.5000091 1.5465573 -0.072754085 2.3433177e-38
-2.5010967 1.6125998 -0.085450247 2.3433177e-38
-2.5033097 1.6682947 -0.072806567 2.3433177e-38
-2.5071976 1.7063926 -0.021361426 2.3433177e-38
-2.5111017 1.6403357 0.081322536 2.3433177e-38
-2.5110569 1.6282525 0.086421221 2.3433177e-38
-2.5111053 1.6181082 0.092254594 2.3433177e-38
-2.5141587 1.6575195 0.12801383 2.3433177e-38
-2.5158076 1.6782891 0.14757407 2.3433177e-38
-2.5178955 1.6973647 0.17588124 2.3433177e-38
-2.5224743 1.7390122 0.23804292 2.3433177e-38
-2.5248554 1.7396526 0.28064838 2.3433177e-38
-2.5268259 1.6893812 0.34075266 2.3433177e-38
-2.5278914 1.6340913 0.38701451 2.3433177e-38
-2.5277007 1.6136369 0.39358035 2.3433177e-38
-2.5307372 1.6063027 0.45189694 2.3433177e-38
-2.5309818 1.6016421 0.45858732 2.3433177e-38
-2.5330999 1.6098636 0.49274495 2.3433177e-38
-2.5368001 1.5542227 0.586658 2.3433177e-38
-2.5360191 1.5133996 0.59255254 2.3433177e-38
-2.5342817 1.4642575 0.58527315 2.3433177e-38
-2.5338683 1.454583 0.58255059 2.3433177e-38
-2.5334537 1.4402498 0.58209568 2.3433177e-38
-2.5330684 1.4274776 0.58139819 2.3433177e-38
-2.5327327 1.3850186 0.59612048 2.3433177e-38
-2.5317719 1.3496454 0.59610462 2.3433177e-38
-2.5313938 1.3193858 0.60409129 2.3433177e-38
-2.526206 1.2465055 0.54622257 2.3433177e-38
-2.5235815 1.230167 0.50690746 2.3433177e-38
-2.5213149 1.2430092 0.45977339 2.3433177e-38
-2.5184412 1.2465367 0.40625325 2.3433177e-38
-2.5169711 1.2425281 0.38170844 2.3433177e-38
-2.5158279 1.2280493 0.36818984 2.3433177e-38
-2.514555 1.2158048 0.35122845 2.3433177e-38
-2.5141051 1.1994094 0.35115027 2.3433177e-38
-2.5144088 1.1966453 0.35797426 2.3433177e-38
-2.5159235 1.1837335 0.39159092 2.3433177e-38
-2.5165997 1.1814308 0.4049041 2.3433177e-38
-2.5184736 1.1836562 0.43759415 2.3433177e-38
-2.5210044 1.1737553 0.48805952 2.3433177e-38
-2.5224657 1.1707052 0.51588339 2.3433177e-38
-2.523087 1.1668789 0.52895975 2.3433177e-38
-2.5240579 1.163474 0.54811776 2.3433177e-38
-2.526011 1.1059232 0.61148119 2.3433177e-38
-2.5256774 1.0909424 0.61279923 2.3433177e-38
-2.5239508 1.0399839 0.60659689 2.3433177e-38
-2.5234623 1.0270376 0.60412592 2.3433177e-38
-2.5218842 0.97649133 0.60041046 2.3433177e-38
-2.5201309 0.9240427 0.59446383 2.3433177e-38
-2.5194156 0.89883256 0.5939014 2.3433177e-38
-2.5184307 0.87804103 0.58632481 2.3433177e-38
-2.5186355 0.84788275 0.60475832 2.3433177e-38
-2.5182662 0.82670093 0.60846245 2.3433177e-38
-2.5161598 0.77922869 0.59372377 2.3433177e-38
-2.5148623 0.73124051 0.59380829 2.3433177e-38
-2.5131035 0.68255901 0.58592057 2.3433177e-38
-2.5107245 0.60220373 0.58235002 2.3433177e-38
-2.5100913 0.59130776 0.57626343 2.3433177e-38
-2.5098701 0.53036487 0.60208869 2.3433177e-38
-2.5095937 0.52205074 0.6011734 2.3433177e-38
-2.5089912 0.48968992 0.60614264 2.3433177e-38
-2.5083361 0.47215733 0.60291064 2.3433177e-38
-2.5078108 0.45632836 0.6011858 2.3433177e-38
-2.5075071 0.44387278 0.601798 2.3433177e-38
-2.5072014 0.42963734 0.60325706 2.3433177e-38
-2.5059326 0.38971007 0.59991765 2.3433177e-38
-2.5034692 0.32751665 0.58593583 2.3433177e-38
-2.5028591 0.31974402 0.57875055 2.3433177e-38
-2.5024655 0.29477394 0.58385617 2.3433177e-38
-2.502059 0.28069881 0.58342254 2.3433177e-38
-2.5008824 0.21124333 0.59618866 2.3433177e-38
-2.5005188 0.20170677 0.5942955 2.3433177e-38
-2.5004792 0.19359538 0.59755111 2.3433177e-38
-2.5003922 0.1773209 0.60394871 2.3433177e-38
-2.5001075 0.16233099 0.6061492 2.3433177e-38
-2.4997473 0.14624375 0.60751885 2.3433177e-38
-2.4993572 0.13065782 0.60811162 2.3433177e-38
-2.4989755 0.11236946 0.61017925 2.3433177e-38
-2.4983382 0.079914108 0.61456865 2.3433177e-38
-2.4974358 0.053198174 0.61137629 2.3433177e-38
-2.4962797 0.020823218 0.6063745 2.3433177e-38
-2.4959648 0.010726139 0.60563397 2.3433177e-38
-2.4957078 -0.0008162111 0.60665131 2.3433177e-38
-2.4949591 -0.027114667 0.60601938 2.3433177e-38
-2.4947464 -0.034206383 0.60565531 2.3433177e-38
-2.4937534 -0.078293145 0.60931903 2.3433177e-38
-2.4934285 -0.092974499 0.61065155 2.3433177e-38
-2.4932234 -0.099740498 0.61026156 2.3433177e-38
-2.4918749 -0.14568438 0.60842955 2.3433177e-38
-2.4912186 -0.18064731 0.61369389 2.3433177e-38
-2.4908273 -0.19135603 0.611884 2.3433177e-38
-2.4903564 -0.20380415 0.6094833 2.3433177e-38
-2.4900377 -0.21238422 0.60793948 2.3433177e-38
-2.4899266 -0.21868941 0.6090219 2.3433177e-38
-2.489619 -0.23274639 0.61035115 2.3433177e-38
-2.4889824 -0.25717211 0.6108284 2.3433177e-38
-2.4885926 -0.27096564 0.61054218 2.3433177e-38
-2.4873226 -0.30992085 0.60671163 2.3433177e-38
-2.4860001 -0.35023046 0.60259259 2.3433177e-38
-2.4855449 -0.35994643 0.59913582 2.3433177e-38
-2.4836893 -0.40724328 0.58882552 2.3433177e-38
-2.4833584 -0.41942036 0.58882308 2.3433177e-38
-2.4831254 -0.43364173 0.59158355 2.3433177e-38
-2.4824424 -0.47311401 0.59857404 2.3433177e-38
-2.4819362 -0.51691228 0.61087501 2.3433177e-38
-2.4809003 -0.55269933 0.60971564 2.3433177e-38
-2.480417 -0.56432378 0.60668743 2.3433177e-38
-2.4794817 -0.58502042 0.59994972 2.3433177e-38
-2.4790385 -0.63555229 0.61667758 2.3433177e-38
-2.4757161 -0.69653618 0.58662003 2.3433177e-38
-2.4754515 -0.70778799 0.58735955 2.3433177e-38
-2.4754438 -0.71902323 0.59271789 2.3433177e-38
-2.4743099 -0.78273046 0.60344362 2.3433177e-38
-2.4738929 -0.79781616 0.60330617 2.3433177e-38
-2.4735644 -0.8121984 0.60441899 2.3433177e-38
-2.4733739 -0.82739496 0.60841835 2.3433177e-38
-2.4714692 -0.87601626 0.59786975 2.3433177e-38
-2.4708507 -0.9087559 0.60274512 2.3433177e-38
-2.4690807 -0.95119691 0.59159636 2.3433177e-38
-2.4689682 -0.96938777 0.59846365 2.3433177e-38
-2.4688878 -0.97425151 0.59940094 2.3433177e-38
-2.4678972 -1.0195224 0.60368526 2.3433177e-38
-2.4674451 -1.031734 0.60151267 2.3433177e-38
-2.4670291 -1.0469913 0.60146952 2.3433177e-38
-2.466728 -1.0555068 0.60021812 2.3433177e-38
-2.4661827 -1.0747416 0.59979647 2.3433177e-38
-2.4658699 -1.0882608 0.60076332 2.3433177e-38
-2.4644363 -1.1232381 0.59204292 2.3433177e-38
-2.4627161 -1.1707258 0.58426023 2.3433177e-38
-2.4622126 -1.2015207 0.59025002 2.3433177e-38
-2.4621289 -1.2087258 0.59226036 2.3433177e-38
-2.4600191 -1.266601 0.58254421 2.3433177e-38
-2.4596288 -1.2794992 0.58181715 2.3433177e-38
-2.4589334 -1.303898 0.58122098 2.3433177e-38
-2.4579427 -1.3504815 0.58615136 2.3433177e-38
-2.4573405 -1.38257 0.59099025 2.3433177e-38
-2.4568496 -1.4010735 0.59119654 2.3433177e-38
-2.4564664 -1.4140077 0.59062266 2.3433177e-38
-2.4549916 -1.4446313 0.57901824 2.3433177e-38
-2.4542358 -1.4565247 0.57120186 2.3433177e-38
-2.4539568 -1.4650565 0.57035327 2.3433177e-38
-2.4536507 -1.4896891 0.57688522 2.3433177e-38
-2.4536693 -1.5013447 0.58292639 2.3433177e-38
-2.4542341 -1.5186874 0.60158765 2.3433177e-38
-2.4550614 -1.5232103 0.61871564 2.3433177e-38
-2.4558847 -1.5341816 0.63891107 2.3433177e-38
-2.4575951 -1.5377506 0.67149556 2.3433177e-38
-2.4577422 -1.623721 0.71619505 2.3433177e-38
-2.4522123 -1.6875991 0.64777476 2.3433177e-38
-2.4491959 -1.6861382 0.59268749 2.3433177e-38
-2.4487047 -1.6852134 0.58337712 2.3433177e-38
-2.4463325 -1.6938542 0.5448432 2.3433177e-38
-2.4456663 -1.6919039 0.53188419 2.3433177e-38
-2.4450455 -1.690331 0.51992601 2.3433177e-38
-2.4429402 -1.6968589 0.48516577 2.3433177e-38
-2.442287 -1.6968637 0.47339663 2.3433177e-38
-2.4413292 -1.6940521 0.45475608 2.3433177e-38
-2.4405458 -1.6928408 0.44004443 2.3433177e-38
-2.4394417 -1.6926523 0.42004538 2.3433177e-38
-2.4374175 -1.6851131 0.37987909 2.3433177e-38
-2.4370313 -1.6793454 0.37009344 2.3433177e-38
-2.4366393 -1.6806874 0.36368397 2.3433177e-38
-2.4351177 -1.684689 0.33821657 2.3433177e-38
-2.4335673 -1.6852863 0.31055766 2.3433177e-38
-2.4318142 -1.6870257 0.27980924 2.3433177e-38
-2.4307249 -1.6840444 0.25872231 2.3433177e-38
-2.4293823 -1.6710349 0.22815633 2.3433177e-38
-2.4285109 -1.6718683 0.212862 2.3433177e-38
-2.4242647 -1.6685909 0.13471211 2.3433177e-38
-2.4227338 -1.6792474 0.11233614 2.3433177e-38
-2.4195223 -1.669081 0.049472108 2.3433177e-38
-2.4188247 -1.6662992 0.035538331 2.3433177e-38
-2.4178846 -1.6658279 0.018359318 2.3433177e-38
-2.4172032 -1.6626256 0.0045148432 2.3433177e-38
-2.4153452 -1.6629132 -0.028829381 2.3433177e-38
-2.4127662 -1.6651021 -0.074253201 2.3433177e-38
-2.4116704 -1.6733856 -0.089950435 2.3433177e-38
-2.4097633 -1.6782346 -0.12195743 2.3433177e-38
-2.4087174 -1.6742159 -0.1427763 2.3433177e-38
-2.407433 -1.6601207 -0.17281944 2.3433177e-38
-2.4032171 -1.6547465 -0.25144416 2.3433177e-38
-2.4022248 -1.6536186 -0.26987913 2.3433177e-38
-2.401336 -1.6553646 -0.2850464 2.3433177e-38
-2.40027 -1.6563625 -0.30377075 2.3433177e-38
-2.3995969 -1.6566752 -0.31575531 2.3433177e-38
-2.3979034 -1.6529862 -0.34808171 2.3433177e-38
-2.3959088 -1.6561412 -0.38248697 2.3433177e-38
-2.3948126 -1.6580545 -0.40131336 2.3433177e-38
-2.3918519 -1.6473993 -0.4598898 2.3433177e-38
-2.3895798 -1.6623726 -0.49352258 2.3433177e-38
-2.3871357 -1.6581315 -0.53964806 2.3433177e-38
-2.3861301 -1.658759 -0.55746949 2.3433177e-38
-2.3853292 -1.6578264 -0.57235873 2.3433177e-38
-2.3834376 -1.5811008 -0.64399189 2.3433177e-38
-2.3848851 -1.5464125 -0.63487053 2.3433177e-38
-2.3852782 -1.5355933 -0.63308024 2.3433177e-38
-2.3861346 -1.5030614 -0.63355321 2.3433177e-38
-2.3875279 -1.4685529 -0.62532079 2.3433177e-38
-2.3880305 -1.455049 -0.62286282 2.3433177e-38
-2.3893218 -1.4267447 -0.61343455 2.3433177e-38
-2.3897593 -1.4137125 -0.61192578 2.3433177e-38
-2.3910933 -1.3790306 -0.60484779 2.3433177e-38
-2.3922529 -1.320683 -0.61248702 2.3433177e-38
-2.3929627 -1.3060458 -0.60685408 2.3433177e-38
-2.3948197 -1.2530634 -0.59929395 2.3433177e-38
-2.3965425 -1.1957674 -0.59626472 2.3433177e-38
-2.3972287 -1.1821035 -0.59058386 2.3433177e-38
-2.3981314 -1.15557 -0.58729273 2.3433177e-38
-2.3982327 -1.1385741 -0.59377927 2.3433177e-38
-2.3988502 -1.1055061 -0.59883171 2.3433177e-38
-2.3995321 -1.0858369 -0.59615606 2.3433177e-38
-2.4004185 -1.0525198 -0.59647626 2.3433177e-38
-2.5897727 1.7275199 1.4567167 2.34944e-38
-2.5909705 1.7664521 1.4592673 2.34944e-38
-2.5913315 1.7799714 1.4591587 2.34944e-38
-2.5917406 1.8064528 1.4535801 2.34944e-38
-2.5918679 1.8131909 1.4525739 2.34944e-38
-2.5919585 1.8191813 1.4512774 2.34944e-38
-2.5840707 1.8107704 1.3132197 2.34944e-38
-2.5921235 1.8382176 1.4449434 2.34944e-38
-2.5925841 1.8516061 1.4466978 2.34944e-38
-2.5937846 1.8855908 1.4517057 2.34944e-38
-2.5941112 1.8977104 1.4516715 2.34944e-38
-2.594398 1.9137827 1.4489733 2.34944e-38
-2.5947061 1.9264154 1.448352 2.34944e-38
-2.5955667 1.9517022 1.451494 2.34944e-38
-2.5960772 1.9625708 1.455376 2.34944e-38
-2.5972161 2.0003252 1.457438 2.34944e-38
-2.5982556 2.0456731 1.4539955 2.34944e-38
-2.5983925 2.0581813 1.4503386 2.34944e-38
-2.5986829 2.0775568 1.4460895 2.34944e-38
-2.5990469 2.0906837 1.4462365 2.34944e-38
-2.5997438 2.11292 1.4479221 2.34944e-38
-2.600054 2.1252666 1.4474708 2.34944e-38
-2.6008081 2.1591549 1.4444847 2.34944e-38
-2.6008379 2.1748233 1.4373653 2.34944e-38
-2.5934653 2.1873076 1.2983623 2.34944e-38
-2.5915511 2.138222 1.2878754 2.34944e-38
-2.5913298 2.1255937 1.290059 2.34944e-38
-2.5907166 2.092999 1.2949533 2.34944e-38
-2.5901215 2.0728889 1.2940654 2.34944e-38
-2.5897193 2.0596642 1.2932861 2.34944e-38
-2.588676 2.0262587 1.2908159 2.34944e-38
-2.5867715 1.9855582 1.2763969 2.34944e-38
-2.5864112 1.977089 1.2740481 2.34944e-38
-2.5859625 1.9637369 1.2724873 2.34944e-38
-2.5855162 1.9432439 1.2744688 2.34944e-38
-2.5841582 1.8853451 1.2783157 2.34944e-38
-2.5841975 1.8667705 1.2881094 2.34944e-38
-2.5838189 1.8285587 1.2999772 2.34944e-38
-2.586978 1.6156173 1.4610834 2.34944e-38
-2.5857821 1.5877371 1.4531621 2.34944e-38
-2.5787973 1.5998452 1.3213464 2.34944e-38
-2.5795643 1.6326526 1.3191164 2.34944e-38
-2.5800712 1.6853222 1.3024882 2.34944e-38
-2.5816844 1.73049 1.3094804 2.34944e-38
-2.5819056 1.7494696 1.3041801 2.34944e-38
-2.5822961 1.7651585 1.3035432 2.34944e-38
-2.5879004 1.6538199 1.4590212 2.34944e-38
-2.5886765 1.6763915 1.461972 2.34944e-38
-2.5875697 1.6403381 1.4596573 2.34944e-38
-2.5790133 1.2745972 1.4843339 2.34944e-38
-2.578639 1.2549931 1.4871781 2.34944e-38
-2.5787008 1.2616121 1.4850583 2.34944e-38
-2.5787206 1.2663441 1.4830972 2.34944e-38
-2.5897727 1.7275199 1.4567167 2.34944e-38
