# .PCD v0.7 - Point Cloud Data file format
VERSION 0.7
FIELDS x y z rgb
SIZE 4 4 4 4
TYPE F F F F
COUNT 1 1 1 1
WIDTH 1077
HEIGHT 1
VIEWPOINT 0 0 0 1 0 0 0
POINTS 1077
DATA ascii
-0.81670219 2.4379039 15.971075 2.3418052e-38
-0.84640598 2.437881 15.971065 2.3418052e-38
-0.87610978 2.4378574 15.971055 2.3418052e-38
-0.98566514 2.4927943 15.842359 2.3418052e-38
-1.1807705 2.554914 15.69668 2.3418052e-38
-1.2682424 2.5548446 15.696651 2.3418052e-38
-1.4298496 2.6256757 15.530676 2.3418052e-38
-1.5291765 2.725142 15.297876 2.3418052e-38
-1.6595379 2.7409222 15.260696 2.3418052e-38
-1.6879084 2.7408993 15.260687 2.3418052e-38
-1.7446271 2.7452409 15.250411 2.3418052e-38
-1.772997 2.745219 15.250401 2.3418052e-38
-1.8013675 2.7451961 15.250392 2.3418052e-38
-1.8297379 2.7451746 15.250382 2.3418052e-38
-1.8865011 2.7407434 15.26062 2.3418052e-38
-1.9148712 2.7407215 15.260611 2.3418052e-38
-1.9716341 2.7362905 15.270849 2.3418052e-38
-2.0000048 2.7362676 15.27084 2.3418052e-38
-2.0567672 2.7318361 15.281077 2.3418052e-38
-2.1135306 2.7274053 15.291315 2.3418052e-38
-2.1986859 2.7185659 15.3118 2.3418052e-38
-2.2554715 2.7097483 15.332295 2.3418052e-38
-2.2889798 2.7234139 15.300268 2.3418052e-38
-2.3661101 2.7493517 15.23945 2.3418052e-38
-2.4886992 2.7634153 15.206298 2.3418052e-38
-2.5168195 2.7633936 15.206288 2.3418052e-38
-2.6572227 2.8024137 15.114742 2.3418052e-38
-2.8566046 2.8512957 15.000008 2.3418052e-38
-2.884475 2.8512733 14.999999 2.3418052e-38
-2.9123454 2.8512523 14.99999 2.3418052e-38
-2.9681082 2.8468988 15.010047 2.3418052e-38
-2.9978135 2.8856761 14.919309 2.3418052e-38
-3.2454302 2.9709399 14.719399 2.3418052e-38
-3.3501248 2.971637 14.71754 2.3418052e-38
-3.435322 3.0118847 14.623245 2.3418052e-38
-3.567615 3.0612011 14.50764 2.3418052e-38
-3.716121 3.1133525 14.385371 2.3418052e-38
-3.7771735 3.1185687 14.373042 2.3418052e-38
-3.8038676 3.1185477 14.373034 2.3418052e-38
-3.8305621 3.1185262 14.373025 2.3418052e-38
-3.9106665 3.1143365 14.382648 2.3418052e-38
-4.0133924 3.1159918 14.378554 2.3418052e-38
-4.0529141 3.1292822 14.347392 2.3418052e-38
-4.0924344 3.1425722 14.31623 2.3418052e-38
-4.1714759 3.1691523 14.253905 2.3418052e-38
-4.3378119 3.1838529 14.21917 2.3418052e-38
-4.5955653 3.2461007 14.073055 2.3418052e-38
-4.7317448 3.2662427 14.025662 2.3418052e-38
-4.8398709 3.260824 14.038097 2.3418052e-38
-4.9736319 3.2430639 14.079335 2.3418052e-38
-5.037025 3.2956803 13.956164 2.3418052e-38
-5.1211414 3.3554101 13.816315 2.3418052e-38
-5.326057 3.3721471 13.776733 2.3418052e-38
-5.3665757 3.3857732 13.744784 2.3418052e-38
-5.407095 3.399399 13.712834 2.3418052e-38
-5.6828814 3.4164729 13.672311 2.3418052e-38
-5.7852612 3.3856199 13.744234 2.3418052e-38
-5.8264828 3.3994818 13.711729 2.3418052e-38
-5.8677049 3.4133439 13.679226 2.3418052e-38
-6.2044635 3.3932836 13.725403 2.3418052e-38
-6.339035 3.3947802 13.72161 2.3418052e-38
-6.4434195 3.4845793 13.511405 2.3418052e-38
-6.719758 3.4764671 13.529775 2.3418052e-38
-6.7453256 3.4629962 13.561218 2.3418052e-38
-6.7620621 3.4906931 13.496418 2.3418052e-38
-6.8761888 3.5401073 13.380626 2.3418052e-38
-7.0786581 3.5376735 13.385876 2.3418052e-38
-7.1213403 3.5520265 13.352221 2.3418052e-38
-7.2364912 3.6018834 13.23539 2.3418052e-38
-7.3516421 3.6517403 13.118559 2.3418052e-38
-7.3798814 3.6763861 13.060869 2.3418052e-38
-7.4815588 3.7113094 12.978987 2.3418052e-38
-7.6206398 3.731066 12.932487 2.3418052e-38
-7.6633229 3.74542 12.898831 2.3418052e-38
-7.8469543 3.7960382 12.780071 2.3418052e-38
-7.8896375 3.8103917 12.746415 2.3418052e-38
-7.9420757 3.8216927 12.719876 2.3418052e-38
-8.0305862 3.846657 12.66131 2.3418052e-38
-8.2870865 3.8620961 12.624652 2.3418052e-38
-8.3301487 3.8765767 12.590697 2.3418052e-38
-8.3732119 3.891058 12.556742 2.3418052e-38
-8.4162741 3.905539 12.522787 2.3418052e-38
-8.4593382 3.9200208 12.488832 2.3418052e-38
-8.5052614 3.9329314 12.458543 2.3418052e-38
-8.6497059 3.9678016 12.376692 2.3418052e-38
-8.8275404 3.9932814 12.316727 2.3418052e-38
-8.8709965 4.007895 12.28246 2.3418052e-38
-8.9144535 4.0225086 12.248196 2.3418052e-38
-9.0144978 4.044817 12.195814 2.3418052e-38
-9.1014099 4.0740433 12.127284 2.3418052e-38
-9.144866 4.0886574 12.093019 2.3418052e-38
-9.1883221 4.1032705 12.058754 2.3418052e-38
-9.3965464 4.1364913 11.980621 2.3418052e-38
-9.4581318 4.1486616 11.952028 2.3418052e-38
-9.608696 4.1753111 11.889387 2.3418052e-38
-9.6312437 4.1758099 11.888173 2.3418052e-38
-9.822897 4.1642728 11.914734 2.3418052e-38
-10.033356 4.1507344 11.945932 2.3418052e-38
-10.122685 4.1807752 11.875496 2.3418052e-38
-10.198519 4.217926 11.78846 2.3418052e-38
-10.301345 4.2408543 11.734623 2.3418052e-38
-10.34601 4.2558746 11.699405 2.3418052e-38
-10.527897 4.2746568 11.65509 2.3418052e-38
-10.597967 4.2765398 11.650535 2.3418052e-38
-10.833073 4.3189998 11.55074 2.3418052e-38
-10.862216 4.3393178 11.503167 2.3418052e-38
-10.891359 4.3596358 11.455594 2.3418052e-38
-10.998172 4.3966689 11.368768 2.3418052e-38
-11.066753 4.4289823 11.293059 2.3418052e-38
-11.255525 4.4553847 11.230912 2.3418052e-38
-11.360413 4.4558082 11.229695 2.3418052e-38
-11.488173 4.4352303 11.277534 2.3418052e-38
-11.533682 4.4505334 11.241652 2.3418052e-38
-11.697438 4.4742074 11.18594 2.3418052e-38
-11.946169 4.5510554 11.005706 2.3418052e-38
-12.110831 4.5353689 11.042027 2.3418052e-38
-12.141401 4.5566812 10.992126 2.3418052e-38
-12.171971 4.5779939 10.942224 2.3418052e-38
-12.25272 4.6154013 10.854579 2.3418052e-38
-12.39229 4.6371536 10.803412 2.3418052e-38
-12.48854 4.7086973 10.635911 2.3418052e-38
-12.702555 4.7337451 10.576878 2.3418052e-38
-12.752277 4.7544699 10.52831 2.3418052e-38
-12.774458 4.776536 10.476663 2.3418052e-38
-12.887826 4.8629127 10.274442 2.3418052e-38
-13.232227 4.8405995 10.325869 2.3418052e-38
-13.315447 4.8791513 10.235541 2.3418052e-38
-13.438121 4.8930521 10.20277 2.3418052e-38
-13.52467 4.9210482 10.13712 2.3418052e-38
-13.629141 4.9545565 10.058539 2.3418052e-38
-13.906678 4.9809532 9.996213 2.3418052e-38
-14.116817 4.996139 9.960248 2.3418052e-38
-14.254572 5.0275321 9.8865423 2.3418052e-38
-14.350849 5.0555339 9.8208561 2.3418052e-38
-14.538538 5.1147127 9.6820707 2.3418052e-38
-14.608454 5.12044 9.6685266 2.3418052e-38
-14.821687 5.1722784 9.5468493 2.3418052e-38
-14.915597 5.2182298 9.4391966 2.3418052e-38
-15.023083 5.2660069 9.3272457 2.3418052e-38
-15.015156 5.2876396 9.276679 2.3418052e-38
-15.060242 5.3395777 9.1551352 2.3418052e-38
-15.321416 5.3828077 9.0534821 2.3418052e-38
-15.550375 5.3598275 9.106719 2.3418052e-38
-15.705206 5.3160582 9.2087288 2.3418052e-38
-15.9183 5.351263 9.125946 2.3418052e-38
-15.940896 5.404829 9.0006437 2.3418052e-38
-16.067453 5.4838719 8.8155422 2.3418052e-38
-16.047493 5.5335851 8.6993408 2.3418052e-38
-15.925359 5.5986013 8.5475788 2.3418052e-38
-15.788443 5.646235 8.4364929 2.3418052e-38
-15.633793 5.6984334 8.3147726 2.3418052e-38
-15.478889 5.7500172 8.1944914 2.3418052e-38
-15.269205 5.8379288 7.9893813 2.3418052e-38
-15.288797 5.8734336 7.9063182 2.3418052e-38
-15.29136 5.9613848 7.7006559 2.3418052e-38
-15.218192 5.9946346 7.6230679 2.3418052e-38
-15.179491 6.0747485 7.4358196 2.3418052e-38
-15.150111 6.1383948 7.2870593 2.3418052e-38
-15.160824 6.1637921 7.2276487 2.3418052e-38
-15.171537 6.1891904 7.1682372 2.3418052e-38
-15.02801 6.2314119 7.0698218 2.3418052e-38
-15.002186 6.2865319 6.94099 2.3418052e-38
-15.139642 6.3709159 6.7433758 2.3418052e-38
-15.233486 6.3948169 6.687284 2.3418052e-38
-15.27867 6.4431672 6.5741286 2.3418052e-38
-15.131746 6.5355048 6.3585343 2.3418052e-38
-15.076102 6.6026835 6.2015705 2.3418052e-38
-15.117635 6.6505265 6.0896077 2.3418052e-38
-14.943474 6.712214 5.9457426 2.3418052e-38
-15.060172 6.8522749 5.6179843 2.3418052e-38
-15.07067 6.8771625 5.5597663 2.3418052e-38
-14.963873 6.9108233 5.4812889 2.3418052e-38
-14.903855 6.9658232 5.3528137 2.3418052e-38
-15.120876 7.0537758 5.1466804 2.3418052e-38
-15.324021 7.0880909 5.0660005 2.3418052e-38
-15.256031 7.1342483 4.9582186 2.3418052e-38
-15.243214 7.1710277 4.8722453 2.3418052e-38
-15.202881 7.1781998 4.8555613 2.3418052e-38
-15.173368 7.1782169 4.8555856 2.3418052e-38
-14.971452 7.2041764 4.7953229 2.3418052e-38
-14.796465 7.3091578 4.5502243 2.3418052e-38
-14.880384 7.4218454 4.2865434 2.3418052e-38
-14.934937 7.5672412 3.9464459 2.3418052e-38
-14.643124 7.6232328 3.8161538 2.3418052e-38
-14.606869 7.7067394 3.6209679 2.3418052e-38
-14.64419 7.8216801 3.3521206 2.3418052e-38
-14.440041 7.8674426 3.2455566 2.3418052e-38
-14.170673 7.914206 3.1367948 2.3418052e-38
-14.236925 8.0064993 2.9208422 2.3418052e-38
-14.225878 8.029664 2.8666995 2.3418052e-38
-14.08323 8.0511732 2.816714 2.3418052e-38
-13.838295 8.0609608 2.7943585 2.3418052e-38
-13.739369 8.1263609 2.6416478 2.3418052e-38
-13.704867 8.2000017 2.4695292 2.3418052e-38
-13.82792 8.2978306 2.2405086 2.3418052e-38
-13.789871 8.4015179 1.9981374 2.3418052e-38
-13.778371 8.4260645 1.9407643 2.3418052e-38
-13.501575 8.3961859 2.0112321 2.3418052e-38
-13.406339 8.5326767 1.6922808 2.3418052e-38
-13.481076 8.5857077 1.5681158 2.3418052e-38
-13.491039 8.5918751 1.5536736 2.3418052e-38
-13.45959 8.630765 1.4628047 2.3418052e-38
-13.441124 8.6811686 1.3449875 2.3418052e-38
-13.416616 8.7208796 1.2521816 2.3418052e-38
-13.395129 8.7659378 1.1468706 2.3418052e-38
-13.384274 8.8342476 0.98716438 2.3418052e-38
-13.320037 8.8778563 0.88533199 2.3418052e-38
-13.186824 8.890934 0.8550427 2.3418052e-38
-12.994954 8.9467487 0.72494757 2.3418052e-38
-12.952868 8.9902792 0.62325084 2.3418052e-38
-12.970163 9.0358992 0.51653969 2.3418052e-38
-13.0053 9.0801401 0.41301548 2.3418052e-38
-12.879025 9.1451254 0.26133308 2.3418052e-38
-12.847379 9.2114878 0.1062252 2.3418052e-38
-12.83683 9.2336092 0.054523099 2.3418052e-38
-12.84716 9.3013935 -0.10400089 2.3418052e-38
-12.689322 9.2870598 -0.070139259 2.3418052e-38
-12.587852 9.2970343 -0.09324275 2.3418052e-38
-12.50301 9.2679272 -0.02499854 2.3418052e-38
-12.37374 9.2383938 0.044342224 2.3418052e-38
-12.239138 9.2314119 0.060959518 2.3418052e-38
-12.150415 9.1917706 0.15384492 2.3418052e-38
-11.965257 9.1567593 0.23611473 2.3418052e-38
-11.803476 9.1570349 0.23582222 2.3418052e-38
-11.732522 9.1208868 0.32050151 2.3418052e-38
-11.4463 9.1027336 0.36356845 2.3418052e-38
-11.408124 9.1014414 0.36667541 2.3418052e-38
-11.261632 9.0746956 0.42953381 2.3418052e-38
-11.160046 9.0594587 0.4653818 2.3418052e-38
-11.102353 9.0544949 0.47711533 2.3418052e-38
-11.048743 9.048975 0.49013963 2.3418052e-38
-10.945786 9.0393562 0.51285183 2.3418052e-38
-10.897248 9.022296 0.55285031 2.3418052e-38
-10.811651 9.0087547 0.58469957 2.3418052e-38
-10.700969 9.0085011 0.58553433 2.3418052e-38
-10.583267 8.9859037 0.63862938 2.3418052e-38
-10.355166 9.0457954 0.49907866 2.3418052e-38
-10.241192 9.0494289 0.49083212 2.3418052e-38
-10.148458 9.0640564 0.45682931 2.3418052e-38
-10.038927 9.0913305 0.39329174 2.3418052e-38
-9.9698553 9.1011543 0.3704704 2.3418052e-38
-9.8868389 9.0981379 0.37770462 2.3418052e-38
-9.8695898 9.0975533 0.37910837 2.3418052e-38
-9.7370377 9.0974569 0.37962374 2.3418052e-38
-9.639039 9.0921497 0.3922444 2.3418052e-38
-9.5609846 9.0857525 0.40737259 2.3418052e-38
-9.4457655 9.0661764 0.45339933 2.3418052e-38
-9.322999 8.9878397 0.63684052 2.3418052e-38
-9.2654972 8.9554081 0.71280056 2.3418052e-38
-9.2010784 8.9202499 0.79515123 2.3418052e-38
-9.1198483 8.8776693 0.89489287 2.3418052e-38
-8.9735489 8.8462954 0.96857208 2.3418052e-38
-8.8357229 8.8325186 1.001087 2.3418052e-38
-8.7591639 8.8253708 1.0179669 2.3418052e-38
-8.6323471 8.8001862 1.0771313 2.3418052e-38
-8.56036 8.7935867 1.0927184 2.3418052e-38
-8.5115862 8.7713737 1.144766 2.3418052e-38
-8.5192833 8.7552338 1.1824894 2.3418052e-38
-8.5269794 8.7390947 1.2202129 2.3418052e-38
-8.6300917 8.6473618 1.434487 2.3418052e-38
-8.6378393 8.631114 1.4724612 2.3418052e-38
-8.6039476 8.5776949 1.5974468 2.3418052e-38
-8.6116438 8.561554 1.6351708 2.3418052e-38
-8.6193409 8.5454149 1.6728945 2.3418052e-38
-8.627038 8.529274 1.7106174 2.3418052e-38
-8.6347342 8.513135 1.7483416 2.3418052e-38
-8.6424313 8.496995 1.7860638 2.3418052e-38
-8.6501274 8.480855 1.8237884 2.3418052e-38
-8.6578245 8.4647141 1.8615113 2.3418052e-38
-8.6232672 8.4126902 1.9832369 2.3418052e-38
-8.6309137 8.396657 2.02071 2.3418052e-38
-8.6385584 8.3806238 2.058183 2.3418052e-38
-8.6462049 8.3645916 2.0956552 2.3418052e-38
-8.6538496 8.3485584 2.1331282 2.3418052e-38
-8.6614952 8.3325262 2.1706002 2.3418052e-38
-8.7654991 8.271554 2.3129466 2.3418052e-38
-8.7962866 8.2069941 2.4638405 2.3418052e-38
-8.819376 8.1585741 2.5770106 2.3418052e-38
-8.8270731 8.1424341 2.6147342 2.3418052e-38
-8.7838249 8.076004 2.7701626 2.3418052e-38
-8.7914705 8.0599718 2.8076351 2.3418052e-38
-8.8219728 8.0284214 2.8813424 2.3418052e-38
-8.8296185 8.0123892 2.9188144 2.3418052e-38
-8.837265 7.996356 2.9562876 2.3418052e-38
-8.8177528 7.8939581 3.1957676 2.3418052e-38
-8.8109684 7.8778753 3.2333887 2.3418052e-38
-8.7687883 7.815094 3.3802829 2.3418052e-38
-8.7620049 7.7990112 3.4179037 2.3418052e-38
-8.7416525 7.7507639 3.5307658 2.3418052e-38
-8.6630564 7.7036271 3.6411567 2.3418052e-38
-8.6563168 7.6876521 3.6785254 2.3418052e-38
-8.6428404 7.6557026 3.7532632 2.3418052e-38
-8.6361017 7.6397271 3.790632 2.3418052e-38
-8.6091471 7.5758281 3.9401078 2.3418052e-38
-8.5956697 7.5438776 4.0148458 2.3418052e-38
-8.5889311 7.5279031 4.0522146 2.3418052e-38
-8.5821934 7.5119276 4.0895839 2.3418052e-38
-8.6127558 7.4451947 4.2455597 2.3418052e-38
-8.6074495 7.3953986 4.36201 2.3418052e-38
-8.6006641 7.3793159 4.399631 2.3418052e-38
-8.5870972 7.3471508 4.4748726 2.3418052e-38
-8.5803127 7.3310685 4.5124922 2.3418052e-38
-8.5735292 7.3149853 4.5501142 2.3418052e-38
-8.539609 7.2345724 4.7382174 2.3418052e-38
-8.5328245 7.2184901 4.7758384 2.3418052e-38
-8.526041 7.2024078 4.8134589 2.3418052e-38
-8.5192566 7.1863251 4.8510795 2.3418052e-38
-8.5124731 7.1702428 4.8887 2.3418052e-38
-8.5056896 7.15416 4.926321 2.3418052e-38
-8.4785528 7.0898294 5.0768037 2.3418052e-38
-8.4717693 7.0737472 5.1144247 2.3418052e-38
-8.4649839 7.0576644 5.1520457 2.3418052e-38
-8.4582005 7.0415816 5.1896663 2.3418052e-38
-8.4446325 7.0094171 5.2649074 2.3418052e-38
-8.4242802 6.9611688 5.3777699 2.3418052e-38
-8.4174967 6.945086 5.4153905 2.3418052e-38
-8.4107132 6.9290042 5.4530106 2.3418052e-38
-8.4039288 6.9129214 5.4906325 2.3418052e-38
-8.3141155 6.8394427 5.6626425 2.3418052e-38
-8.2939005 6.7915182 5.7747493 2.3418052e-38
-8.1802807 6.7413411 5.8923244 2.3418052e-38
-8.1601849 6.7273316 5.9251275 2.3418052e-38
-8.1105814 6.649662 6.1068492 2.3418052e-38
-8.0499153 6.6073666 6.2058811 2.3418052e-38
-8.0296926 6.5932684 6.2388916 2.3418052e-38
-8.0152788 6.5244746 6.3997831 2.3418052e-38
-7.9949193 6.5102811 6.4330163 2.3418052e-38
-7.9542017 6.4818945 6.4994822 2.3418052e-38
-7.9338431 6.4677005 6.5327158 2.3418052e-38
-7.9134851 6.4535069 6.565949 2.3418052e-38
-7.799994 6.4206338 6.6430635 2.3418052e-38
-7.7797718 6.4065351 6.6760745 2.3418052e-38
-7.726356 6.3817897 6.7340527 2.3418052e-38
-7.7061338 6.367691 6.7670631 2.3418052e-38
-7.5645771 6.269001 6.9981375 2.3418052e-38
-7.5443549 6.2549028 7.0311484 2.3418052e-38
-7.5241323 6.2408042 7.0641594 2.3418052e-38
-7.5039101 6.2267056 7.0971704 2.3418052e-38
-7.4836874 6.2126069 7.1301808 2.3418052e-38
-7.4027972 6.1562128 7.2622237 2.3418052e-38
-7.3623528 6.1280155 7.3282447 2.3418052e-38
-7.3348789 6.0963664 7.4023099 2.3418052e-38
-7.2944341 6.0681696 7.4683309 2.3418052e-38
-7.1601286 5.9870296 7.6583519 2.3418052e-38
-7.0994616 5.9447341 7.7573843 2.3418052e-38
-6.9946628 5.9147577 7.8277059 2.3418052e-38
-6.9745669 5.9007478 7.8605089 2.3418052e-38
-6.9343767 5.8727279 7.9261155 2.3418052e-38
-6.9142814 5.8587179 7.9589181 2.3418052e-38
-6.894187 5.8447084 7.9917212 2.3418052e-38
-6.8740911 5.8306985 8.0245237 2.3418052e-38
-6.8539958 5.8166885 8.0573273 2.3418052e-38
-6.8339005 5.8026781 8.0901308 2.3418052e-38
-6.7906303 5.7558589 8.1997032 2.3418052e-38
-6.765038 5.7436266 8.2283611 2.3418052e-38
-6.7441287 5.7289166 8.262804 2.3418052e-38
-6.6581097 5.6923251 8.3485518 2.3418052e-38
-6.5460548 5.6708617 8.398984 2.3418052e-38
-6.4217019 5.6290436 8.4970369 2.3418052e-38
-6.3906136 5.6185889 8.5215511 2.3418052e-38
-6.3595252 5.6081347 8.5460634 2.3418052e-38
-6.3284369 5.5976801 8.5705776 2.3418052e-38
-6.297349 5.5872259 8.5950899 2.3418052e-38
-6.2351723 5.5663171 8.6441164 2.3418052e-38
-6.2040839 5.5558624 8.6686296 2.3418052e-38
-6.1729956 5.5454078 8.6931438 2.3418052e-38
-6.1419072 5.5349536 8.7176561 2.3418052e-38
-6.1108189 5.5244989 8.7421703 2.3418052e-38
-6.079731 5.5140448 8.7666826 2.3418052e-38
-6.0175543 5.4931355 8.8157101 2.3418052e-38
-5.9647717 5.4672766 8.8762903 2.3418052e-38
-5.9025955 5.4463677 8.9253168 2.3418052e-38
-5.8715072 5.4359136 8.9498301 2.3418052e-38
-5.8052468 5.3940268 9.0479183 2.3418052e-38
-5.7739615 5.3835058 9.072587 2.3418052e-38
-5.6895604 5.3469625 9.1582193 2.3418052e-38
-5.5512295 5.3363185 9.1834087 2.3418052e-38
-5.4705653 5.2733188 9.3308983 2.3418052e-38
-5.43928 5.2627974 9.355567 2.3418052e-38
-5.4079957 5.2522774 9.3802347 2.3418052e-38
-5.3141403 5.220715 9.4542398 2.3418052e-38
-5.282855 5.2101946 9.4789085 2.3418052e-38
-5.2515707 5.1996741 9.5035763 2.3418052e-38
-5.2202845 5.1891532 9.5282459 2.3418052e-38
-5.0951447 5.1470714 9.6269188 2.3418052e-38
-5.0638595 5.1365499 9.6515875 2.3418052e-38
-5.0325742 5.1260295 9.6762562 2.3418052e-38
-5.0012894 5.115509 9.7009239 2.3418052e-38
-4.9700041 5.1049881 9.7255936 2.3418052e-38
-4.9387197 5.0944676 9.7502613 2.3418052e-38
-4.8145051 5.0804615 9.7832804 2.3418052e-38
-4.7834167 5.0700068 9.8077946 2.3418052e-38
-4.7523289 5.0595531 9.8323069 2.3418052e-38
-4.72124 5.0490985 9.8568211 2.3418052e-38
-4.6901517 5.0386438 9.8813343 2.3418052e-38
-4.6590633 5.0281897 9.9058475 2.3418052e-38
-4.6279755 5.017735 9.9303608 2.3418052e-38
-4.4752307 4.9941344 9.985878 2.3418052e-38
-4.4134479 4.9733582 10.034593 2.3418052e-38
-4.3481808 4.9236445 10.15098 2.3418052e-38
-4.3170924 4.9131899 10.175493 2.3418052e-38
-4.2860045 4.9027357 10.200006 2.3418052e-38
-4.2549157 4.8922815 10.22452 2.3418052e-38
-4.1616507 4.860918 10.29806 2.3418052e-38
-4.0466924 4.8141499 10.407667 2.3418052e-38
-3.8882918 4.7967567 10.448682 2.3418052e-38
-3.8574004 4.7863688 10.47304 2.3418052e-38
-3.7647257 4.7552042 10.546114 2.3418052e-38
-3.7338343 4.7448158 10.570472 2.3418052e-38
-3.7216132 4.7245898 10.617792 2.3418052e-38
-3.5175934 4.6720967 10.740979 2.3418052e-38
-3.4867022 4.6617098 10.765336 2.3418052e-38
-3.4558103 4.6513209 10.789696 2.3418052e-38
-3.4249187 4.6409326 10.814054 2.3418052e-38
-3.317925 4.595408 10.920736 2.3418052e-38
-3.2704611 4.5889912 10.935843 2.3418052e-38
-3.1443269 4.5727115 10.974185 2.3418052e-38
-3.123975 4.5727272 10.974192 2.3418052e-38
-3.1036232 4.5727439 10.974198 2.3418052e-38
-3.0832715 4.5727592 10.974205 2.3418052e-38
-3.0222158 4.5728073 10.974226 2.3418052e-38
-3.001864 4.572823 10.974233 2.3418052e-38
-2.9611607 4.572855 10.974246 2.3418052e-38
-2.9408085 4.5728717 10.974253 2.3418052e-38
-2.8797536 4.5729189 10.974274 2.3418052e-38
-2.8594015 4.5729351 10.97428 2.3418052e-38
-2.8390493 4.5729513 10.974287 2.3418052e-38
-2.8186975 4.5729671 10.974294 2.3418052e-38
-2.7983458 4.5729833 10.974301 2.3418052e-38
-2.7779942 4.572999 10.974308 2.3418052e-38
-2.7576423 4.5730157 10.974315 2.3418052e-38
-2.7372901 4.5730309 10.974321 2.3418052e-38
-2.7169383 4.5730476 10.974328 2.3418052e-38
-2.6965864 4.5730634 10.974335 2.3418052e-38
-2.676235 4.5730791 10.974341 2.3418052e-38
-2.6558831 4.5730948 10.974349 2.3418052e-38
-2.6355307 4.5731111 10.974356 2.3418052e-38
-2.6151793 4.5731268 10.974362 2.3418052e-38
-2.5948274 4.573143 10.974369 2.3418052e-38
-2.4116607 4.5732865 10.974431 2.3418052e-38
-2.3913088 4.5733027 10.974438 2.3418052e-38
-2.3709571 4.573319 10.974444 2.3418052e-38
-2.3506055 4.5733352 10.974451 2.3418052e-38
-2.3302536 4.5733509 10.974458 2.3418052e-38
-2.3099015 4.5733666 10.974465 2.3418052e-38
-2.2895498 4.5733829 10.974472 2.3418052e-38
-2.1878064 4.5703158 10.981864 2.3418052e-38
-2.1674552 4.5703321 10.981871 2.3418052e-38
-2.1471031 4.5703478 10.981877 2.3418052e-38
-2.1267512 4.570364 10.981885 2.3418052e-38
-2.1063991 4.5703797 10.981892 2.3418052e-38
-1.9763992 4.5496941 11.030543 2.3418052e-38
-1.9559178 4.5497108 11.03055 2.3418052e-38
-1.9354364 4.549726 11.030557 2.3418052e-38
-1.9149545 4.5497422 11.030564 2.3418052e-38
-1.8944732 4.5497584 11.030571 2.3418052e-38
-1.8739921 4.5497742 11.030578 2.3418052e-38
-1.8535106 4.5497904 11.030584 2.3418052e-38
-1.8330289 4.5498071 11.030591 2.3418052e-38
-1.8125473 4.5498228 11.030599 2.3418052e-38
-1.7920659 4.5498385 11.030605 2.3418052e-38
-1.7715846 4.5498552 11.030612 2.3418052e-38
-1.7511032 4.5498714 11.030619 2.3418052e-38
-1.7306216 4.5498872 11.030625 2.3418052e-38
-1.7101399 4.5499029 11.030633 2.3418052e-38
-1.5872512 4.5499992 11.030674 2.3418052e-38
-1.5667701 4.5500159 11.030681 2.3418052e-38
-1.5053575 4.5437303 11.045511 2.3418052e-38
-1.4643948 4.5437627 11.045525 2.3418052e-38
-1.3619392 4.5533433 11.023345 2.3418052e-38
-1.2800131 4.5534072 11.023373 2.3418052e-38
-1.2186171 4.5439553 11.045608 2.3418052e-38
-1.082006 4.5232348 11.094356 2.3418052e-38
-1.0613952 4.5232515 11.094362 2.3418052e-38
-1.040784 4.5232677 11.094369 2.3418052e-38
-1.0201728 4.5232835 11.094377 2.3418052e-38
-0.99956161 4.5232997 11.094383 2.3418052e-38
-0.97895038 4.5233164 11.09439 2.3418052e-38
-0.95833963 4.5233316 11.094397 2.3418052e-38
-0.93772846 4.5233479 11.094404 2.3418052e-38
-0.9171173 4.5233645 11.094411 2.3418052e-38
-0.87589496 4.523397 11.094424 2.3418052e-38
-0.85528415 4.5234127 11.094432 2.3418052e-38
-0.83467299 4.5234294 11.094439 2.3418052e-38
-0.81406182 4.5234456 11.094445 2.3418052e-38
-0.79345065 4.5234613 11.094453 2.3418052e-38
-0.77283949 4.5234776 11.09446 2.3418052e-38
-0.75222868 4.5234942 11.094466 2.3418052e-38
-0.73161751 4.5235105 11.094473 2.3418052e-38
-0.71100634 4.5235262 11.09448 2.3418052e-38
-0.69039518 4.5235424 11.094487 2.3418052e-38
-0.66978401 4.5235586 11.094494 2.3418052e-38
-0.6491732 4.5235748 11.094501 2.3418052e-38
-0.62856203 4.5235906 11.094508 2.3418052e-38
-0.60795087 4.5236073 11.094515 2.3418052e-38
-0.5873397 4.5236235 11.094522 2.3418052e-38
-0.56672847 4.5236397 11.094528 2.3418052e-38
-0.54611772 4.5236559 11.094536 2.3418052e-38
-0.52550656 4.5236721 11.094543 2.3418052e-38
-0.50489539 4.5236883 11.094549 2.3418052e-38
-0.48428422 4.5237045 11.094556 2.3418052e-38
-0.46367303 4.5237203 11.094563 2.3418052e-38
-0.44306225 4.5237365 11.09457 2.3418052e-38
-0.42245105 4.5237532 11.094577 2.3418052e-38
-0.3399744 4.5301909 11.079701 2.3418052e-38
-0.29873586 4.5334105 11.072264 2.3418052e-38
-0.25752968 4.5302558 11.079729 2.3418052e-38
-0.17511776 4.5239468 11.09466 2.3418052e-38
-0.15450659 4.5239635 11.094666 2.3418052e-38
0.072215155 4.5241413 11.094743 2.3418052e-38
0.092826732 4.5241575 11.09475 2.3418052e-38
0.11343751 4.5241737 11.094757 2.3418052e-38
0.13404828 4.5241899 11.094764 2.3418052e-38
0.15465985 4.5242062 11.09477 2.3418052e-38
0.17527063 4.5242224 11.094778 2.3418052e-38
0.1958822 4.5242386 11.094785 2.3418052e-38
0.21649298 4.5242548 11.094791 2.3418052e-38
0.36078703 4.527555 11.087388 2.3418052e-38
0.44319853 4.521246 11.10232 2.3418052e-38
0.46381012 4.5212622 11.102326 2.3418052e-38
0.52564323 4.5213108 11.102347 2.3418052e-38
0.54625404 4.5213265 11.102354 2.3418052e-38
0.56686556 4.5213428 11.102361 2.3418052e-38
0.58747637 4.521359 11.102367 2.3418052e-38
0.60808796 4.5213752 11.102375 2.3418052e-38
0.6699211 4.5214238 11.102396 2.3418052e-38
0.69053185 4.52144 11.102403 2.3418052e-38
0.71114337 4.5214567 11.102409 2.3418052e-38
0.73175418 4.5214725 11.102416 2.3418052e-38
0.81423128 4.5279107 11.087541 2.3418052e-38
0.91730297 4.5311785 11.080124 2.3418052e-38
1.1646354 4.5313725 11.080207 2.3418052e-38
1.2676424 4.5218935 11.102596 2.3418052e-38
1.2882539 4.5219092 11.102603 2.3418052e-38
1.4440057 4.5523801 11.031692 2.3418052e-38
1.4644871 4.5523958 11.031699 2.3418052e-38
1.6078413 4.5493417 11.039152 2.3418052e-38
1.6283233 4.5493584 11.039159 2.3418052e-38
1.7880619 4.5650263 11.002869 2.3418052e-38
1.9543914 4.5664372 10.999931 2.3418052e-38
1.9931706 4.5719633 10.987094 2.3418052e-38
2.0707293 4.5830154 10.961419 2.3418052e-38
2.1095088 4.588541 10.948582 2.3418052e-38
2.3809643 4.6272235 10.858721 2.3418052e-38
2.4197435 4.6327491 10.845883 2.3418052e-38
2.5360818 4.6493278 10.80737 2.3418052e-38
2.6136403 4.6603794 10.781696 2.3418052e-38
2.6524196 4.665906 10.768859 2.3418052e-38
2.6911991 4.6714315 10.756021 2.3418052e-38
2.7299783 4.6769581 10.743184 2.3418052e-38
2.7738829 4.6765609 10.744207 2.3418052e-38
2.9044259 4.6779327 10.741283 2.3418052e-38
2.9434664 4.683496 10.728359 2.3418052e-38
3.0402131 4.7211661 10.640485 2.3418052e-38
3.1953306 4.7432704 10.589136 2.3418052e-38
3.2341101 4.7487969 10.576298 2.3418052e-38
3.3892274 4.7709007 10.524949 2.3418052e-38
3.4280066 4.7764268 10.512112 2.3418052e-38
3.4667857 4.7819529 10.499274 2.3418052e-38
3.5055656 4.7874794 10.486436 2.3418052e-38
3.7633207 4.8003254 10.456958 2.3418052e-38
3.8023612 4.8058887 10.444035 2.3418052e-38
3.924643 4.8166161 10.419216 2.3418052e-38
3.9636836 4.8221793 10.406293 2.3418052e-38
4.087256 4.8703699 10.293877 2.3418052e-38
4.2423725 4.8924742 10.242527 2.3418052e-38
4.2811532 4.8979998 10.22969 2.3418052e-38
4.319932 4.9035263 10.216852 2.3418052e-38
4.3587117 4.9090519 10.204015 2.3418052e-38
4.397491 4.9145784 10.191177 2.3418052e-38
4.5138288 4.9311562 10.152665 2.3418052e-38
4.6492901 4.9671092 10.06889 2.3418052e-38
4.6809516 4.9775119 10.044635 2.3418052e-38
4.8296847 5.0343533 9.9120445 2.3418052e-38
4.8613462 5.0447559 9.8877897 2.3418052e-38
4.8930078 5.0551581 9.863534 2.3418052e-38
5.021368 5.0678458 9.8341455 2.3418052e-38
5.0947566 5.0839276 9.7967005 2.3418052e-38
5.1488671 5.1097355 9.7364712 2.3418052e-38
5.1807418 5.1202078 9.7120533 2.3418052e-38
5.2126164 5.1306801 9.6876354 2.3418052e-38
5.2444911 5.1411524 9.6632166 2.3418052e-38
5.3082404 5.162097 9.6143799 2.3418052e-38
5.367928 5.2111921 9.499711 2.3418052e-38
5.3995895 5.2215943 9.4754562 2.3418052e-38
5.531364 5.235404 9.4434509 2.3418052e-38
5.5632386 5.2458763 9.4190331 2.3418052e-38
5.738297 5.2658229 9.3727703 2.3418052e-38
5.7703853 5.2763658 9.3481884 2.3418052e-38
5.8024735 5.2869081 9.3236065 2.3418052e-38
5.8345613 5.2974505 9.2990246 2.3418052e-38
5.8666492 5.3079929 9.2744436 2.3418052e-38
6.0270896 5.3607054 9.1515341 2.3418052e-38
6.0828733 5.4085712 9.039731 2.3418052e-38
6.114748 5.4190431 9.0153131 2.3418052e-38
6.1466222 5.4295154 8.9908953 2.3418052e-38
6.1784973 5.4399881 8.9664755 2.3418052e-38
6.210372 5.4504604 8.9420576 2.3418052e-38
6.3479705 5.4661298 8.9057159 2.3418052e-38
6.3800592 5.4766726 8.881134 2.3418052e-38
6.4121475 5.487215 8.8565521 2.3418052e-38
6.6046758 5.5504699 8.7090616 2.3418052e-38
6.636764 5.5610123 8.6844797 2.3418052e-38
6.7009401 5.5820975 8.6353159 2.3418052e-38
6.7972045 5.6137247 8.5615711 2.3418052e-38
6.8292923 5.6242666 8.5369892 2.3418052e-38
6.8613801 5.6348095 8.5124063 2.3418052e-38
6.9434905 5.6913252 8.380435 2.3418052e-38
7.0743251 5.7914176 8.1466713 2.3418052e-38
7.2052221 5.8344383 8.04636 2.3418052e-38
7.2893801 5.891264 7.9136677 2.3418052e-38
7.2830806 5.9324255 7.8174052 2.3418052e-38
7.2554607 5.9591918 7.7547569 2.3418052e-38
7.436656 5.9907079 7.681457 2.3418052e-38
7.4997749 6.0333261 7.5819387 2.3418052e-38
7.5208139 6.047533 7.5487657 2.3418052e-38
7.5418534 6.061739 7.5155931 2.3418052e-38
7.5839329 6.0901513 7.4492474 2.3418052e-38
7.6763487 6.1071372 7.40973 2.3418052e-38
7.7610664 6.16434 7.2761559 2.3418052e-38
7.7822456 6.1786408 7.2427626 2.3418052e-38
7.8457837 6.2215428 7.1425824 2.3418052e-38
7.8669629 6.2358437 7.1091886 2.3418052e-38
7.8881421 6.2501445 7.0757952 2.3418052e-38
7.9093213 6.2644453 7.0424023 2.3418052e-38
7.9205642 6.3174515 6.9184809 2.3418052e-38
7.9416037 6.3316579 6.8853078 2.3418052e-38
8.0047216 6.3742766 6.7857895 2.3418052e-38
8.0257616 6.3884826 6.7526169 2.3418052e-38
8.0468006 6.402689 6.7194438 2.3418052e-38
8.1634741 6.4360538 6.6416807 2.3418052e-38
8.1846523 6.4503546 6.6082869 2.3418052e-38
8.2058325 6.4646549 6.5748935 2.3418052e-38
8.2270117 6.4789557 6.5415006 2.3418052e-38
8.2481909 6.4932566 6.5081062 2.3418052e-38
8.2782345 6.5589576 6.3545427 2.3418052e-38
8.3203135 6.5873704 6.2881956 2.3418052e-38
8.4730864 6.6329799 6.181879 2.3418052e-38
8.5016441 6.6977582 6.0304689 2.3418052e-38
8.4952555 6.7509103 5.9061704 2.3418052e-38
8.6368666 6.8273826 5.7276621 2.3418052e-38
8.6444054 6.8436556 5.6896272 2.3418052e-38
8.6519461 6.8599286 5.6515923 2.3418052e-38
8.6594858 6.8762016 5.6135578 2.3418052e-38
8.6971846 6.9575663 5.4233837 2.3418052e-38
8.7198048 7.0063848 5.3092794 2.3418052e-38
8.7273436 7.0226579 5.2712445 2.3418052e-38
8.7348843 7.0389309 5.2332096 2.3418052e-38
8.7499628 7.0714765 5.1571407 2.3418052e-38
8.7575035 7.0877495 5.1191058 2.3418052e-38
8.7873373 7.1190224 5.0460448 2.3418052e-38
8.7948771 7.1352954 5.0080104 2.3418052e-38
8.8752785 7.1797595 4.9042144 2.3418052e-38
8.8831949 7.2301822 4.7863278 2.3418052e-38
8.8907852 7.2465625 4.7480416 2.3418052e-38
8.8983746 7.2629433 4.7097554 2.3418052e-38
8.8781404 7.3481164 4.51055 2.3418052e-38
8.9663544 7.3763247 4.4447827 2.3418052e-38
8.9532137 7.4770269 4.2092805 2.3418052e-38
9.0346603 7.5237484 4.1002092 2.3418052e-38
9.0422506 7.5401287 4.061923 2.3418052e-38
9.04984 7.556509 4.0236373 2.3418052e-38
9.0953779 7.6547918 3.7939217 2.3418052e-38
9.1029673 7.6711721 3.7556353 2.3418052e-38
9.1105576 7.687552 3.7173502 2.3418052e-38
9.1409149 7.7530742 3.5642054 2.3418052e-38
9.1485052 7.7694545 3.5259204 2.3418052e-38
9.1560946 7.7858353 3.4876337 2.3418052e-38
9.1636848 7.8022156 3.4493477 2.3418052e-38
9.1712742 7.8185954 3.4110618 2.3418052e-38
9.1788645 7.8349762 3.372776 2.3418052e-38
9.1864529 7.8513565 3.3344905 2.3418052e-38
9.1940432 7.8677373 3.2962043 2.3418052e-38
9.1643286 7.9326692 3.1443088 2.3418052e-38
9.1930618 7.9766922 3.0414314 2.3418052e-38
9.1718941 8.0259123 2.9262934 2.3418052e-38
9.143671 8.0915394 2.7727757 2.3418052e-38
9.1366148 8.1079464 2.734396 2.3418052e-38
9.1295595 8.1243534 2.6960168 2.3418052e-38
9.1225042 8.1407595 2.6576374 2.3418052e-38
9.1013355 8.1899805 2.5424988 2.3418052e-38
9.1392307 8.2417488 2.4215319 2.3418052e-38
9.1321287 8.2582626 2.3829005 2.3418052e-38
9.1108217 8.307806 2.2670066 2.3418052e-38
9.1114187 8.3416805 2.1877999 2.3418052e-38
9.0096102 8.4032688 2.0435655 2.3418052e-38
9.0025539 8.4196758 2.0051863 2.3418052e-38
9.0255957 8.5059795 1.8034308 2.3418052e-38
9.0261936 8.539854 1.7242248 2.3418052e-38
9.0190916 8.5563679 1.6855931 2.3418052e-38
8.9900856 8.5885515 1.6102743 2.3418052e-38
8.9829836 8.6050663 1.5716435 2.3418052e-38
8.9758816 8.6215811 1.5330123 2.3418052e-38
8.9687786 8.6380949 1.4943808 2.3418052e-38
8.9616766 8.6546097 1.4557494 2.3418052e-38
8.9261656 8.7371817 1.262593 2.3418052e-38
8.8977575 8.8032398 1.1080678 2.3418052e-38
8.8906555 8.8197546 1.0694367 2.3418052e-38
8.8835535 8.8362684 1.030805 2.3418052e-38
8.8764515 8.8527832 0.99217367 2.3418052e-38
8.8693485 8.869297 0.95354289 2.3418052e-38
8.8551455 8.9023266 0.87628007 2.3418052e-38
8.8480425 8.9188414 0.83764875 2.3418052e-38
8.8409405 8.9353561 0.79901737 2.3418052e-38
8.8338385 8.95187 0.76038677 2.3418052e-38
8.8267365 8.9683847 0.72175503 2.3418052e-38
8.8196344 8.9848986 0.68312323 2.3418052e-38
8.7912254 9.0509567 0.52859843 2.3418052e-38
8.7918224 9.0848303 0.44939151 2.3418052e-38
8.6285725 9.1494055 0.29804212 2.3418052e-38
8.6398993 9.1846304 0.21570036 2.3418052e-38
8.6497622 9.240016 0.086213104 2.3418052e-38
8.6348772 9.2720137 0.011360387 2.3418052e-38
8.491848 9.3205118 -0.10235555 2.3418052e-38
8.4708548 9.3350763 -0.13645683 2.3418052e-38
8.3997364 9.3961506 -0.27942193 2.3418052e-38
8.3448973 9.4224615 -0.34106266 2.3418052e-38
8.2493248 9.4412079 -0.38510472 2.3418052e-38
8.2284689 9.455677 -0.41898343 2.3418052e-38
8.1995258 9.4874144 -0.49325919 2.3418052e-38
8.1578131 9.5163527 -0.56101608 2.3418052e-38
8.12887 9.54809 -0.63529217 2.3418052e-38
8.2345314 9.60884 -0.77711159 2.3418052e-38
8.2825718 9.6385469 -0.84647167 2.3418052e-38
8.3304977 9.6684952 -0.91639751 2.3418052e-38
8.3908377 9.7370081 -1.0764718 2.3418052e-38
8.3608427 9.7743301 -1.163805 2.3418052e-38
8.3173962 9.804471 -1.2343779 2.3418052e-38
8.2668953 9.869236 -1.3859286 2.3418052e-38
8.1696968 9.9018068 -1.4623013 2.3418052e-38
8.2679491 9.9094677 -1.4800009 2.3418052e-38
8.3339291 9.9280472 -1.5233011 2.3418052e-38
8.3901043 9.9831743 -1.6520823 2.3418052e-38
8.393939 10.054018 -1.8177286 2.3418052e-38
8.4965487 10.14184 -2.0228608 2.3418052e-38
8.5464516 10.18713 -2.1286557 2.3418052e-38
8.416748 10.282532 -2.3520145 2.3418052e-38
8.3750582 10.309902 -2.416106 2.3418052e-38
8.5417786 10.365027 -2.5446434 2.3418052e-38
8.5442514 10.4127 -2.65611 2.3418052e-38
8.5709782 10.521056 -2.9094229 2.3418052e-38
8.5414543 10.536338 -2.9452207 2.3418052e-38
8.5051413 10.548507 -2.9737535 2.3418052e-38
8.4688272 10.560675 -3.0022867 2.3418052e-38
8.42344 10.684214 -3.2912557 2.3418052e-38
8.398756 10.738143 -3.4174142 2.3418052e-38
8.3351221 10.768106 -3.4876132 2.3418052e-38
8.2979631 10.780558 -3.5168097 2.3418052e-38
8.3335638 10.820285 -3.6096275 2.3418052e-38
8.4857874 10.877295 -3.7426031 2.3418052e-38
8.4775648 10.927513 -3.8600483 2.3418052e-38
8.3735647 10.971277 -3.9626083 2.3418052e-38
8.3462477 10.989346 -4.0049162 2.3418052e-38
8.4210997 11.018688 -4.0733662 2.3418052e-38
8.5750599 11.110272 -4.2871823 2.3418052e-38
8.6847038 11.123754 -4.3184681 2.3418052e-38
8.8400841 11.183675 -4.4582438 2.3418052e-38
8.8963633 11.236176 -4.5808859 2.3418052e-38
8.98458 11.270969 -4.6620531 2.3418052e-38
9.0805807 11.255507 -4.6256881 2.3418052e-38
9.2274532 11.258265 -4.6318188 2.3418052e-38
9.2913637 11.242287 -4.5943174 2.3418052e-38
9.5422363 11.253737 -4.6205468 2.3418052e-38
9.6498537 11.26395 -4.6441941 2.3418052e-38
9.9849386 11.247238 -4.6043887 2.3418052e-38
10.204062 11.284636 -4.6913619 2.3418052e-38
10.315985 11.335309 -4.8096066 2.3418052e-38
10.441867 11.345044 -4.832098 2.3418052e-38
10.62227 11.424062 -5.0164742 2.3418052e-38
10.729915 11.455361 -5.0894256 2.3418052e-38
10.748305 11.456411 -5.0918412 2.3418052e-38
10.925529 11.440357 -5.053916 2.3418052e-38
10.988354 11.40554 -4.9723654 2.3418052e-38
11.033524 11.390403 -4.9368739 2.3418052e-38
11.087523 11.377448 -4.9064655 2.3418052e-38
11.24018 11.342155 -4.8236084 2.3418052e-38
11.473163 11.33825 -4.8139696 2.3418052e-38
11.610719 11.259489 -4.6295037 2.3418052e-38
11.665275 11.215227 -4.5258875 2.3418052e-38
11.862592 11.192945 -4.4733558 2.3418052e-38
11.996517 11.201791 -4.4937506 2.3418052e-38
12.086505 11.186553 -4.4579248 2.3418052e-38
12.232454 11.197203 -4.4825082 2.3418052e-38
12.332318 11.132116 -4.3300996 2.3418052e-38
12.458692 11.10313 -4.2620482 2.3418052e-38
12.504722 11.087707 -4.2258811 2.3418052e-38
12.523683 11.011326 -4.0472388 2.3418052e-38
12.510574 11.005118 -4.032753 2.3418052e-38
12.337255 10.985027 -3.9861512 2.3418052e-38
12.25452 10.934778 -3.8688314 2.3418052e-38
12.241653 10.928686 -3.8546147 2.3418052e-38
12.106167 10.932435 -3.8636758 2.3418052e-38
11.950519 10.875562 -3.7310252 2.3418052e-38
11.669522 10.824265 -3.6116869 2.3418052e-38
11.616043 10.752077 -3.4430068 2.3418052e-38
11.93279 10.664153 -3.2367256 2.3418052e-38
12.087564 10.669821 -3.2496438 2.3418052e-38
12.214828 10.741115 -3.4160726 2.3418052e-38
12.456698 10.795083 -3.5417423 2.3418052e-38
12.664261 10.785727 -3.5194142 2.3418052e-38
12.778375 10.831674 -3.6266043 2.3418052e-38
12.818436 10.787224 -3.5225794 2.3418052e-38
12.893857 10.730941 -3.3908072 2.3418052e-38
12.83723 10.694821 -3.3064728 2.3418052e-38
12.816301 10.680246 -3.2724376 2.3418052e-38
12.785213 10.595856 -3.075175 2.3418052e-38
12.745756 10.536257 -2.9358997 2.3418052e-38
12.760403 10.481038 -2.8067477 2.3418052e-38
12.790285 10.460029 -2.7575579 2.3418052e-38
12.863338 10.390466 -2.5947375 2.3418052e-38
12.775832 10.296929 -2.3762126 2.3418052e-38
12.670245 10.246293 -2.2580392 2.3418052e-38
12.495107 10.231523 -2.2238805 2.3418052e-38
12.374831 10.214606 -2.1845863 2.3418052e-38
12.329618 10.104569 -1.9273864 2.3418052e-38
12.337133 9.9806843 -1.6376888 2.3418052e-38
12.237 9.9383259 -1.5388575 2.3418052e-38
12.140639 9.8970604 -1.4425771 2.3418052e-38
11.980578 9.8469334 -1.325713 2.3418052e-38
11.951324 9.816411 -1.2544047 2.3418052e-38
11.860363 9.7858095 -1.1830466 2.3418052e-38
11.776385 9.6419554 -0.84685409 2.3418052e-38
11.952678 9.565299 -0.66722387 2.3418052e-38
11.969953 9.5638084 -0.66370136 2.3418052e-38
11.987103 9.4911041 -0.49366009 2.3418052e-38
12.299253 9.4594765 -0.41902477 2.3418052e-38
12.402288 9.4507389 -0.39837083 2.3418052e-38
12.591386 9.3586683 -0.18266998 2.3418052e-38
12.639832 9.3391018 -0.13681458 2.3418052e-38
12.99141 9.2988138 -0.041846201 2.3418052e-38
13.0899 9.2474413 0.078494616 2.3418052e-38
13.312066 9.1975164 0.19571584 2.3418052e-38
13.311248 9.1511593 0.30411237 2.3418052e-38
13.293616 9.1126528 0.39411351 2.3418052e-38
13.573732 9.0309496 0.58576936 2.3418052e-38
13.603984 9.0093079 0.63643932 2.3418052e-38
13.613792 8.9864998 0.6897952 2.3418052e-38
13.478931 8.9060221 0.87768185 2.3418052e-38
13.682456 8.8268385 1.0632805 2.3418052e-38
13.661189 8.7788858 1.1753616 2.3418052e-38
13.650554 8.7549105 1.2314018 2.3418052e-38
13.6996 8.6408663 1.4981776 2.3418052e-38
13.709409 8.6180573 1.5515325 2.3418052e-38
13.574493 8.5873003 1.6231593 2.3418052e-38
13.45903 8.5121956 1.7985262 2.3418052e-38
13.46866 8.4898033 1.8509074 2.3418052e-38
13.487921 8.4450178 1.9556704 2.3418052e-38
13.336548 8.3697052 2.1314466 2.3418052e-38
13.342616 8.2595568 2.3890212 2.3418052e-38
13.137589 8.2136354 2.4959533 2.3418052e-38
13.107735 8.2045536 2.5171242 2.3418052e-38
13.027544 8.1779461 2.5791671 2.3418052e-38
12.977183 8.1142616 2.7279713 2.3418052e-38
13.010217 8.0531282 2.8709912 2.3418052e-38
13.067947 8.0036745 2.9867566 2.3418052e-38
12.960681 7.946219 3.1208715 2.3418052e-38
12.768305 7.8764796 3.2835245 2.3418052e-38
12.66287 7.8200068 3.4153471 2.3418052e-38
12.595127 7.716568 3.6570706 2.3418052e-38
12.421611 7.6583972 3.7927146 2.3418052e-38
12.340282 7.6029882 3.9221025 2.3418052e-38
12.344374 7.4916983 4.1823406 2.3418052e-38
12.200971 7.4550219 4.2677903 2.3418052e-38
12.068218 7.3456874 4.523159 2.3418052e-38
11.833427 7.3311787 4.5565753 2.3418052e-38
11.656885 7.2578044 4.7277637 2.3418052e-38
11.707356 7.1670732 4.9400296 2.3418052e-38
11.698019 7.146924 4.9871249 2.3418052e-38
11.688684 7.1267743 5.0342207 2.3418052e-38
11.651743 7.0880513 5.1246872 2.3418052e-38
11.642406 7.0679026 5.1717811 2.3418052e-38
11.529229 7.034276 5.250164 2.3418052e-38
11.473671 6.9143677 5.5304255 2.3418052e-38
11.464411 6.894383 5.5771356 2.3418052e-38
11.39885 6.8224287 5.745245 2.3418052e-38
11.337382 6.7813563 5.8411517 2.3418052e-38
11.328197 6.761529 5.8874931 2.3418052e-38
11.215995 6.6903353 6.0537229 2.3418052e-38
11.117355 6.6375012 6.1770511 2.3418052e-38
11.110146 6.633275 6.1869173 2.3418052e-38
11.084955 6.6162667 6.2266335 2.3418052e-38
11.05591 6.5295782 6.4292746 2.3418052e-38
11.003094 6.4386225 6.6418414 2.3418052e-38
11.010712 6.3988228 6.7349219 2.3418052e-38
10.91116 6.4137678 6.6997604 2.3418052e-38
10.74849 6.3914971 6.7514825 2.3418052e-38
10.648049 6.4042873 6.7213559 2.3418052e-38
10.536486 6.4118047 6.7035356 2.3418052e-38
10.431719 6.4202585 6.6835413 2.3418052e-38
10.346937 6.4290037 6.6629081 2.3418052e-38
10.185194 6.4297857 6.6607275 2.3418052e-38
10.157032 6.4472723 6.6197786 2.3418052e-38
9.9838161 6.4889002 6.5220637 2.3418052e-38
9.967308 6.4903245 6.5186973 2.3418052e-38
9.8605261 6.5032692 6.4881959 2.3418052e-38
9.5858555 6.4708529 6.5633984 2.3418052e-38
9.2546072 6.4007339 6.7266383 2.3418052e-38
9.2705393 6.3590655 6.8241067 2.3418052e-38
9.1369886 6.2891269 6.9873543 2.3418052e-38
9.2119446 6.205296 7.1835403 2.3418052e-38
9.2523775 6.1667504 7.2737598 2.3418052e-38
9.374815 6.1132836 7.3990469 2.3418052e-38
9.5592813 6.0782952 7.4812613 2.3418052e-38
9.7289276 6.0368924 7.5784421 2.3418052e-38
9.8631144 6.0198874 7.6184969 2.3418052e-38
9.9455118 6.0012546 7.6622448 2.3418052e-38
10.028063 5.9825435 7.7061758 2.3418052e-38
10.077374 5.9359279 7.8152852 2.3418052e-38
10.284417 5.8937578 7.9143419 2.3418052e-38
10.219675 5.8602657 7.992516 2.3418052e-38
10.191814 5.8458872 8.0260763 2.3418052e-38
10.012661 5.7925382 8.1504335 2.3418052e-38
9.9618711 5.7582445 8.2305126 2.3418052e-38
9.8953724 5.7278872 8.3013525 2.3418052e-38
9.9163895 5.6306005 8.5288839 2.3418052e-38
9.8907976 5.6133218 8.569232 2.3418052e-38
9.7393427 5.5788999 8.6493921 2.3418052e-38
9.6835899 5.5583858 8.6972389 2.3418052e-38
9.6609974 5.5474739 8.7227058 2.3418052e-38
9.5831375 5.5160022 8.7961273 2.3418052e-38
9.5601645 5.4569626 8.9341297 2.3418052e-38
9.4696865 5.4113669 9.0405493 2.3418052e-38
9.460001 5.3902826 9.0898294 2.3418052e-38
9.3935022 5.3599257 9.1606684 2.3418052e-38
9.3101778 5.2683134 9.3747063 2.3418052e-38
9.335701 5.2343197 9.4542494 2.3418052e-38
9.3440762 5.1550794 9.6395559 2.3418052e-38
9.2345247 5.0800257 9.8148165 2.3418052e-38
9.1890707 5.021584 9.9513721 2.3418052e-38
9.2031288 4.9981551 10.006186 2.3418052e-38
9.1793003 4.9439363 10.132915 2.3418052e-38
9.2723885 4.8708496 10.304017 2.3418052e-38
9.3824654 4.7996678 10.4707 2.3418052e-38
9.4149857 4.7628393 10.556888 2.3418052e-38
9.4358311 4.7500958 10.586731 2.3418052e-38
9.5982037 4.693944 10.718384 2.3418052e-38
9.6391068 4.6859579 10.737146 2.3418052e-38
9.8208208 4.6601353 10.797923 2.3418052e-38
9.9100828 4.6208863 10.889892 2.3418052e-38
9.9704428 4.589097 10.964356 2.3418052e-38
10.175044 4.5175753 11.132041 2.3418052e-38
10.231894 4.5124145 11.144232 2.3418052e-38
10.319535 4.478579 11.223539 2.3418052e-38
10.410975 4.4434209 11.305949 2.3418052e-38
10.509048 4.4005966 11.406299 2.3418052e-38
10.641098 4.3862305 11.440178 2.3418052e-38
10.717235 4.3628983 11.4949 2.3418052e-38
10.907513 4.3480692 11.529988 2.3418052e-38
11.008649 4.3100977 11.618998 2.3418052e-38
11.218079 4.2258854 11.816366 2.3418052e-38
11.330277 4.1782861 11.927912 2.3418052e-38
11.502085 4.1298728 12.041491 2.3418052e-38
11.552202 4.0891023 12.136934 2.3418052e-38
11.640506 4.0442343 12.24204 2.3418052e-38
11.832434 4.0184641 12.302716 2.3418052e-38
12.004909 3.9690225 12.4187 2.3418052e-38
12.130839 3.9163339 12.542175 2.3418052e-38
12.372587 3.8258495 12.754281 2.3418052e-38
12.49559 3.7797449 12.862354 2.3418052e-38
12.503045 3.7711296 12.882517 2.3418052e-38
12.516217 3.7072971 13.031804 2.3418052e-38
12.764926 3.6669812 13.126616 2.3418052e-38
12.950475 3.6335793 13.205123 2.3418052e-38
13.016213 3.6329846 13.206656 2.3418052e-38
13.14877 3.5836911 13.322207 2.3418052e-38
13.289284 3.5316956 13.444095 2.3418052e-38
13.497664 3.4789076 13.567982 2.3418052e-38
13.643092 3.4252729 13.693712 2.3418052e-38
13.659061 3.4068167 13.736902 2.3418052e-38
13.727655 3.3627548 13.840081 2.3418052e-38
13.893009 3.288548 14.013959 2.3418052e-38
13.875134 3.2633667 14.072801 2.3418052e-38
13.867659 3.1953568 14.231813 2.3418052e-38
14.212046 3.1633575 14.307386 2.3418052e-38
14.191138 3.0663018 14.534286 2.3418052e-38
14.149512 2.9878991 14.717525 2.3418052e-38
14.102195 2.9590864 14.784797 2.3418052e-38
14.037876 2.9499207 14.806088 2.3418052e-38
13.973557 2.9407556 14.82738 2.3418052e-38
13.909239 2.9315903 14.848672 2.3418052e-38
13.7721 2.9230831 14.868266 2.3418052e-38
13.61324 2.8036859 15.147107 2.3418052e-38
13.569016 2.7189612 15.345124 2.3418052e-38
13.437522 2.7002237 15.388654 2.3418052e-38
13.371773 2.6908543 15.410419 2.3418052e-38
13.240483 2.6420875 15.524166 2.3418052e-38
13.203235 2.6169355 15.582896 2.3418052e-38
13.165987 2.5917857 15.641624 2.3418052e-38
13.130314 2.566617 15.700397 2.3418052e-38
13.114532 2.5357091 15.772636 2.3418052e-38
13.063078 2.4796331 15.903648 2.3418052e-38
13.044711 2.4278643 16.02466 2.3418052e-38
12.977484 2.4182842 16.046915 2.3418052e-38
12.891045 2.3848059 16.12501 2.3418052e-38
12.640316 2.2990878 16.3249 2.3418052e-38
12.572321 2.2893987 16.347408 2.3418052e-38
12.420574 2.1875756 16.585173 2.3418052e-38
12.346935 2.1378527 16.701279 2.3418052e-38
12.304414 2.1666594 16.633829 2.3418052e-38
12.102882 2.1951678 16.566729 2.3418052e-38
11.96037 2.2021964 16.549986 2.3418052e-38
11.859097 2.1858709 16.587938 2.3418052e-38
11.742594 2.1484294 16.675236 2.3418052e-38
11.563205 2.1582394 16.651907 2.3418052e-38
11.379576 2.2024357 16.548164 2.3418052e-38
11.175685 2.2524347 16.430807 2.3418052e-38
11.104058 2.3641286 16.169477 2.3418052e-38
10.932204 2.4042211 16.075356 2.3418052e-38
10.890054 2.4147851 16.050562 2.3418052e-38
10.808085 2.4954324 15.861806 2.3418052e-38
10.787236 2.5006583 15.849542 2.3418052e-38
10.620412 2.539422 15.758538 2.3418052e-38
10.384528 2.6526332 15.493301 2.3418052e-38
10.305994 2.7581413 15.246423 2.3418052e-38
10.298322 2.7900081 15.171891 2.3418052e-38
10.17415 2.8727329 14.978184 2.3418052e-38
10.074916 2.8953421 14.925103 2.3418052e-38
10.016088 2.9100854 14.890499 2.3418052e-38
9.8279428 2.9594193 14.774733 2.3418052e-38
9.7915907 2.9847686 14.715381 2.3418052e-38
9.6306171 3.016362 14.641155 2.3418052e-38
9.3889666 2.9657419 14.758995 2.3418052e-38
9.3438177 2.9094546 14.890515 2.3418052e-38
9.1796083 2.9116116 14.885115 2.3418052e-38
8.9594431 2.9984088 14.681678 2.3418052e-38
8.8408566 3.0348208 14.596277 2.3418052e-38
8.534812 3.0447321 14.572438 2.3418052e-38
8.2543545 3.1304479 14.371399 2.3418052e-38
8.18188 3.1263297 14.38087 2.3418052e-38
8.0881939 3.1613696 14.298732 2.3418052e-38
7.8235922 3.2063839 14.192901 2.3418052e-38
7.7723064 3.222981 14.15398 2.3418052e-38
7.6549911 3.2507155 14.088874 2.3418052e-38
7.4754624 3.2352369 14.124679 2.3418052e-38
7.3619156 3.2548664 14.07853 2.3418052e-38
7.2367225 3.2887757 13.998969 2.3418052e-38
7.1199126 3.3291786 13.904241 2.3418052e-38
6.9345298 3.3478403 13.860202 2.3418052e-38
6.7816663 3.4068668 13.721848 2.3418052e-38
6.643024 3.4048431 13.726278 2.3418052e-38
6.3882093 3.3260019 13.910079 2.3418052e-38
6.3275862 3.3120894 13.94248 2.3418052e-38
6.0747228 3.3448715 13.865275 2.3418052e-38
6.0218148 3.3373332 13.882789 2.3418052e-38
5.9689074 3.329793 13.900304 2.3418052e-38
5.9159989 3.3222537 13.917818 2.3418052e-38
5.8630919 3.3147149 13.935332 2.3418052e-38
5.7177243 3.3043373 13.959281 2.3418052e-38
5.5610309 3.3279426 13.903746 2.3418052e-38
5.4850736 3.3464551 13.860291 2.3418052e-38
5.3639088 3.3651447 13.816328 2.3418052e-38
5.1224966 3.2657664 14.04818 2.3418052e-38
5.0531492 3.2161672 14.164007 2.3418052e-38
5.05864 3.1172523 14.395312 2.3418052e-38
5.021791 3.0762732 14.491055 2.3418052e-38
4.9948235 3.0679255 14.510515 2.3418052e-38
4.9164319 2.973114 14.732042 2.3418052e-38
4.904429 2.9260585 14.842049 2.3418052e-38
4.863461 2.8530486 15.012677 2.3418052e-38
4.8634391 2.8487396 15.022754 2.3418052e-38
4.9071074 2.7996583 15.137615 2.3418052e-38
5.0641899 2.7374294 15.283468 2.3418052e-38
5.1676831 2.6687503 15.444284 2.3418052e-38
5.2434554 2.6264498 15.543362 2.3418052e-38
5.3011656 2.6130948 15.574714 2.3418052e-38
5.3408575 2.4886622 15.865761 2.3418052e-38
5.3616176 2.4335704 15.994628 2.3418052e-38
5.4118018 2.3784158 16.123705 2.3418052e-38
5.4117785 2.3737803 16.134544 2.3418052e-38
5.4030027 2.2980411 16.311628 2.3418052e-38
5.4029789 2.2933614 16.322571 2.3418052e-38
5.3931489 2.2360301 16.456606 2.3418052e-38
5.57055 2.1705871 16.610018 2.3418052e-38
5.624054 2.1065619 16.759846 2.3418052e-38
5.6240292 2.1017432 16.771111 2.3418052e-38
5.6549406 2.0535944 16.883766 2.3418052e-38
5.4603009 1.9803753 17.054552 2.3418052e-38
