# .PCD v0.7 - Point Cloud Data file format
VERSION 0.7
FIELDS x y z rgb
SIZE 4 4 4 4
TYPE F F F F
COUNT 1 1 1 1
WIDTH 1053
HEIGHT 1
VIEWPOINT 0 0 0 1 0 0 0
POINTS 1053
DATA ascii
2.5194645 1.3391777 1.5426186 2.3418052e-38
2.5063186 1.3323019 1.542531 2.3418052e-38
2.4922407 1.3250253 1.542437 2.3418052e-38
2.4586554 1.2912098 1.5422484 2.3418052e-38
2.3562989 1.3528159 1.5413178 2.3418052e-38
2.3517046 1.3673075 1.5412508 2.3418052e-38
2.3465157 1.3780667 1.5411872 2.3418052e-38
2.3157942 1.3653154 1.5409753 2.3418052e-38
2.2461317 1.3621147 1.5404394 2.3418052e-38
2.2169716 1.3606799 1.5402153 2.3418052e-38
2.1614318 1.3672307 1.5397685 2.3418052e-38
2.1477625 1.3603138 1.5396769 2.3418052e-38
2.0739186 1.3748906 1.53907 2.3418052e-38
2.0446949 1.358788 1.5388771 2.3418052e-38
2.0339024 1.3512429 1.5388093 2.3418052e-38
2.0206568 1.3438609 1.5387222 2.3418052e-38
1.9150764 1.3538753 1.5378779 2.3418052e-38
1.8939428 1.3771137 1.537663 2.3418052e-38
1.8811401 1.3701569 1.5375783 2.3418052e-38
1.8663272 1.3627641 1.5374788 2.3418052e-38
1.7752721 1.4080517 1.5366716 2.3418052e-38
1.7677567 1.4431313 1.5365371 2.3418052e-38
1.7673136 1.459412 1.5364985 2.3418052e-38
1.7697639 1.5187658 1.5363892 2.3418052e-38
1.7692788 1.5595657 1.5362972 2.3418052e-38
1.7789984 1.5977523 1.5362906 2.3418052e-38
1.774492 1.6098174 1.5362293 2.3418052e-38
1.7729372 1.6772399 1.5360717 2.3418052e-38
1.7762256 1.6980007 1.5360522 2.3418052e-38
1.7819852 1.7152585 1.5360599 2.3418052e-38
1.7915027 1.7369827 1.536087 2.3418052e-38
1.7948484 1.8025465 1.5359713 2.3418052e-38
1.7813327 1.8478959 1.535768 2.3418052e-38
1.7961215 1.887743 1.5357971 2.3418052e-38
1.8085232 1.9101971 1.5358453 2.3418052e-38
1.8306357 1.9326613 1.535969 2.3418052e-38
1.8355411 1.9413766 1.5359885 2.3418052e-38
1.8551048 1.9681779 1.5360829 2.3418052e-38
1.8640981 1.9889489 1.536108 2.3418052e-38
1.8795468 2.0164149 1.5361691 2.3418052e-38
1.8897262 2.0355973 1.5362071 2.3418052e-38
1.8820519 2.0481932 1.5361199 2.3418052e-38
1.8751278 2.0630684 1.5360339 2.3418052e-38
1.8573496 2.1638417 1.5356776 2.3418052e-38
1.8654969 2.173142 1.5357208 2.3418052e-38
1.8885401 2.2001622 1.5358422 2.3418052e-38
1.9147376 2.2132795 1.5360178 2.3418052e-38
1.9336709 2.2403545 1.5361068 2.3418052e-38
1.9431894 2.2617497 1.5361347 2.3418052e-38
1.9374996 2.3087332 1.5359887 2.3418052e-38
1.9528415 2.3492603 1.5360209 2.3418052e-38
1.9755554 2.393945 1.5361012 2.3418052e-38
1.9813229 2.4132195 1.5361044 2.3418052e-38
1.9974548 2.437752 1.536177 2.3418052e-38
1.9983734 2.4714193 1.5361115 2.3418052e-38
2.0081291 2.5113785 1.536101 2.3418052e-38
1.9909822 2.5347366 1.5359169 2.3418052e-38
2.0319679 2.6372139 1.5360149 2.3418052e-38
2.0419126 2.64273 1.5360805 2.3418052e-38
2.053431 2.6489048 1.5361569 2.3418052e-38
2.0765953 2.6772084 1.5362763 2.3418052e-38
2.0905182 2.7015347 1.536332 2.3418052e-38
2.1007538 2.7246935 1.5363618 2.3418052e-38
2.1131051 2.7625864 1.5363761 2.3418052e-38
2.1077776 2.7762098 1.5363052 2.3418052e-38
2.1029754 2.7823868 1.5362544 2.3418052e-38
2.065068 2.7889318 1.5359447 2.3418052e-38
2.0328791 2.7867751 1.5356988 2.3418052e-38
1.9743898 2.7989604 1.5352166 2.3418052e-38
1.9564664 2.8124394 1.5350479 2.3418052e-38
1.9376942 2.806756 1.5349139 2.3418052e-38
1.8992268 2.7848561 1.5346617 2.3418052e-38
1.8821082 2.7761247 1.5345471 2.3418052e-38
1.8751374 2.773159 1.5344993 2.3418052e-38
1.8322357 2.7681327 1.5341759 2.3418052e-38
1.7935351 2.774297 1.5338608 2.3418052e-38
1.7686301 2.7786679 1.5336574 2.3418052e-38
1.7543566 2.781251 1.5335407 2.3418052e-38
1.7214525 2.7743752 1.5332992 2.3418052e-38
1.6911699 2.7708321 1.5330709 2.3418052e-38
1.6741871 2.765415 1.5329503 2.3418052e-38
1.6611108 2.7614548 1.5328569 2.3418052e-38
1.57207 2.7588229 1.5321689 2.3418052e-38
1.5614474 2.7512674 1.5321023 2.3418052e-38
1.5209608 2.7289028 1.5318353 2.3418052e-38
1.4648876 2.7057109 1.5314486 2.3418052e-38
1.393981 2.7358332 1.5308311 2.3418052e-38
1.3753172 2.7384152 1.5306801 2.3418052e-38
1.3402632 2.7408578 1.5304017 2.3418052e-38
1.3265209 2.7333934 1.5303108 2.3418052e-38
1.3208883 2.7116671 1.5303138 2.3418052e-38
1.3125731 2.6934905 1.5302882 2.3418052e-38
1.2792567 2.6596 1.530102 2.3418052e-38
1.2579802 2.6321087 1.5299956 2.3418052e-38
1.2361177 2.6044142 1.5298851 2.3418052e-38
1.1968969 2.583833 1.5296241 2.3418052e-38
1.1802711 2.5586441 1.5295489 2.3418052e-38
1.1538991 2.528398 1.5294088 2.3418052e-38
1.1569166 2.4969485 1.5295002 2.3418052e-38
1.1348689 2.40309 1.5295314 2.3418052e-38
1.1229866 2.3967588 1.5294526 2.3418052e-38
1.1084626 2.3892725 1.5293554 2.3418052e-38
1.1019294 2.3693619 1.5293474 2.3418052e-38
1.080964 2.3416724 1.5292442 2.3418052e-38
0.95917243 2.3116429 1.5283601 2.3418052e-38
0.93656683 2.3164284 1.5281736 2.3418052e-38
0.83982021 2.2991543 1.527457 2.3418052e-38
0.81468689 2.3156595 1.5272257 2.3418052e-38
0.7763111 2.3267093 1.5269028 2.3418052e-38
0.73516715 2.3106949 1.5266169 2.3418052e-38
0.67299819 2.2953858 1.5261655 2.3418052e-38
0.65840054 2.2926247 1.5260577 2.3418052e-38
0.61239433 2.2804658 1.5257255 2.3418052e-38
0.5635131 2.2729774 1.5253609 2.3418052e-38
0.54983586 2.2640152 1.5252737 2.3418052e-38
0.53720194 2.2566757 1.5251913 2.3418052e-38
0.52300143 2.2500308 1.5250949 2.3418052e-38
0.50698823 2.2450588 1.5249809 2.3418052e-38
0.49489105 2.2359095 1.5249064 2.3418052e-38
0.48888987 2.2167017 1.5249012 2.3418052e-38
0.47414768 2.1758695 1.5248744 2.3418052e-38
0.45423281 2.1483152 1.5247791 2.3418052e-38
0.44716594 2.1258912 1.5247722 2.3418052e-38
0.42735782 2.1012988 1.5246712 2.3418052e-38
0.40921387 2.0754576 1.5245856 2.3418052e-38
0.3811096 2.025094 1.5244756 2.3418052e-38
0.34303337 1.9937042 1.5242466 2.3418052e-38
0.32500404 1.9655771 1.5241669 2.3418052e-38
0.3139433 1.9267439 1.5241647 2.3418052e-38
0.32132351 1.911489 1.5242554 2.3418052e-38
0.3248958 1.8993487 1.5243093 2.3418052e-38
0.33101571 1.8860486 1.5243857 2.3418052e-38
0.35301852 1.8829582 1.5245639 2.3418052e-38
0.39030701 1.8836099 1.5248529 2.3418052e-38
0.42278323 1.8841239 1.5251049 2.3418052e-38
0.44331008 1.8782772 1.5252776 2.3418052e-38
0.46633163 1.8736932 1.5254666 2.3418052e-38
0.50567842 1.861077 1.5258006 2.3418052e-38
0.52815604 1.8563031 1.5259861 2.3418052e-38
0.54703426 1.8495139 1.5261478 2.3418052e-38
0.56710041 1.8434691 1.5263171 2.3418052e-38
0.58804172 1.8378009 1.5264926 2.3418052e-38
0.63491011 1.831266 1.5268719 2.3418052e-38
0.65029198 1.8268785 1.5270013 2.3418052e-38
0.67359006 1.8158962 1.5272064 2.3418052e-38
0.69640309 1.8074352 1.5274024 2.3418052e-38
0.71947157 1.790382 1.527619 2.3418052e-38
0.72847944 1.7784327 1.5277151 2.3418052e-38
0.74694055 1.7717636 1.5278735 2.3418052e-38
0.77707106 1.7545984 1.5281451 2.3418052e-38
0.7948159 1.7495362 1.5282946 2.3418052e-38
0.85641646 1.7294381 1.5288178 2.3418052e-38
0.8654511 1.7211535 1.5289061 2.3418052e-38
0.88520914 1.7112504 1.5290816 2.3418052e-38
0.93140817 1.7020614 1.5294613 2.3418052e-38
0.94606489 1.6970513 1.5295862 2.3418052e-38
0.99601108 1.6696345 1.5300347 2.3418052e-38
1.0151997 1.6632124 1.5301982 2.3418052e-38
1.0370812 1.6579486 1.5303799 2.3418052e-38
1.0562874 1.6515338 1.5305436 2.3418052e-38
1.076847 1.6455851 1.5307165 2.3418052e-38
1.1268902 1.6220239 1.5311573 2.3418052e-38
1.1546307 1.6033382 1.5314137 2.3418052e-38
1.1807834 1.5840142 1.5316592 2.3418052e-38
1.2184975 1.5846753 1.5319519 2.3418052e-38
1.2825273 1.4883685 1.5326588 2.3418052e-38
1.3018329 1.4819964 1.5328231 2.3418052e-38
1.3829468 1.3921556 1.5336491 2.3418052e-38
1.3983575 1.3669883 1.5338237 2.3418052e-38
1.4057157 1.3566748 1.5339034 2.3418052e-38
1.43156 1.338432 1.534144 2.3418052e-38
1.4591361 1.3160884 1.5344073 2.3418052e-38
1.5022702 1.272276 1.534838 2.3418052e-38
1.5116568 1.2597919 1.5349379 2.3418052e-38
1.5242773 1.2501827 1.5350571 2.3418052e-38
1.5360298 1.2388194 1.5351732 2.3418052e-38
1.5599264 1.2359313 1.5353656 2.3418052e-38
1.6173972 1.1836081 1.5359266 2.3418052e-38
1.6233063 1.1702524 1.5360014 2.3418052e-38
1.6314303 1.1578501 1.5360916 2.3418052e-38
1.6356198 1.1551563 1.5361301 2.3418052e-38
1.6745079 1.0810684 1.536593 2.3418052e-38
1.6728059 1.0439 1.5366603 2.3418052e-38
1.67611 1.0327744 1.5367101 2.3418052e-38
1.682862 1.0197817 1.5367908 2.3418052e-38
1.6963897 0.99380666 1.5369523 2.3418052e-38
1.7062024 0.98390031 1.5370501 2.3418052e-38
1.7153955 0.97052991 1.5371506 2.3418052e-38
1.7424124 0.95041031 1.5374047 2.3418052e-38
1.7592837 0.91080266 1.5376216 2.3418052e-38
1.7757469 0.88473421 1.5378063 2.3418052e-38
1.8083677 0.82203603 1.5381961 2.3418052e-38
1.8142625 0.79091561 1.5383091 2.3418052e-38
1.8430169 0.78907144 1.538537 2.3418052e-38
1.8574718 0.79651046 1.5386336 2.3418052e-38
1.864024 0.80054778 1.5386759 2.3418052e-38
1.8870211 0.82500714 1.5388024 2.3418052e-38
1.9003624 0.83468992 1.5388852 2.3418052e-38
1.919331 0.84535706 1.53901 2.3418052e-38
1.9314275 0.8515445 1.539091 2.3418052e-38
1.9442014 0.85798395 1.5391766 2.3418052e-38
2.0047662 0.87319005 1.5396156 2.3418052e-38
2.027462 0.88475847 1.5397674 2.3418052e-38
2.0362213 0.88927114 1.539826 2.3418052e-38
2.0596011 0.90176916 1.539981 2.3418052e-38
2.065522 0.90448654 1.5400213 2.3418052e-38
2.0758214 0.91048515 1.5400885 2.3418052e-38
2.0817168 0.91954947 1.5401149 2.3418052e-38
2.1102166 0.94518209 1.5402815 2.3418052e-38
2.1225145 0.9512217 1.5403644 2.3418052e-38
2.1494582 0.96486437 1.5405447 2.3418052e-38
2.1644273 0.97261906 1.5406446 2.3418052e-38
2.1960979 0.97976142 1.5408759 2.3418052e-38
2.234751 0.99650246 1.541141 2.3418052e-38
2.2527158 1.0017387 1.5412695 2.3418052e-38
2.2853801 1.0022879 1.541523 2.3418052e-38
2.377286 0.93460345 1.5423852 2.3418052e-38
2.3675263 0.88004148 1.5424271 2.3418052e-38
2.3707557 0.86754191 1.5424793 2.3418052e-38
2.3918371 0.85682058 1.5426667 2.3418052e-38
2.4057505 0.85810274 1.5427724 2.3418052e-38
2.4372876 0.86730653 1.5429982 2.3418052e-38
2.46156 0.89086133 1.5431364 2.3418052e-38
2.473485 0.89810866 1.5432136 2.3418052e-38
2.4867334 0.90935963 1.5432926 2.3418052e-38
2.5306244 0.96589017 1.5435123 2.3418052e-38
2.5848598 1.0271533 1.5438025 2.3418052e-38
2.5980151 1.0331824 1.543892 2.3418052e-38
2.6136079 1.0410506 1.5439966 2.3418052e-38
2.6274965 1.0481488 1.5440893 2.3418052e-38
2.6452339 1.0573626 1.5442075 2.3418052e-38
2.6543746 1.0627642 1.5442672 2.3418052e-38
2.6651783 1.0680192 1.54434 2.3418052e-38
2.6706023 1.0874678 1.5443401 2.3418052e-38
2.6702864 1.121406 1.5442643 2.3418052e-38
2.6755607 1.1400295 1.5442653 2.3418052e-38
0.75288004 -1.9857669 1.5360409 2.3431016e-38
0.72867781 -1.9673647 1.5358125 2.3431016e-38
0.71458167 -1.974726 1.5357186 2.3431016e-38
0.68706214 -1.9877598 1.5355324 2.3431016e-38
0.6143111 -1.9937589 1.5349785 2.3431016e-38
0.58201081 -1.9939821 1.5347273 2.3431016e-38
0.52404314 -1.9910676 1.5342693 2.3431016e-38
0.47605219 -1.9994878 1.5339136 2.3431016e-38
0.47108957 -2.0185411 1.5339161 2.3431016e-38
0.46404749 -2.038703 1.5339048 2.3431016e-38
0.41544563 -2.0777109 1.5336105 2.3431016e-38
0.40164208 -2.0876074 1.5335244 2.3431016e-38
0.38659883 -2.0954096 1.5334241 2.3431016e-38
0.33936864 -2.1022329 1.5330708 2.3431016e-38
0.2883321 -2.0803959 1.5326258 2.3431016e-38
0.24451743 -2.0863602 1.5322975 2.3431016e-38
0.19920361 -2.086838 1.5319455 2.3431016e-38
0.23739515 -2.0903139 1.5322505 2.3431016e-38
0.25763389 -2.0954142 1.5324192 2.3431016e-38
0.2608456 -2.0965309 1.5324466 2.3431016e-38
0.31247306 -2.1338723 1.5329297 2.3431016e-38
0.31913131 -2.1469197 1.5330095 2.3431016e-38
0.32753611 -2.174355 1.5331346 2.3431016e-38
0.32909805 -2.1909087 1.5331825 2.3431016e-38
0.33286774 -2.2143202 1.5332624 2.3431016e-38
0.34280947 -2.2501032 1.5334172 2.3431016e-38
0.35110754 -2.2623563 1.5335083 2.3431016e-38
0.35825971 -2.3081815 1.5336629 2.3431016e-38
0.36440757 -2.3214715 1.5337397 2.3431016e-38
0.36932397 -2.3354146 1.5338082 2.3431016e-38
0.37083092 -2.3676486 1.5338895 2.3431016e-38
0.37519047 -2.38394 1.5339587 2.3431016e-38
0.39290386 -2.3892946 1.5341084 2.3431016e-38
0.40267932 -2.3852658 1.5341759 2.3431016e-38
0.43290767 -2.368906 1.5343759 2.3431016e-38
0.44296286 -2.362942 1.5344414 2.3431016e-38
0.50699341 -2.3453856 1.5349023 2.3431016e-38
0.51955193 -2.3423727 1.5349936 2.3431016e-38
0.55408728 -2.3372083 1.5352516 2.3431016e-38
0.59403086 -2.3339319 1.5355558 2.3431016e-38
0.64402139 -2.3422632 1.5359632 2.3431016e-38
0.6814875 -2.3380408 1.5362458 2.3431016e-38
0.76113522 -2.3298347 1.5368489 2.3431016e-38
0.78454155 -2.3341634 1.5370406 2.3431016e-38
0.79909933 -2.3259606 1.5371362 2.3431016e-38
0.81204408 -2.3217058 1.5372279 2.3431016e-38
0.84193742 -2.3083794 1.5374321 2.3431016e-38
0.84585518 -2.2857859 1.5374137 2.3431016e-38
0.83602422 -2.2576082 1.5372761 2.3431016e-38
0.82512689 -2.2062566 1.5370803 2.3431016e-38
0.82127088 -2.1996033 1.5370358 2.3431016e-38
0.80345696 -2.1594303 1.5368103 2.3431016e-38
0.79873008 -2.1458089 1.536744 2.3431016e-38
0.79150689 -2.132731 1.5366595 2.3431016e-38
0.78643817 -2.1188734 1.5365901 2.3431016e-38
0.77471077 -2.0752547 1.5364044 2.3431016e-38
0.77057451 -2.0606918 1.5363407 2.3431016e-38
0.76218122 -2.033577 1.5362165 2.3431016e-38
0.75288004 -1.9857669 1.5360409 2.3431016e-38
-1.3766721 -4.8736272 1.5256906 2.3443981e-38
-1.3890424 -4.8470674 1.5255367 2.3443981e-38
-1.394966 -4.8363376 1.5254673 2.3443981e-38
-1.4069105 -4.7763972 1.5252447 2.3443981e-38
-1.417327 -4.7630177 1.5251346 2.3443981e-38
-1.4241661 -4.7500615 1.5250533 2.3443981e-38
-1.430541 -4.7368755 1.5249752 2.3443981e-38
-1.4388187 -4.7259865 1.5248871 2.3443981e-38
-1.4558465 -4.7003803 1.5246991 2.3443981e-38
-1.4599366 -4.6870766 1.5246387 2.3443981e-38
-1.4799298 -4.6592751 1.5244226 2.3443981e-38
-1.485527 -4.6491671 1.5243572 2.3443981e-38
-1.4935863 -4.6210136 1.5242336 2.3443981e-38
-1.511925 -4.5989976 1.5240431 2.3443981e-38
-1.5312543 -4.5734377 1.5238371 2.3443981e-38
-1.5392544 -4.5619197 1.5237499 2.3443981e-38
-1.5443801 -4.5483212 1.5236807 2.3443981e-38
-1.5515791 -4.5336418 1.5235929 2.3443981e-38
-1.5646081 -4.5080385 1.5234361 2.3443981e-38
-1.5704165 -4.4933801 1.5233592 2.3443981e-38
-1.5923259 -4.4580865 1.5231122 2.3443981e-38
-1.6025461 -4.4298358 1.5229715 2.3443981e-38
-1.6095164 -4.416945 1.5228893 2.3443981e-38
-1.6245401 -4.3917017 1.5227176 2.3443981e-38
-1.6307532 -4.3809419 1.522646 2.3443981e-38
-1.6383015 -4.3659968 1.5225549 2.3443981e-38
-1.6453183 -4.3524032 1.5224708 2.3443981e-38
-1.6490009 -4.3384442 1.5224119 2.3443981e-38
-1.6576546 -4.3182044 1.5223007 2.3443981e-38
-1.6766199 -4.2934098 1.5220994 2.3443981e-38
-1.6918658 -4.2640209 1.5219172 2.3443981e-38
-1.7052298 -4.235549 1.5217514 2.3443981e-38
-1.7124552 -4.225121 1.5216727 2.3443981e-38
-1.7205387 -4.2104459 1.5215781 2.3443981e-38
-1.7264491 -4.1973577 1.5215037 2.3443981e-38
-1.7379985 -4.1718731 1.5213585 2.3443981e-38
-1.7464783 -4.1579218 1.5212623 2.3443981e-38
-1.7598433 -4.1322327 1.5211027 2.3443981e-38
-1.7734842 -4.1058855 1.5209392 2.3443981e-38
-1.7874184 -4.0801344 1.5207752 2.3443981e-38
-1.7975638 -4.0688224 1.5206717 2.3443981e-38
-1.8060558 -4.0371437 1.5205369 2.3443981e-38
-1.808235 -4.0249143 1.5204935 2.3443981e-38
-1.7855648 -3.9814887 1.5205764 2.3443981e-38
-1.7632678 -3.9536602 1.52069 2.3443981e-38
-1.7476331 -3.9277191 1.5207558 2.3443981e-38
-1.7414075 -3.9079635 1.5207615 2.3443981e-38
-1.7272838 -3.8839695 1.5208198 2.3443981e-38
-1.7187226 -3.8669417 1.5208495 2.3443981e-38
-1.7133309 -3.8437159 1.5208414 2.3443981e-38
-1.7062781 -3.8345485 1.5208764 2.3443981e-38
-1.6894077 -3.7972894 1.5209275 2.3443981e-38
-1.6861922 -3.7801921 1.5209157 2.3443981e-38
-1.6891091 -3.7554567 1.5208395 2.3443981e-38
-1.6854187 -3.7476885 1.5208513 2.3443981e-38
-1.6800231 -3.7275176 1.5208497 2.3443981e-38
-1.6604564 -3.7008781 1.5209448 2.3443981e-38
-1.6499473 -3.6789496 1.5209792 2.3443981e-38
-1.6420518 -3.6631098 1.5210066 2.3443981e-38
-1.6124456 -3.6263764 1.5211577 2.3443981e-38
-1.6043011 -3.6058066 1.5211767 2.3443981e-38
-1.591621 -3.5827181 1.5212255 2.3443981e-38
-1.5806934 -3.543963 1.5212269 2.3443981e-38
-1.5643071 -3.5190594 1.5213007 2.3443981e-38
-1.5404794 -3.4736834 1.5213883 2.3443981e-38
-1.5325181 -3.4542434 1.5214084 2.3443981e-38
-1.5198071 -3.4299648 1.5214552 2.3443981e-38
-1.5083672 -3.4071171 1.5214949 2.3443981e-38
-1.502813 -3.3576455 1.5214311 2.3443981e-38
-1.4944458 -3.3367579 1.5214511 2.3443981e-38
-1.4686366 -3.2877481 1.5215462 2.3443981e-38
-1.4414735 -3.2572935 1.521692 2.3443981e-38
-1.432267 -3.2360613 1.5217179 2.3443981e-38
-1.4276688 -3.2171133 1.5217127 2.3443981e-38
-1.4085052 -3.1906223 1.5218049 2.3443981e-38
-1.3984332 -3.1522911 1.5218006 2.3443981e-38
-1.3790493 -3.1257358 1.5218942 2.3443981e-38
-1.3708752 -3.1071675 1.5219178 2.3443981e-38
-1.3631184 -3.0843725 1.5219289 2.3443981e-38
-1.3604376 -3.0644751 1.5219067 2.3443981e-38
-1.3551499 -3.0444832 1.5219047 2.3443981e-38
-1.4020724 -2.9563749 1.5213487 2.3443981e-38
-1.4094318 -2.9537842 1.5212858 2.3443981e-38
-1.4235994 -2.9509249 1.5211692 2.3443981e-38
-1.4363515 -2.9409671 1.5210483 2.3443981e-38
-1.4333651 -2.9219177 1.5210304 2.3443981e-38
-1.428731 -2.9025733 1.5210247 2.3443981e-38
-1.4278914 -2.8869302 1.5209976 2.3443981e-38
-1.4287406 -2.8387599 1.5208868 2.3443981e-38
-1.4258251 -2.803349 1.5208328 2.3443981e-38
-1.4262573 -2.770653 1.5207587 2.3443981e-38
-1.428418 -2.7562482 1.5207109 2.3443981e-38
-1.4326675 -2.7400205 1.5206426 2.3443981e-38
-1.4327092 -2.7249696 1.5206097 2.3443981e-38
-1.4354897 -2.7094393 1.5205545 2.3443981e-38
-1.4372773 -2.6937635 1.5205066 2.3443981e-38
-1.4333644 -2.6742332 1.5204951 2.3443981e-38
-1.4266347 -2.6385646 1.5204706 2.3443981e-38
-1.4244753 -2.621114 1.5204495 2.3443981e-38
-1.4303935 -2.5903761 1.520337 2.3443981e-38
-1.4299911 -2.5785596 1.5203146 2.3443981e-38
-1.4369168 -2.5432436 1.5201842 2.3443981e-38
-1.4694638 -2.4972882 1.5198314 2.3443981e-38
-1.4544261 -2.4537768 1.5198545 2.3443981e-38
-1.5362028 -2.366102 1.5190279 2.3443981e-38
-1.5525051 -2.3578205 1.5188831 2.3443981e-38
-1.5539777 -2.3560934 1.5188676 2.3443981e-38
-1.5607024 -2.2806282 1.5186522 2.3443981e-38
-1.5564899 -2.2636106 1.5186484 2.3443981e-38
-1.5504431 -2.2417836 1.5186484 2.3443981e-38
-1.5562836 -2.1942925 1.5185001 2.3443981e-38
-1.574325 -2.1709242 1.5183089 2.3443981e-38
-1.5918869 -2.1472054 1.5181209 2.3443981e-38
-1.6717247 -2.0733752 1.5173393 2.3443981e-38
-1.7053939 -2.077913 1.5170869 2.3443981e-38
-1.7177829 -2.0807767 1.5169965 2.3443981e-38
-1.770925 -2.0766847 1.5165735 2.3443981e-38
-1.8229715 -2.1018479 1.5162225 2.3443981e-38
-1.8369832 -2.1257865 1.516165 2.3443981e-38
-1.874843 -2.178138 1.5159832 2.3443981e-38
-1.8950886 -2.1929224 1.5158575 2.3443981e-38
-1.9175972 -2.2106473 1.5157205 2.3443981e-38
-1.9375175 -2.2445972 1.5156385 2.3443981e-38
-1.9555112 -2.2539313 1.5155187 2.3443981e-38
-1.9613227 -2.2569504 1.5154798 2.3443981e-38
-1.9968618 -2.2918909 1.5152786 2.3443981e-38
-2.025702 -2.3232081 1.5151215 2.3443981e-38
-2.0439005 -2.3327954 1.5150001 2.3443981e-38
-2.0669496 -2.3447497 1.5148464 2.3443981e-38
-2.0891144 -2.3719559 1.5147325 2.3443981e-38
-2.1117897 -2.383852 1.5145818 2.3443981e-38
-2.1197312 -2.3881156 1.514529 2.3443981e-38
-2.1333179 -2.3951702 1.5144384 2.3443981e-38
-2.1464968 -2.4046733 1.5143563 2.3443981e-38
-2.1959164 -2.397944 1.5139567 2.3443981e-38
-2.2174649 -2.4004154 1.5137942 2.3443981e-38
-2.2375679 -2.3997462 1.5136361 2.3443981e-38
-2.2699845 -2.4008548 1.5133859 2.3443981e-38
-2.2762375 -2.4014289 1.5133384 2.3443981e-38
-2.3019598 -2.3997695 1.5131342 2.3443981e-38
-2.3242881 -2.4010823 1.5129632 2.3443981e-38
-2.3359685 -2.4010189 1.512872 2.3443981e-38
-2.3595891 -2.4039047 1.5126944 2.3443981e-38
-2.3744099 -2.4040968 1.5125793 2.3443981e-38
-2.3944829 -2.4075129 1.5124303 2.3443981e-38
-2.438457 -2.4040239 1.5120802 2.3443981e-38
-2.4957645 -2.4509332 1.511735 2.3443981e-38
-2.5007687 -2.4534166 1.5117013 2.3443981e-38
-2.5074749 -2.4496565 1.511641 2.3443981e-38
-2.5392945 -2.4418521 1.5113763 2.3443981e-38
-2.5606565 -2.4351277 1.5111953 2.3443981e-38
-2.5644798 -2.4207304 1.5111345 2.3443981e-38
-2.561275 -2.4023983 1.5111197 2.3443981e-38
-2.5693729 -2.3407855 1.5109233 2.3443981e-38
-2.5779266 -2.2956758 1.5107591 2.3443981e-38
-2.5716083 -2.2785697 1.5107714 2.3443981e-38
-2.564383 -2.2541082 1.510775 2.3443981e-38
-2.5594113 -2.2346523 1.5107715 2.3443981e-38
-2.5591738 -2.2196395 1.510741 2.3443981e-38
-2.573571 -2.1777134 1.5105381 2.3443981e-38
-2.5822282 -2.1657104 1.5104449 2.3443981e-38
-2.5873406 -2.1189332 1.510304 2.3443981e-38
-2.5892169 -2.0867739 1.5102198 2.3443981e-38
-2.5917761 -2.0554073 1.510132 2.3443981e-38
-2.5862823 -2.0438163 1.5101498 2.3443981e-38
-2.5733507 -2.0125952 1.5101831 2.3443981e-38
-2.5754788 -1.9806545 1.5100975 2.3443981e-38
-2.5792606 -1.9662354 1.5100368 2.3443981e-38
-2.5849872 -1.9529103 1.5099635 2.3443981e-38
-2.5862772 -1.9378048 1.5099207 2.3443981e-38
-2.5893204 -1.9213898 1.5098616 2.3443981e-38
-2.5837502 -1.902097 1.5098633 2.3443981e-38
-2.5710189 -1.8454539 1.50984 2.3443981e-38
-2.5724475 -1.829483 1.5097942 2.3443981e-38
-2.5728989 -1.8135655 1.5097564 2.3443981e-38
-2.5744519 -1.7988605 1.5097125 2.3443981e-38
-2.5903084 -1.7582231 1.5095011 2.3443981e-38
-2.6123037 -1.7026802 1.5092096 2.3443981e-38
-2.5967822 -1.6454098 1.5092069 2.3443981e-38
-2.565685 -1.5959517 1.5093422 2.3443981e-38
-2.5636766 -1.5789013 1.5093211 2.3443981e-38
-2.5645175 -1.5626827 1.5092795 2.3443981e-38
-2.5632539 -1.5291008 1.5092167 2.3443981e-38
-2.5782332 -1.4704269 1.5089732 2.3443981e-38
-2.5848818 -1.4573746 1.5088933 2.3443981e-38
-2.5916781 -1.4443989 1.5088122 2.3443981e-38
-2.6004169 -1.4160429 1.5086828 2.3443981e-38
-2.6021764 -1.4005673 1.5086358 2.3443981e-38
-2.6175365 -1.3591444 1.5084265 2.3443981e-38
-2.6103065 -1.3395662 1.5084406 2.3443981e-38
-2.6046052 -1.3186401 1.5084398 2.3443981e-38
-2.5896065 -1.2785763 1.5084701 2.3443981e-38
-2.6007113 -1.2347109 1.5082887 2.3443981e-38
-2.6069646 -1.2218022 1.5082122 2.3443981e-38
-2.6196201 -1.1626781 1.5079858 2.3443981e-38
-2.6111884 -1.1463765 1.5080162 2.3443981e-38
-2.6031635 -1.086428 1.5079491 2.3443981e-38
-2.6063232 -1.0716325 1.5078925 2.3443981e-38
-2.6067986 -1.0563188 1.5078557 2.3443981e-38
-2.6106381 -1.0255347 1.5077592 2.3443981e-38
-2.6138828 -1.0099958 1.5077003 2.3443981e-38
-2.5997388 -0.95412743 1.5076898 2.3443981e-38
-2.6028614 -0.93870693 1.507632 2.3443981e-38
-2.6083682 -0.92592835 1.5075617 2.3443981e-38
-2.607954 -0.92290318 1.5075583 2.3443981e-38
-2.6046081 -0.85827667 1.5074447 2.3443981e-38
-2.6049166 -0.85751605 1.5074407 2.3443981e-38
-2.6084509 -0.84335095 1.5073825 2.3443981e-38
-2.6053879 -0.8088156 1.5073316 2.3443981e-38
-2.6047981 -0.79134727 1.5072986 2.3443981e-38
-2.5990772 -0.75606322 1.5072668 2.3443981e-38
-2.6075249 -0.69387454 1.5070667 2.3443981e-38
-2.6023567 -0.6740756 1.5070641 2.3443981e-38
-2.5992477 -0.66024429 1.5070586 2.3443981e-38
-2.5934343 -0.61949503 1.5070158 2.3443981e-38
-2.5959611 -0.60549009 1.5069659 2.3443981e-38
-2.598613 -0.5900861 1.5069118 2.3443981e-38
-2.5946791 -0.5803926 1.5069215 2.3443981e-38
-2.5871403 -0.55143255 1.5069176 2.3443981e-38
-2.5883479 -0.50261521 1.5068027 2.3443981e-38
-2.598043 -0.47393033 1.5066652 2.3443981e-38
-2.6017118 -0.4596242 1.5066055 2.3443981e-38
-2.6141183 -0.383432 1.5063442 2.3443981e-38
-2.6232326 -0.35521901 1.5062122 2.3443981e-38
-2.6192653 -0.34391716 1.5062188 2.3443981e-38
-2.5927768 -0.27261308 1.5062712 2.3443981e-38
-2.6130683 -0.2197575 1.5059987 2.3443981e-38
-2.6409636 -0.19957554 1.5057378 2.3443981e-38
-2.6384625 -0.18296094 1.5057213 2.3443981e-38
-2.6542652 -0.12353767 1.5054699 2.3443981e-38
-2.6488349 -0.10415103 1.5054703 2.3443981e-38
-2.6839521 -0.023849837 1.5050231 2.3443981e-38
-2.7091403 -0.004763098 1.5047855 2.3443981e-38
-2.7072058 0.010351603 1.5047679 2.3443981e-38
-2.6899405 0.056160588 1.5048034 2.3443981e-38
-2.6901336 0.07194861 1.5047679 2.3443981e-38
-2.6885087 0.084803276 1.5047528 2.3443981e-38
-2.6804206 0.12727165 1.5047239 2.3443981e-38
-2.6838677 0.20599739 1.5045271 2.3443981e-38
-2.6892231 0.21615638 1.5044633 2.3443981e-38
-2.7001996 0.23160715 1.5043443 2.3443981e-38
-2.6963456 0.30034342 1.504226 2.3443981e-38
-2.674906 0.37838647 1.5042243 2.3443981e-38
-2.6692204 0.39667034 1.5042291 2.3443981e-38
-2.6666048 0.41411945 1.5042117 2.3443981e-38
-2.6657476 0.43126029 1.5041813 2.3443981e-38
-2.6543193 0.48604667 1.5041519 2.3443981e-38
-2.6487057 0.50526905 1.5041541 2.3443981e-38
-2.6465862 0.52402014 1.5041301 2.3443981e-38
-2.6483536 0.53897065 1.504084 2.3443981e-38
-2.6469767 0.57271743 1.5040218 2.3443981e-38
-2.6530142 0.60501832 1.5039048 2.3443981e-38
-2.6499329 0.63989884 1.5038537 2.3443981e-38
-2.6504886 0.67146945 1.503781 2.3443981e-38
-2.6487818 0.70029479 1.5037322 2.3443981e-38
-2.6578083 0.7324546 1.5035921 2.3443981e-38
-2.6587739 0.74858272 1.5035498 2.3443981e-38
-2.6604795 0.76275456 1.5035058 2.3443981e-38
-2.6610384 0.81486177 1.503389 2.3443981e-38
-2.668164 0.84261739 1.5032734 2.3443981e-38
-2.6764033 0.8708533 1.5031483 2.3443981e-38
-2.6769409 0.90535426 1.5030694 2.3443981e-38
-2.6798656 0.92126006 1.5030122 2.3443981e-38
-2.6753116 0.94003373 1.5030072 2.3443981e-38
-2.6733296 0.95656693 1.5029868 2.3443981e-38
-2.6658711 0.99468756 1.5029625 2.3443981e-38
-2.6656554 1.008944 1.5029334 2.3443981e-38
-2.6729066 1.0377823 1.5028145 2.3443981e-38
-2.6778717 1.0493864 1.5027509 2.3443981e-38
-2.6869836 1.0650704 1.5026459 2.3443981e-38
-2.6937664 1.0768571 1.5025676 2.3443981e-38
-2.6921074 1.0939877 1.5025434 2.3443981e-38
-2.6875567 1.1462451 1.5024661 2.3443981e-38
-2.6842 1.1640526 1.5024537 2.3443981e-38
-2.7014151 1.2378633 1.5021601 2.3443981e-38
-2.7015357 1.2547275 1.5021226 2.3443981e-38
-2.6804111 1.3309454 1.5021225 2.3443981e-38
-2.6977434 1.3714689 1.5018998 2.3443981e-38
-2.6961844 1.3812838 1.5018908 2.3443981e-38
-2.6992221 1.4703012 1.5016748 2.3443981e-38
-2.6654654 1.5402491 1.5017866 2.3443981e-38
-2.6587734 1.5601723 1.5017956 2.3443981e-38
-2.6565628 1.607831 1.5017101 2.3443981e-38
-2.6628389 1.6376284 1.5015967 2.3443981e-38
-2.6684449 1.6519765 1.5015221 2.3443981e-38
-2.6658771 1.6875015 1.5014652 2.3443981e-38
-2.6706171 1.7491215 1.501295 2.3443981e-38
-2.6803632 1.7764342 1.50116 2.3443981e-38
-2.67329 1.8629143 1.5010282 2.3443981e-38
-2.6776085 1.9111227 1.5008904 2.3443981e-38
-2.6769137 1.9603882 1.5007893 2.3443981e-38
-2.6793361 1.9761255 1.5007366 2.3443981e-38
-2.6932201 2.0178432 1.5005381 2.3443981e-38
-2.6942914 2.0477228 1.5004652 2.3443981e-38
-2.7081389 2.0925491 1.5002606 2.3443981e-38
-2.7160833 2.1049249 1.5001719 2.3443981e-38
-2.7101138 2.1434221 1.5001352 2.3443981e-38
-2.7112098 2.1570513 1.5000972 2.3443981e-38
-2.7216792 2.1846337 1.4999559 2.3443981e-38
-2.7299216 2.1954799 1.4998684 2.3443981e-38
-2.7379434 2.2091889 1.4997761 2.3443981e-38
-2.7252922 2.2328243 1.4998236 2.3443981e-38
-2.6955645 2.2899218 1.4999319 2.3443981e-38
-2.6879127 2.3176999 1.4999313 2.3443981e-38
-2.6781468 2.3227215 1.4999967 2.3443981e-38
-2.6624832 2.3265748 1.5001101 2.3443981e-38
-2.6485968 2.3293593 1.5002126 2.3443981e-38
-2.6395078 2.32832 1.5002854 2.3443981e-38
-2.5584981 2.3352523 1.5009017 2.3443981e-38
-2.5404468 2.3281784 1.5010576 2.3443981e-38
-2.5195439 2.3225164 1.5012329 2.3443981e-38
-2.4573896 2.3020675 1.5017612 2.3443981e-38
-2.4227979 2.3069053 1.5020205 2.3443981e-38
-2.4059153 2.315522 1.5021333 2.3443981e-38
-2.3789668 2.3119831 1.5023508 2.3443981e-38
-2.3304844 2.3304541 1.5026886 2.3443981e-38
-2.2756665 2.3369725 1.5031017 2.3443981e-38
-2.2681258 2.3374052 1.5031596 2.3443981e-38
-2.2472079 2.3412209 1.5033143 2.3443981e-38
-2.1861312 2.3769898 1.5037128 2.3443981e-38
-2.1642287 2.4403276 1.5037465 2.3443981e-38
-2.1637654 2.4695911 1.5036868 2.3443981e-38
-2.1584141 2.4769313 1.5037127 2.3443981e-38
-2.1535459 2.4790232 1.503746 2.3443981e-38
-2.1389434 2.4738476 1.5038711 2.3443981e-38
-2.1207271 2.4634118 1.5040356 2.3443981e-38
-2.1077778 2.4534521 1.504158 2.3443981e-38
-2.0803416 2.4349678 1.5044118 2.3443981e-38
-2.0094719 2.4394457 1.5049543 2.3443981e-38
-1.9350095 2.4945209 1.5054153 2.3443981e-38
-1.9254029 2.5159824 1.5054438 2.3443981e-38
-1.919801 2.5197599 1.5054791 2.3443981e-38
-1.8785002 2.5396519 1.505758 2.3443981e-38
-1.8308873 2.5799224 1.5060419 2.3443981e-38
-1.8280213 2.6482842 1.5059166 2.3443981e-38
-1.7971421 2.6771548 1.5060948 2.3443981e-38
-1.77693 2.6736093 1.5062599 2.3443981e-38
-1.7595619 2.6476953 1.5064514 2.3443981e-38
-1.7292839 2.5995374 1.5067914 2.3443981e-38
-1.6449877 2.6037791 1.5074388 2.3443981e-38
-1.6264834 2.6205866 1.5075468 2.3443981e-38
-1.6163218 2.6258245 1.5076145 2.3443981e-38
-1.5909241 2.6534162 1.5077528 2.3443981e-38
-1.5820956 2.6764326 1.5077718 2.3443981e-38
-1.5353079 2.6840029 1.5081198 2.3443981e-38
-1.5283184 2.6866953 1.5081686 2.3443981e-38
-1.4959067 2.6717496 1.5084535 2.3443981e-38
-1.4750081 2.6660857 1.5086285 2.3443981e-38
-1.4110537 2.6828299 1.5090907 2.3443981e-38
-1.4039506 2.683671 1.5091441 2.3443981e-38
-1.3653463 2.673296 1.5094674 2.3443981e-38
-1.2975843 2.6753633 1.5099908 2.3443981e-38
-1.2874945 2.6643264 1.5100933 2.3443981e-38
-1.2634357 2.6437447 1.5103251 2.3443981e-38
-1.1842275 2.6515017 1.5109257 2.3443981e-38
-1.1276575 2.6482494 1.5113735 2.3443981e-38
-1.078813 2.6735322 1.5116993 2.3443981e-38
-1.0736998 2.6762793 1.5117331 2.3443981e-38
-1.0654364 2.6473022 1.5118603 2.3443981e-38
-0.94226497 2.6287611 1.5128599 2.3443981e-38
-0.9338187 2.6330783 1.5129164 2.3443981e-38
-0.9227789 2.6389134 1.5129899 2.3443981e-38
-0.90067625 2.6338227 1.5131731 2.3443981e-38
-0.85484666 2.6410942 1.5135143 2.3443981e-38
-0.82468611 2.6567047 1.5137156 2.3443981e-38
-0.8136543 2.6600657 1.5137943 2.3443981e-38
-0.79013157 2.6582067 1.5139817 2.3443981e-38
-0.71226919 2.6490357 1.5146081 2.3443981e-38
-0.65312326 2.6773744 1.5150077 2.3443981e-38
-0.64414722 2.6862278 1.5150585 2.3443981e-38
-0.59495145 2.6934454 1.5154262 2.3443981e-38
-0.56676441 2.6741223 1.5156876 2.3443981e-38
-0.47583154 2.6719968 1.5164006 2.3443981e-38
-0.46290335 2.6794295 1.5164852 2.3443981e-38
-0.44963488 2.6863391 1.5165738 2.3443981e-38
-0.37658057 2.7241631 1.5170612 2.3443981e-38
-0.37268883 2.7263515 1.5170867 2.3443981e-38
-0.35250348 2.7223816 1.5172528 2.3443981e-38
-0.32158062 2.7278235 1.5174818 2.3443981e-38
-0.31374782 2.7012525 1.5176004 2.3443981e-38
-0.3204751 2.6872308 1.5175781 2.3443981e-38
-0.32710162 2.6656728 1.5175731 2.3443981e-38
-0.32899153 2.6165266 1.5176647 2.3443981e-38
-0.33197188 2.5849464 1.5177096 2.3443981e-38
-0.33791062 2.5459714 1.5177476 2.3443981e-38
-0.33547071 2.5305963 1.5177999 2.3443981e-38
-0.3369886 2.5133762 1.5178252 2.3443981e-38
-0.34341508 2.5088158 1.5177852 2.3443981e-38
-0.36510003 2.4814477 1.5176753 2.3443981e-38
-0.37072161 2.4628379 1.5176717 2.3443981e-38
-0.39837077 2.4149005 1.5175599 2.3443981e-38
-0.40087423 2.3489592 1.5176829 2.3443981e-38
-0.41550541 2.3241448 1.5176225 2.3443981e-38
-0.42029849 2.3050921 1.5176263 2.3443981e-38
-0.42061055 2.2871983 1.5176625 2.3443981e-38
-0.41840497 2.2726638 1.5177112 2.3443981e-38
-0.42250904 2.2547157 1.5177178 2.3443981e-38
-0.40289602 2.1988435 1.5179914 2.3443981e-38
-0.39431325 2.1844628 1.5180895 2.3443981e-38
-0.39150655 2.171839 1.5181388 2.3443981e-38
-0.40295917 2.1641111 1.5180662 2.3443981e-38
-0.40804189 2.1596739 1.5180361 2.3443981e-38
-0.43612474 2.0823817 1.5179845 2.3443981e-38
-0.43548688 2.0728347 1.51801 2.3443981e-38
-0.43589562 2.0498304 1.5180566 2.3443981e-38
-0.43593496 2.049603 1.5180568 2.3443981e-38
-0.43811223 2.0302849 1.5180814 2.3443981e-38
-0.43777284 1.9990207 1.5181518 2.3443981e-38
-0.43489426 1.9839909 1.5182067 2.3443981e-38
-0.43652943 1.9743791 1.5182147 2.3443981e-38
-0.43833175 1.966378 1.5182179 2.3443981e-38
-0.45236397 1.9637591 1.5181141 2.3443981e-38
-0.46518794 1.9682574 1.5180045 2.3443981e-38
-0.46902931 1.9975575 1.5179113 2.3443981e-38
-0.4741002 2.0131166 1.5178382 2.3443981e-38
-0.58245236 2.0550661 1.5169033 2.3443981e-38
-0.59979194 2.0469587 1.5167857 2.3443981e-38
-0.61251503 2.0437438 1.5166935 2.3443981e-38
-0.65922505 2.0298238 1.5163598 2.3443981e-38
-0.67353272 2.0251019 1.5162584 2.3443981e-38
-0.70369917 2.0166347 1.5160418 2.3443981e-38
-0.74388558 1.9555997 1.5158604 2.3443981e-38
-0.75690484 1.9480795 1.5157754 2.3443981e-38
-0.79158485 1.9803385 1.5154355 2.3443981e-38
-0.80237556 1.9899459 1.5153307 2.3443981e-38
-0.81606424 2.0006495 1.5152006 2.3443981e-38
-0.82670182 2.0116112 1.5150942 2.3443981e-38
-0.81976765 2.0317657 1.5151047 2.3443981e-38
-0.81605923 2.0503178 1.5150933 2.3443981e-38
-0.81723875 2.0681791 1.5150455 2.3443981e-38
-0.90425158 2.12252 1.5142503 2.3443981e-38
-0.94074804 2.1336646 1.5139419 2.3443981e-38
-1.0189422 2.2119608 1.5131634 2.3443981e-38
-1.0666456 2.2006931 1.5128161 2.3443981e-38
-1.1017534 2.1659749 1.5126176 2.3443981e-38
-1.1144418 2.1264274 1.5126042 2.3443981e-38
-1.1386586 2.1012361 1.51247 2.3443981e-38
-1.159191 2.0396979 1.5124431 2.3443981e-38
-1.1527977 1.9909797 1.5125982 2.3443981e-38
-1.177865 1.9757696 1.5124357 2.3443981e-38
-1.2035899 1.9480879 1.512295 2.3443981e-38
-1.2227682 1.9216615 1.5122029 2.3443981e-38
-1.2370305 1.9142259 1.5121076 2.3443981e-38
-1.2690599 1.8811319 1.5119296 2.3443981e-38
-1.2947868 1.8539572 1.511788 2.3443981e-38
-1.3060774 1.8454002 1.5117185 2.3443981e-38
-1.3203778 1.8379924 1.5116229 2.3443981e-38
-1.3316336 1.8321582 1.511548 2.3443981e-38
-1.349308 1.8230193 1.51143 2.3443981e-38
-1.3979346 1.8142906 1.51107 2.3443981e-38
-1.4246042 1.8004071 1.5108923 2.3443981e-38
-1.4391198 1.792896 1.5107954 2.3443981e-38
-1.4668593 1.7784967 1.5106103 2.3443981e-38
-1.4798133 1.7713059 1.5105249 2.3443981e-38
-1.5005748 1.7774702 1.5103499 2.3443981e-38
-1.5904019 1.7143824 1.5097862 2.3443981e-38
-1.606392 1.706098 1.5096797 2.3443981e-38
-1.6472262 1.7178928 1.5093362 2.3443981e-38
-1.7457513 1.6673918 1.5086775 2.3443981e-38
-1.7765998 1.5877304 1.5086094 2.3443981e-38
-1.776773 1.5516376 1.5086861 2.3443981e-38
-1.7809334 1.4999681 1.5087653 2.3443981e-38
-1.7752578 1.4534286 1.5089103 2.3443981e-38
-1.80251 1.4062462 1.5087998 2.3443981e-38
-1.8226725 1.3462892 1.5087723 2.3443981e-38
-1.8379998 1.3040555 1.5087441 2.3443981e-38
-1.8661801 1.2568996 1.5086266 2.3443981e-38
-1.8719499 1.2217433 1.5086577 2.3443981e-38
-1.881194 1.2140399 1.5086021 2.3443981e-38
-1.9085262 1.2026973 1.5084137 2.3443981e-38
-1.9522429 1.1801345 1.5081218 2.3443981e-38
-1.9718257 1.153362 1.5080272 2.3443981e-38
-1.9806951 1.1352544 1.5079972 2.3443981e-38
-1.9848607 1.1102862 1.5080187 2.3443981e-38
-2.0036814 1.1038367 1.5078859 2.3443981e-38
-2.0343223 1.1044134 1.5076458 2.3443981e-38
-2.1108191 1.0812225 1.5071001 2.3443981e-38
-2.1281509 1.0722499 1.5069845 2.3443981e-38
-2.1391835 1.0665218 1.5069109 2.3443981e-38
-2.1531646 1.0592686 1.5068177 2.3443981e-38
-2.2019744 0.98441154 1.5065992 2.3443981e-38
-2.2113147 0.86602199 1.5067823 2.3443981e-38
-2.2036734 0.85155928 1.5068729 2.3443981e-38
-2.1963806 0.83685648 1.5069616 2.3443981e-38
-2.1221657 0.7948243 1.5076307 2.3443981e-38
-2.093672 0.77656734 1.5078921 2.3443981e-38
-2.1005485 0.7564854 1.507882 2.3443981e-38
-2.1121774 0.74809319 1.5078095 2.3443981e-38
-2.1353738 0.72190356 1.5076854 2.3443981e-38
-2.1157882 0.61654466 1.5080657 2.3443981e-38
-2.095233 0.60884488 1.5082426 2.3443981e-38
-2.0895646 0.59719282 1.5083119 2.3443981e-38
-2.0791168 0.58383518 1.5084221 2.3443981e-38
-2.0959015 0.57737142 1.5083053 2.3443981e-38
-2.1455197 0.50212449 1.5080813 2.3443981e-38
-2.1451764 0.46927002 1.508155 2.3443981e-38
-2.1736376 0.45452276 1.5079652 2.3443981e-38
-2.2085817 0.38778415 1.5078373 2.3443981e-38
-2.2310224 0.35943523 1.5077236 2.3443981e-38
-2.2430561 0.35257763 1.5076447 2.3443981e-38
-2.2731946 0.33813807 1.5074412 2.3443981e-38
-2.2851698 0.33060855 1.507364 2.3443981e-38
-2.3645668 0.27297705 1.5068699 2.3443981e-38
-2.3636103 0.24039076 1.506948 2.3443981e-38
-2.3592885 0.20962808 1.507048 2.3443981e-38
-2.3370173 0.15522638 1.5073392 2.3443981e-38
-2.3293071 0.14268999 1.5074263 2.3443981e-38
-2.3201108 0.12705146 1.5075318 2.3443981e-38
-2.3426919 0.10307246 1.5074077 2.3443981e-38
-2.3440504 0.036008708 1.507542 2.3443981e-38
-2.3382473 0.022506848 1.5076164 2.3443981e-38
-2.3231797 -0.0026900764 1.5077882 2.3443981e-38
-2.2400415 -0.025531169 1.5084853 2.3443981e-38
-2.221242 -0.031969067 1.5086458 2.3443981e-38
-2.2055235 -0.057177536 1.5088227 2.3443981e-38
-2.1989937 -0.10269342 1.5089719 2.3443981e-38
-2.1867881 -0.19596659 1.5092686 2.3443981e-38
-2.1793132 -0.20861641 1.5093541 2.3443981e-38
-2.1737823 -0.22314519 1.5094287 2.3443981e-38
-2.1669707 -0.23517357 1.5095078 2.3443981e-38
-2.1590779 -0.24762161 1.5095962 2.3443981e-38
-2.1535773 -0.26122367 1.5096685 2.3443981e-38
-2.1399877 -0.28717896 1.5098305 2.3443981e-38
-2.1341605 -0.29988843 1.5099033 2.3443981e-38
-2.1252072 -0.31256032 1.5100006 2.3443981e-38
-2.1732633 -0.35473004 1.5097171 2.3443981e-38
-2.2093856 -0.42226109 1.5095817 2.3443981e-38
-2.2160649 -0.44337371 1.5095751 2.3443981e-38
-2.2189329 -0.47665113 1.5096248 2.3443981e-38
-2.2542806 -0.57752496 1.5095675 2.3443981e-38
-2.2596953 -0.59690201 1.5095671 2.3443981e-38
-2.2199183 -0.67524683 1.5100464 2.3443981e-38
-2.1999319 -0.68135196 1.5102153 2.3443981e-38
-2.1897438 -0.6926049 1.510319 2.3443981e-38
-2.1635797 -0.7120738 1.5105649 2.3443981e-38
-2.1369247 -0.76423776 1.5108855 2.3443981e-38
-2.1509399 -0.86946905 1.5110036 2.3443981e-38
-2.1274316 -0.89134729 1.511234 2.3443981e-38
-2.0983613 -0.90920836 1.5114992 2.3443981e-38
-2.0686255 -0.92686635 1.5117689 2.3443981e-38
-2.0375311 -0.96015841 1.5120833 2.3443981e-38
-2.028265 -0.97190994 1.5121808 2.3443981e-38
-2.0258107 -0.98710561 1.5122328 2.3443981e-38
-2.0290468 -1.0054381 1.5122471 2.3443981e-38
-1.98774 -1.0829142 1.5127364 2.3443981e-38
-1.9812102 -1.0960199 1.5128158 2.3443981e-38
-1.9745666 -1.1255894 1.5129313 2.3443981e-38
-1.9662633 -1.1543065 1.5130581 2.3443981e-38
-1.9586642 -1.1668518 1.5131444 2.3443981e-38
-1.9511265 -1.1794311 1.5132303 2.3443981e-38
-1.9606565 -1.2009116 1.5132025 2.3443981e-38
-1.9062215 -1.304697 1.5138509 2.3443981e-38
-1.8793273 -1.323526 1.514101 2.3443981e-38
-1.8027638 -1.3665426 1.5147907 2.3443981e-38
-1.7687374 -1.3647487 1.515052 2.3443981e-38
-1.7598875 -1.3772421 1.5151479 2.3443981e-38
-1.7535719 -1.3904661 1.5152256 2.3443981e-38
-1.7469615 -1.4057432 1.5153102 2.3443981e-38
-1.7131648 -1.4355829 1.515638 2.3443981e-38
-1.7066368 -1.4486895 1.5157173 2.3443981e-38
-1.5959474 -1.4902821 1.5166695 2.3443981e-38
-1.581275 -1.4838343 1.5167699 2.3443981e-38
-1.5454384 -1.480579 1.517042 2.3443981e-38
-1.5230986 -1.5019984 1.5172625 2.3443981e-38
-1.4994822 -1.5392455 1.5175269 2.3443981e-38
-1.4937886 -1.5517757 1.5175984 2.3443981e-38
-1.4852309 -1.564785 1.5176932 2.3443981e-38
-1.4310142 -1.6013929 1.5181947 2.3443981e-38
-1.4142598 -1.6105168 1.5183449 2.3443981e-38
-1.3968532 -1.6345109 1.5185324 2.3443981e-38
-1.3959838 -1.6690885 1.5186139 2.3443981e-38
-1.3900344 -1.7135174 1.5187563 2.3443981e-38
-1.3579762 -1.7463638 1.5190771 2.3443981e-38
-1.3603909 -1.7641124 1.5190966 2.3443981e-38
-1.3231368 -1.8768218 1.5196306 2.3443981e-38
-1.2992669 -1.8809373 1.5198253 2.3443981e-38
-1.2841039 -1.8895731 1.5199622 2.3443981e-38
-1.211948 -1.9181737 1.5205861 2.3443981e-38
-1.1795658 -1.9178429 1.5208378 2.3443981e-38
-1.0612507 -1.9031441 1.5217279 2.3443981e-38
-1.0392383 -1.9110478 1.5219164 2.3443981e-38
-1.0068293 -1.9107374 1.5221683 2.3443981e-38
-0.94855708 -1.9135258 1.5226283 2.3443981e-38
-0.90913415 -1.9260559 1.5229625 2.3443981e-38
-0.87971193 -1.9438107 1.5232301 2.3443981e-38
-0.85168427 -1.9644203 1.5234931 2.3443981e-38
-0.80304259 -1.9844483 1.5239153 2.3443981e-38
-0.74868596 -1.9913501 1.5243537 2.3443981e-38
-0.74129796 -2.0040312 1.5244389 2.3443981e-38
-0.72934824 -2.0308425 1.5245898 2.3443981e-38
-0.66672724 -2.1174359 1.5252649 2.3443981e-38
-0.66024333 -2.1295457 1.5253415 2.3443981e-38
-0.65412593 -2.1402822 1.5254123 2.3443981e-38
-0.59057409 -2.2228611 1.5260859 2.3443981e-38
-0.56616533 -2.2266104 1.5262843 2.3443981e-38
-0.50818408 -2.2131267 1.5267069 2.3443981e-38
-0.46971819 -2.2096958 1.5269991 2.3443981e-38
-0.4142355 -2.1478982 1.5272979 2.3443981e-38
-0.37601927 -2.1115494 1.5275171 2.3443981e-38
-0.37130839 -2.108989 1.5275484 2.3443981e-38
-0.27305135 -2.1570883 1.5284178 2.3443981e-38
-0.22953643 -2.1015503 1.5286368 2.3443981e-38
-0.20413429 -2.0883641 1.5288063 2.3443981e-38
-0.17868082 -2.1080902 1.529047 2.3443981e-38
-0.13578621 -2.118917 1.5294049 2.3443981e-38
-0.12627199 -2.1304691 1.5295038 2.3443981e-38
-0.029640697 -2.1463323 1.530291 2.3443981e-38
-0.015331889 -2.1389208 1.5303864 2.3443981e-38
0.01942933 -2.1373899 1.5306541 2.3443981e-38
0.10595981 -2.1411204 1.5313363 2.3443981e-38
0.12559825 -2.1277192 1.5314603 2.3443981e-38
0.13536619 -2.1168814 1.531513 2.3443981e-38
0.1474552 -2.1021309 1.5315753 2.3443981e-38
0.15945324 -2.0925031 1.5316479 2.3443981e-38
0.17926291 -2.0868995 1.5317903 2.3443981e-38
0.19244973 -2.0852959 1.5318894 2.3443981e-38
0.14043655 -2.1151786 1.5315489 2.3443981e-38
0.13431267 -2.1215646 1.5315149 2.3443981e-38
0.13052046 -2.1257308 1.5314943 2.3443981e-38
0.099257313 -2.1783416 1.5313644 2.3443981e-38
0.10481764 -2.2247152 1.5315081 2.3443981e-38
0.1034902 -2.256377 1.5315661 2.3443981e-38
0.099618919 -2.2770081 1.5315806 2.3443981e-38
0.097637065 -2.3109837 1.5316385 2.3443981e-38
0.094009034 -2.3294988 1.5316503 2.3443981e-38
0.093411952 -2.364989 1.5317223 2.3443981e-38
0.074848883 -2.3736005 1.5315963 2.3443981e-38
0.018774785 -2.3695242 1.5311506 2.3443981e-38
0.0050644567 -2.3680751 1.5310407 2.3443981e-38
-0.07027819 -2.3663867 1.53045 2.3443981e-38
-0.12539563 -2.3625517 1.5300124 2.3443981e-38
-0.13812734 -2.3638325 1.5299159 2.3443981e-38
-0.16036744 -2.3654966 1.5297462 2.3443981e-38
-0.2130738 -2.3591778 1.5293219 2.3443981e-38
-0.22234875 -2.3615406 1.5292546 2.3443981e-38
-0.29640785 -2.3691909 1.5286943 2.3443981e-38
-0.32440221 -2.3884952 1.5285178 2.3443981e-38
-0.33457947 -2.3883104 1.5284381 2.3443981e-38
-0.43042022 -2.4034493 1.527724 2.3443981e-38
-0.43710524 -2.4076715 1.5276811 2.3443981e-38
-0.51928294 -2.4532011 1.5271393 2.3443981e-38
-0.52755421 -2.4699118 1.5271109 2.3443981e-38
-0.53231591 -2.5312448 1.5272064 2.3443981e-38
-0.5454281 -2.5785658 1.5272065 2.3443981e-38
-0.55133975 -2.631202 1.5272743 2.3443981e-38
-0.55831176 -2.6517143 1.5272642 2.3443981e-38
-0.56647456 -2.6720321 1.5272446 2.3443981e-38
-0.5787726 -2.6784737 1.5271627 2.3443981e-38
-0.58729595 -2.6828511 1.5271058 2.3443981e-38
-0.67451644 -2.7772422 1.5266303 2.3443981e-38
-0.60228074 -2.8211868 1.527288 2.3443981e-38
-0.59094381 -2.8288438 1.5273927 2.3443981e-38
-0.59523952 -2.8514683 1.5274081 2.3443981e-38
-0.59263444 -2.8995361 1.5275325 2.3443981e-38
-0.59264576 -2.9157698 1.5275675 2.3443981e-38
-0.60073012 -2.9532316 1.5275853 2.3443981e-38
-0.6071713 -2.973093 1.5275781 2.3443981e-38
-0.61531848 -2.9920185 1.5275556 2.3443981e-38
-0.62694973 -3.0162337 1.5275173 2.3443981e-38
-0.6338349 -3.0363147 1.5275071 2.3443981e-38
-0.64154565 -3.0752959 1.5275311 2.3443981e-38
-0.6467092 -3.0926363 1.5275285 2.3443981e-38
-0.65914518 -3.1322062 1.527517 2.3443981e-38
-0.66459769 -3.1515784 1.5275164 2.3443981e-38
-0.66999352 -3.1705959 1.5275154 2.3443981e-38
-0.67553729 -3.2066834 1.5275502 2.3443981e-38
-0.69038135 -3.2457244 1.527519 2.3443981e-38
-0.69426721 -3.2650139 1.5275304 2.3443981e-38
-0.69970274 -3.2829878 1.527527 2.3443981e-38
-0.70580441 -3.3047049 1.5275264 2.3443981e-38
-0.71096224 -3.3239305 1.5275277 2.3443981e-38
-0.71832091 -3.3442459 1.5275143 2.3443981e-38
-0.72029042 -3.3754723 1.5275666 2.3443981e-38
-0.72485393 -3.3971682 1.5275778 2.3443981e-38
-0.73260319 -3.4487126 1.5276289 2.3443981e-38
-0.73791176 -3.4718268 1.5276375 2.3443981e-38
-0.74708748 -3.509917 1.5276482 2.3443981e-38
-0.7499879 -3.5420291 1.5276949 2.3443981e-38
-0.77455765 -3.5731411 1.5275708 2.3443981e-38
-0.78743464 -3.610296 1.5275509 2.3443981e-38
-0.78846782 -3.6610913 1.5276526 2.3443981e-38
-0.80769557 -3.7002604 1.5275874 2.3443981e-38
-0.81122154 -3.7205608 1.5276037 2.3443981e-38
-0.81663954 -3.7445402 1.5276134 2.3443981e-38
-0.81870824 -3.7725029 1.5276579 2.3443981e-38
-0.8188206 -3.7852635 1.5276846 2.3443981e-38
-0.82074612 -3.8113949 1.5277261 2.3443981e-38
-0.82032382 -3.826416 1.5277617 2.3443981e-38
-0.82112217 -3.8399339 1.5277846 2.3443981e-38
-0.84053177 -3.9029462 1.5277697 2.3443981e-38
-0.83736622 -3.917428 1.5278257 2.3443981e-38
-0.85459608 -3.9759459 1.5278178 2.3443981e-38
-0.86067998 -4.023344 1.5278729 2.3443981e-38
-0.86876142 -4.0474172 1.5278621 2.3443981e-38
-0.87152618 -4.0670323 1.5278828 2.3443981e-38
-0.89522332 -4.1289248 1.527832 2.3443981e-38
-0.89694738 -4.1589298 1.5278833 2.3443981e-38
-0.90014398 -4.1809082 1.5279061 2.3443981e-38
-0.91859734 -4.2084484 1.5278218 2.3443981e-38
-0.93211842 -4.2509961 1.5278084 2.3443981e-38
-0.93882066 -4.2686219 1.5277942 2.3443981e-38
-0.9455266 -4.2870402 1.5277818 2.3443981e-38
-0.95392883 -4.3079462 1.5277616 2.3443981e-38
-0.96531349 -4.3597803 1.5277847 2.3443981e-38
-0.97474903 -4.3850598 1.527766 2.3443981e-38
-0.97578132 -4.3985581 1.527787 2.3443981e-38
-0.97689444 -4.4193597 1.5278236 2.3443981e-38
-0.97618783 -4.4517851 1.527899 2.3443981e-38
-0.9767459 -4.4550138 1.5279016 2.3443981e-38
-0.98125643 -4.4706988 1.5279002 2.3443981e-38
-0.98319173 -4.5182476 1.527988 2.3443981e-38
-1.0068617 -4.5498657 1.527872 2.3443981e-38
-1.0130899 -4.5723438 1.5278721 2.3443981e-38
-1.0155994 -4.5871511 1.5278845 2.3443981e-38
-1.0162954 -4.6042242 1.5279158 2.3443981e-38
-1.0265832 -4.6591206 1.5279545 2.3443981e-38
-1.0288671 -4.6768074 1.5279748 2.3443981e-38
-1.042568 -4.7169361 1.5279548 2.3443981e-38
-1.0546117 -4.739574 1.52791 2.3443981e-38
-1.0613668 -4.7265778 1.5278293 2.3443981e-38
-1.1713034 -4.7176256 1.5269533 2.3443981e-38
-1.2153051 -4.7734189 1.5267311 2.3443981e-38
-1.2219584 -4.793386 1.5267226 2.3443981e-38
-1.2234638 -4.8271456 1.5267837 2.3443981e-38
-1.2720648 -4.8688745 1.5264951 2.3443981e-38
-1.3237649 -4.8793583 1.5261152 2.3443981e-38
-1.332442 -4.8841896 1.526058 2.3443981e-38
-1.3442096 -4.8899059 1.5259787 2.3443981e-38
-1.3608224 -4.8820267 1.5258322 2.3443981e-38
-0.87766391 -2.6994369 1.5248792 2.3457306e-38
-0.91957712 -2.689846 1.5245317 2.3457306e-38
-0.93167108 -2.69612 1.5244511 2.3457306e-38
-0.94694 -2.7040555 1.5243493 2.3457306e-38
-0.96143633 -2.7115641 1.5242528 2.3457306e-38
-1.0369242 -2.734251 1.5237137 2.3457306e-38
-1.0587829 -2.7290628 1.5235322 2.3457306e-38
-1.0726191 -2.7362444 1.5234399 2.3457306e-38
-1.0873944 -2.7433174 1.52334 2.3457306e-38
-1.1688446 -2.7201741 1.5226554 2.3457306e-38
-1.1854854 -2.6792173 1.5224373 2.3457306e-38
-1.1958861 -2.6745133 1.522346 2.3457306e-38
-1.2116215 -2.6763577 1.5222275 2.3457306e-38
-1.225068 -2.683306 1.5221378 2.3457306e-38
-1.2385083 -2.6902914 1.522048 2.3457306e-38
-1.3410494 -2.6939845 1.5212569 2.3457306e-38
-1.364255 -2.6401408 1.5209597 2.3457306e-38
-1.37595 -2.6131961 1.5208105 2.3457306e-38
-1.3350835 -2.5262368 1.520941 2.3457306e-38
-1.3198493 -2.5183618 1.5210428 2.3457306e-38
-1.2989944 -2.5075061 1.5211818 2.3457306e-38
-1.2562529 -2.5018258 1.5215024 2.3457306e-38
-1.2233275 -2.5012581 1.5217577 2.3457306e-38
-1.1884516 -2.4996719 1.5220261 2.3457306e-38
-1.1676567 -2.5057905 1.5222013 2.3457306e-38
-1.1147597 -2.5109448 1.5226246 2.3457306e-38
-1.0429901 -2.5067081 1.5231745 2.3457306e-38
-0.9401136 -2.5358138 1.524039 2.3457306e-38
-0.93268085 -2.5484841 1.5241244 2.3457306e-38
