# .PCD v0.7 - Point Cloud Data file format
VERSION 0.7
FIELDS x y z rgb
SIZE 4 4 4 4
TYPE F F F F
COUNT 1 1 1 1
WIDTH 901
HEIGHT 1
VIEWPOINT 0 0 0 1 0 0 0
POINTS 901
DATA ascii
-2.5482166 0.043485738 1.5037496 2.3418052e-38
-2.5490434 0.076509088 1.5023628 2.3418052e-38
-2.5480816 0.05491814 1.4956989 2.3418052e-38
-2.5478227 0.030286595 1.5031561 2.3418052e-38
-2.5464139 -0.020225 1.5026853 2.3418052e-38
-2.5458302 -0.04297962 1.5033932 2.3418052e-38
-2.5446954 -0.072283201 1.497416 2.3418052e-38
-2.5442493 -0.095033869 1.5005875 2.3418052e-38
-2.543925 -0.11221461 1.5032157 2.3418052e-38
-2.5434315 -0.13024399 1.5032187 2.3418052e-38
-2.5420637 -0.17450649 1.5004079 2.3418052e-38
-2.5418334 -0.18878737 1.5032924 2.3418052e-38
-2.5410316 -0.21325815 1.5009166 2.3418052e-38
-2.5406175 -0.22276893 1.4981622 2.3418052e-38
-2.5398309 -0.24904205 1.496945 2.3418052e-38
-2.5392871 -0.26716805 1.4960922 2.3418052e-38
-2.5387809 -0.28841388 1.4974498 2.3418052e-38
-2.5373821 -0.33429179 1.4948816 2.3418052e-38
-2.5372972 -0.3409678 1.4966327 2.3418052e-38
-2.5371556 -0.34756103 1.4973316 2.3418052e-38
-2.5371408 -0.34821308 1.497391 2.3418052e-38
-2.5368364 -0.36153916 1.498471 2.3418052e-38
-2.5364292 -0.38002342 1.5002402 2.3418052e-38
-2.5357327 -0.4012154 1.4981513 2.3418052e-38
-2.5345345 -0.44659013 1.4989425 2.3418052e-38
-2.5342455 -0.45425346 1.4975145 2.3418052e-38
-2.5334129 -0.48602071 1.4981825 2.3418052e-38
-2.5332906 -0.49248233 1.4991653 2.3418052e-38
-2.5329783 -0.50504827 1.4997305 2.3418052e-38
-2.5325863 -0.51511526 1.4976363 2.3418052e-38
-2.5320058 -0.53387141 1.4964325 2.3418052e-38
-2.5314894 -0.55309343 1.4966081 2.3418052e-38
-2.5310938 -0.57237744 1.4989847 2.3418052e-38
-2.5309594 -0.57955247 1.5000939 2.3418052e-38
-2.5307083 -0.59114558 1.5012852 2.3418052e-38
-2.5302658 -0.60424834 1.4997787 2.3418052e-38
-2.5291545 -0.64030057 1.4975432 2.3418052e-38
-2.5287142 -0.6584301 1.498549 2.3418052e-38
-2.5276556 -0.69352263 1.4967872 2.3418052e-38
-2.5270154 -0.71876311 1.4977018 2.3418052e-38
-2.5268066 -0.72582704 1.4974275 2.3418052e-38
-2.5261452 -0.75072581 1.4977849 2.3418052e-38
-2.525763 -0.76605707 1.4984608 2.3418052e-38
-2.5254681 -0.77792996 1.4990027 2.3418052e-38
-2.5244551 -0.80792779 1.4955555 2.3418052e-38
-2.5237343 -0.8417334 1.4992254 2.3418052e-38
-2.5234246 -0.85162991 1.4985268 2.3418052e-38
-2.5226288 -0.87828356 1.4973377 2.3418052e-38
-2.5220902 -0.89778703 1.4972596 2.3418052e-38
-2.521899 -0.90397006 1.4968599 2.3418052e-38
-2.5215137 -0.919218 1.4974341 2.3418052e-38
-2.5208602 -0.94589573 1.4988174 2.3418052e-38
-2.5204611 -0.96382213 1.5004535 2.3418052e-38
-2.5200322 -0.97838515 1.499912 2.3418052e-38
-2.5198374 -0.9838888 1.4991188 2.3418052e-38
-2.5191727 -1.0098205 1.4999278 2.3418052e-38
-2.518693 -1.0226793 1.4976366 2.3418052e-38
-2.5179472 -1.0490954 1.4972299 2.3418052e-38
-2.5175786 -1.0590565 1.4955065 2.3418052e-38
-2.5171835 -1.0707242 1.4941467 2.3418052e-38
-2.5167828 -1.0885913 1.495731 2.3418052e-38
-2.5164557 -1.1019955 1.496453 2.3418052e-38
-2.516176 -1.1166041 1.4986073 2.3418052e-38
-2.5157804 -1.1279831 1.4970995 2.3418052e-38
-2.515234 -1.1426597 1.4945018 2.3418052e-38
-2.514847 -1.1531157 1.4926902 2.3418052e-38
-2.5147579 -1.1554456 1.4922354 2.3418052e-38
-2.5133345 -1.2086301 1.4928136 2.3418052e-38
-2.5126302 -1.2311029 1.4912121 2.3418052e-38
-2.5119617 -1.2689943 1.4978352 2.3418052e-38
-2.5117531 -1.2821767 1.5005664 2.3418052e-38
-2.5115094 -1.2892284 1.499662 2.3418052e-38
-2.5100465 -1.3343757 1.4955864 2.3418052e-38
-2.5095627 -1.3496385 1.4943968 2.3418052e-38
-2.5091274 -1.3624442 1.4928768 2.3418052e-38
-2.5087306 -1.3749657 1.4919029 2.3418052e-38
-2.5074997 -1.4107256 1.4873742 2.3418052e-38
-2.5073135 -1.416283 1.4867715 2.3418052e-38
-2.5070248 -1.4249425 1.4858328 2.3418052e-38
-2.5066023 -1.4378211 1.4845785 2.3418052e-38
-2.5064111 -1.4429936 1.4836863 2.3418052e-38
-2.5061667 -1.450536 1.4830059 2.3418052e-38
-2.5054855 -1.5004773 1.4953192 2.3418052e-38
-2.5043714 -1.5268848 1.4882944 2.3418052e-38
-2.5040028 -1.537334 1.4868145 2.3418052e-38
-2.5035787 -1.5501778 1.4855121 2.3418052e-38
-2.503099 -1.5861731 1.4945891 2.3418052e-38
-2.5029988 -1.5936587 1.4964669 2.3418052e-38
-2.5024884 -1.6143773 1.4974898 2.3418052e-38
-2.5019424 -1.6355715 1.4980991 2.3418052e-38
-2.5015409 -1.6473575 1.496683 2.3418052e-38
-2.5006223 -1.6793361 1.4959116 2.3418052e-38
-2.500493 -1.6873047 1.4975077 2.3418052e-38
-2.5000706 -1.6994081 1.4958701 2.3418052e-38
-2.4990745 -1.722201 1.489177 2.3418052e-38
-2.4986358 -1.7353363 1.4877636 2.3418052e-38
-2.4972155 -1.7750027 1.4817539 2.3418052e-38
-2.4969771 -1.7885377 1.4841269 2.3418052e-38
-2.4963112 -1.8202975 1.4877766 2.3418052e-38
-2.4959939 -1.8397357 1.4916323 2.3418052e-38
-2.4958313 -1.8466208 1.4920971 2.3418052e-38
-2.4955394 -1.8659894 1.4963812 2.3418052e-38
-2.4954059 -1.8716419 1.4967557 2.3418052e-38
-2.4948473 -1.8864408 1.4940007 2.3418052e-38
-2.4936318 -1.9204431 1.4888877 2.3418052e-38
-2.4918132 -1.9615724 1.47645 2.3418052e-38
-2.4910164 -1.989116 1.475673 2.3418052e-38
-2.4905515 -2.008781 1.4769982 2.3418052e-38
-2.4901869 -2.0211425 1.4765327 2.3418052e-38
-2.4897346 -2.054136 1.4846267 2.3418052e-38
-2.4879594 -2.0893533 1.4700551 2.3418052e-38
-2.4875176 -2.1026809 1.4686689 2.3418052e-38
-2.4869044 -2.123564 1.4679227 2.3418052e-38
-2.4863067 -2.1554496 1.4728652 2.3418052e-38
-2.4860835 -2.2036352 1.4925447 2.3418052e-38
-2.4842906 -2.2465863 1.4814589 2.3418052e-38
-2.4832261 -2.2847512 1.4811044 2.3418052e-38
-2.4801588 -2.3482022 1.4572074 2.3418052e-38
-2.4795713 -2.3812249 1.4628922 2.3418052e-38
-2.4781954 -2.4100096 1.4523338 2.3418052e-38
-2.4774184 -2.4225671 1.4445552 2.3418052e-38
-2.4769874 -2.4311819 1.4410493 2.3418052e-38
-2.4753709 -2.4599023 1.426134 2.3418052e-38
-2.4745584 -2.462173 1.4126632 2.3418052e-38
-2.4737573 -2.4646883 1.3995112 2.3418052e-38
-2.47293 -2.4667017 1.3856522 2.3418052e-38
-2.4720976 -2.4610527 1.3679261 2.3418052e-38
-2.4717093 -2.4568834 1.3588978 2.3418052e-38
-2.4698362 -2.4366219 1.3153107 2.3418052e-38
-2.4691381 -2.4333825 1.3011767 2.3418052e-38
-2.466918 -2.4138079 1.2516925 2.3418052e-38
-2.4648321 -2.4115782 1.2131392 2.3418052e-38
-2.4629393 -2.4201739 1.1833708 2.3418052e-38
-2.4619591 -2.4199064 1.1656437 2.3418052e-38
-2.4575763 -2.4370089 1.0953478 2.3418052e-38
-2.4566405 -2.4393599 1.0796996 2.3418052e-38
-2.4549456 -2.4219594 1.0407054 2.3418052e-38
-2.453203 -2.4079869 1.0025507 2.3418052e-38
-2.4505095 -2.4122927 0.95629573 2.3418052e-38
-2.4483342 -2.3939831 0.90823865 2.3418052e-38
-2.4475498 -2.3931413 0.89373577 2.3418052e-38
-2.4463625 -2.3928645 0.8722856 2.3418052e-38
-2.4456098 -2.3940644 0.85935539 2.3418052e-38
-2.444993 -2.3958805 0.8491776 2.3418052e-38
-2.4410474 -2.4246516 0.79246002 2.3418052e-38
-2.440716 -2.4188218 0.78364736 2.3418052e-38
-2.4369078 -2.4168253 0.71428537 2.3418052e-38
-2.432199 -2.4028575 0.62286234 2.3418052e-38
-2.4277179 -2.395931 0.5389896 2.3418052e-38
-2.4268465 -2.3985188 0.52461517 2.3418052e-38
-2.4250751 -2.3971355 0.49211586 2.3418052e-38
-2.4225733 -2.3968174 0.44703996 2.3418052e-38
-2.4211404 -2.4069874 0.42631084 2.3418052e-38
-2.4187455 -2.4007883 0.38025808 2.3418052e-38
-2.4181268 -2.3967535 0.36716658 2.3418052e-38
-2.4172347 -2.3916235 0.34861898 2.3418052e-38
-2.415451 -2.3919919 0.31677437 2.3418052e-38
-2.4145224 -2.3917239 0.29997063 2.3418052e-38
-2.4128349 -2.3912926 0.26945198 2.3418052e-38
-2.4120939 -2.3900819 0.2555477 2.3418052e-38
-2.4111402 -2.3857663 0.23630373 2.3418052e-38
-2.4099009 -2.3803253 0.21137239 2.3418052e-38
-2.4079268 -2.38552 0.1784776 2.3418052e-38
-2.4071226 -2.378346 0.16051124 2.3418052e-38
-2.4064255 -2.3756106 0.14664815 2.3418052e-38
-2.4060755 -2.3749723 0.14005508 2.3418052e-38
-2.4053938 -2.3732071 0.12694104 2.3418052e-38
-2.4034455 -2.3680608 0.089426294 2.3418052e-38
-2.4026308 -2.3681116 0.074823782 2.3418052e-38
-2.3986585 -2.3786199 0.0086569935 2.3418052e-38
-2.3985057 -2.3745956 0.0039360076 2.3418052e-38
-2.3973298 -2.3611143 -0.023809865 2.3418052e-38
-2.3964148 -2.3575761 -0.041977607 2.3418052e-38
-2.3960848 -2.3550706 -0.049137495 2.3418052e-38
-2.3928723 -2.3565934 -0.10607648 2.3418052e-38
-2.3920834 -2.3568668 -0.12010515 2.3418052e-38
-2.3903921 -2.3621361 -0.1478886 2.3418052e-38
-2.3890052 -2.3702276 -0.16881415 2.3418052e-38
-2.3847187 -2.3673074 -0.24722229 2.3418052e-38
-2.3841527 -2.3525486 -0.26464403 2.3418052e-38
-2.3835261 -2.336556 -0.2837536 2.3418052e-38
-2.3776779 -2.3589449 -0.37776256 2.3418052e-38
-2.3744216 -2.3474441 -0.4418906 2.3418052e-38
-2.3736284 -2.3381803 -0.46068943 2.3418052e-38
-2.3700726 -2.3442283 -0.52156562 2.3418052e-38
-2.3692448 -2.3505552 -0.53332114 2.3418052e-38
-2.3685684 -2.3487465 -0.54635191 2.3418052e-38
-2.3660924 -2.3580847 -0.58622348 2.3418052e-38
-2.3623803 -2.3469138 -0.65837312 2.3418052e-38
-2.3595698 -2.3449285 -0.70982158 2.3418052e-38
-2.358505 -2.3510215 -0.72594273 2.3418052e-38
-2.3568349 -2.3497295 -0.7565766 2.3418052e-38
-2.3563552 -2.3496518 -0.76522547 2.3418052e-38
-2.3558416 -2.346772 -0.77586502 2.3418052e-38
-2.3537412 -2.3488505 -0.81255752 2.3418052e-38
-2.3531773 -2.3502445 -0.82199985 2.3418052e-38
-2.3514833 -2.3555534 -0.84980768 2.3418052e-38
-2.3512611 -2.3514013 -0.85583907 2.3418052e-38
-2.3507323 -2.3417871 -0.87006462 2.3418052e-38
-2.3490036 -2.3288956 -0.90744698 2.3418052e-38
-2.3471205 -2.3312011 -0.94011962 2.3418052e-38
-2.34619 -2.3304105 -0.95722049 2.3418052e-38
-2.3454549 -2.3285203 -0.97135389 2.3418052e-38
-2.3444245 -2.3282571 -0.98998684 2.3418052e-38
-2.3437278 -2.3264554 -1.0033729 2.3418052e-38
-2.3428874 -2.3272829 -1.0180601 2.3418052e-38
-2.3424051 -2.3193798 -1.0306094 2.3418052e-38
-2.3420801 -2.3146164 -1.0387834 2.3418052e-38
-2.3419068 -2.3112581 -1.0435499 2.3418052e-38
-2.3427749 -2.2796049 -1.0435138 2.3418052e-38
-2.3454871 -2.1848478 -1.0413892 2.3418052e-38
-2.3458583 -2.1694953 -1.0422657 2.3418052e-38
-2.3471799 -2.1330547 -1.0364499 2.3418052e-38
-2.3477981 -2.1020322 -1.0405979 2.3418052e-38
-2.3481357 -2.0821912 -1.0442929 2.3418052e-38
-2.3494382 -2.0476749 -1.0378611 2.3418052e-38
-2.349782 -2.0330184 -1.0388978 2.3418052e-38
-2.3501108 -2.0177629 -1.0404907 2.3418052e-38
-2.3503351 -2.0049891 -1.0427405 2.3418052e-38
-2.3506763 -1.9836614 -1.0471023 2.3418052e-38
-2.352344 -1.9313265 -1.04287 2.3418052e-38
-2.3526509 -1.9176934 -1.0440687 2.3418052e-38
-2.3530159 -1.8957675 -1.0482877 2.3418052e-38
-2.3544214 -1.8444114 -1.0482908 2.3418052e-38
-2.3549359 -1.8295031 -1.0463814 2.3418052e-38
-2.3555596 -1.804969 -1.0472366 2.3418052e-38
-2.3564405 -1.7775714 -1.0448889 2.3418052e-38
-2.3577282 -1.737522 -1.0414515 2.3418052e-38
-2.3584044 -1.7047048 -1.0454352 2.3418052e-38
-2.3588588 -1.6868917 -1.0460331 2.3418052e-38
-2.3600178 -1.6531628 -1.0418006 2.3418052e-38
-2.3602514 -1.6394261 -1.0443577 2.3418052e-38
-2.3607974 -1.6112483 -1.0484071 2.3418052e-38
-2.3627152 -1.5586623 -1.0398122 2.3418052e-38
-2.363096 -1.543117 -1.0406202 2.3418052e-38
-2.3636415 -1.5142796 -1.0449895 2.3418052e-38
-2.3647826 -1.4672223 -1.0476327 2.3418052e-38
-2.3661308 -1.4314961 -1.040979 2.3418052e-38
-2.3664839 -1.412091 -1.0441797 2.3418052e-38
-2.3666804 -1.3939122 -1.0495881 2.3418052e-38
-2.3674583 -1.366534 -1.0490797 2.3418052e-38
-2.3689277 -1.3151751 -1.0479382 2.3418052e-38
-2.3694863 -1.299655 -1.0455333 2.3418052e-38
-2.3712568 -1.2555468 -1.0354269 2.3418052e-38
-2.3715589 -1.2396414 -1.0378162 2.3418052e-38
-2.3718655 -1.2232275 -1.0403804 2.3418052e-38
-2.3721254 -1.2074056 -1.0434904 2.3418052e-38
-2.3725345 -1.1862993 -1.0465136 2.3418052e-38
-2.3740137 -1.1341493 -1.0455891 2.3418052e-38
-2.3742888 -1.1159251 -1.0495973 2.3418052e-38
-2.3763609 -1.0541217 -1.0427787 2.3418052e-38
-2.3766658 -1.0340848 -1.0471433 2.3418052e-38
-2.3770061 -1.020427 -1.0477552 2.3418052e-38
-2.37749 -1.0086657 -1.0448453 2.3418052e-38
-2.3790812 -0.95533049 -1.04248 2.3418052e-38
-2.3793619 -0.93852592 -1.0457014 2.3418052e-38
-2.3795538 -0.92460859 -1.0491017 2.3418052e-38
-2.380981 -0.88419819 -1.0433331 2.3418052e-38
-2.3812909 -0.8698191 -1.044836 2.3418052e-38
-2.3816035 -0.85698152 -1.045531 2.3418052e-38
-2.3820901 -0.8422581 -1.0440346 2.3418052e-38
-2.3824244 -0.8279084 -1.0450799 2.3418052e-38
-2.3828003 -0.81438714 -1.0449779 2.3418052e-38
-2.383673 -0.78942001 -1.0415794 2.3418052e-38
-2.3839996 -0.77195841 -1.044297 2.3418052e-38
-2.3844092 -0.75497466 -1.0452918 2.3418052e-38
-2.3846984 -0.74296653 -1.0459982 2.3418052e-38
-2.3852808 -0.72983003 -1.0419981 2.3418052e-38
-2.3864236 -0.68405747 -1.0439801 2.3418052e-38
-2.3870134 -0.65737468 -1.0465022 2.3418052e-38
-2.3886919 -0.60435921 -1.0424123 2.3418052e-38
-2.3887322 -0.59918439 -1.0442299 2.3418052e-38
-2.389468 -0.57154596 -1.044603 2.3418052e-38
-2.3902018 -0.5388481 -1.0475047 2.3418052e-38
-2.39063 -0.52037668 -1.0488939 2.3418052e-38
-2.3929436 -0.45853239 -1.0377394 2.3418052e-38
-2.3938384 -0.41249472 -1.0443069 2.3418052e-38
-2.3938572 -0.40296808 -1.0486519 2.3418052e-38
-2.3950737 -0.37230712 -1.0418807 2.3418052e-38
-2.395503 -0.35159689 -1.0443474 2.3418052e-38
-2.3956976 -0.33648846 -1.0482867 2.3418052e-38
-2.3960648 -0.3201696 -1.0497142 2.3418052e-38
-2.3976092 -0.26678658 -1.0482113 2.3418052e-38
-2.3979611 -0.2511735 -1.04957 2.3418052e-38
-2.3983192 -0.23699167 -1.0501137 2.3418052e-38
-2.3995574 -0.20068315 -1.0457292 2.3418052e-38
-2.4002123 -0.16724598 -1.0503954 2.3418052e-38
-2.4017646 -0.13081646 -1.0404248 2.3418052e-38
-2.4023409 -0.10075434 -1.0448596 2.3418052e-38
-2.4029484 -0.07012634 -1.0490004 2.3418052e-38
-2.4033065 -0.054161515 -1.0504209 2.3418052e-38
-2.4046984 -0.0085649639 -1.0478389 2.3418052e-38
-2.404815 0.0024611503 -1.0511611 2.3418052e-38
-2.4067063 0.046771251 -1.0389751 2.3418052e-38
-2.4072421 0.077978797 -1.0446976 2.3418052e-38
-2.408097 0.1052268 -1.0427331 2.3418052e-38
-2.4083881 0.12162973 -1.0455794 2.3418052e-38
-2.4085171 0.13140093 -1.0480669 2.3418052e-38
-2.4090021 0.15374491 -1.0503337 2.3418052e-38
-2.4101856 0.19675358 -1.0502198 2.3418052e-38
-2.4105046 0.21044701 -1.051228 2.3418052e-38
-2.4114954 0.24263307 -1.0492533 2.3418052e-38
-2.412374 0.27435306 -1.0490705 2.3418052e-38
-2.4135695 0.29549715 -1.0379919 2.3418052e-38
-2.4171059 0.41673753 -1.0340804 2.3418052e-38
-2.4194088 0.44958675 -1.0088747 2.3418052e-38
-2.4230373 0.55467802 -0.99537361 2.3418052e-38
-2.4231856 0.56573987 -0.99814755 2.3418052e-38
-2.4222572 0.61440074 -1.0387377 2.3418052e-38
-2.4227259 0.64103276 -1.0434093 2.3418052e-38
-2.4228597 0.65095639 -1.0458832 2.3418052e-38
-2.4229403 0.659931 -1.0488498 2.3418052e-38
-2.423702 0.68189567 -1.0459743 2.3418052e-38
-2.4250281 0.71239775 -1.0371497 2.3418052e-38
-2.4256413 0.74798161 -1.0436295 2.3418052e-38
-2.4258535 0.76412398 -1.0477542 2.3418052e-38
-2.4261744 0.78026283 -1.0499225 2.3418052e-38
-2.4278214 0.83308738 -1.0463077 2.3418052e-38
-2.4281461 0.84837645 -1.0479988 2.3418052e-38
-2.4299188 0.90180457 -1.0424259 2.3418052e-38
-2.4301448 0.91608852 -1.0453944 2.3418052e-38
-2.4299116 0.94945532 -1.0659754 2.3418052e-38
-2.4327829 1.0135072 -1.0458952 2.3418052e-38
-2.4331758 1.027845 -1.0458863 2.3418052e-38
-2.4335492 1.0414637 -1.0458792 2.3418052e-38
-2.4338512 1.0584724 -1.0488224 2.3418052e-38
-2.4351542 1.0962995 -1.0440074 2.3418052e-38
-2.4354963 1.112011 -1.0455972 2.3418052e-38
-2.4357784 1.1280531 -1.0484082 2.3418052e-38
-2.4361892 1.1402872 -1.0470481 2.3418052e-38
-2.4365723 1.1535349 -1.0466785 2.3418052e-38
-2.4369347 1.1675582 -1.047067 2.3418052e-38
-2.4387295 1.2153807 -1.0383402 2.3418052e-38
-2.4392755 1.2514369 -1.0462625 2.3418052e-38
-2.4395921 1.265744 -1.0476125 2.3418052e-38
-2.4399261 1.2834667 -1.0503224 2.3418052e-38
-2.4407091 1.3102846 -1.049448 2.3418052e-38
-2.4422402 1.3623282 -1.0475245 2.3418052e-38
-2.4432125 1.3926662 -1.0449778 2.3418052e-38
-2.4436255 1.4047478 -1.0435072 2.3418052e-38
-2.4439824 1.4175053 -1.043363 2.3418052e-38
-2.4444058 1.4306346 -1.0422182 2.3418052e-38
-2.4448395 1.4444721 -1.0412275 2.3418052e-38
-2.4463754 1.4945769 -1.0382799 2.3418052e-38
-2.4479587 1.5730939 -1.0484341 2.3418052e-38
-2.4496026 1.6209989 -1.0424693 2.3418052e-38
-2.4498804 1.6413397 -1.0474776 2.3418052e-38
-2.451375 1.6750846 -1.0372261 2.3418052e-38
-2.45193 1.7095544 -1.0441952 2.3418052e-38
-2.4522672 1.7244257 -1.0454564 2.3418052e-38
-2.4525888 1.7400331 -1.0473588 2.3418052e-38
-2.4536874 1.7748719 -1.044744 2.3418052e-38
-2.4546297 1.8061016 -1.0431823 2.3418052e-38
-2.4550297 1.8187112 -1.0421894 2.3418052e-38
-2.455853 1.8655533 -1.0504322 2.3418052e-38
-2.4572151 1.8986959 -1.0422719 2.3418052e-38
-2.4621315 2.011704 -1.0095296 2.3418052e-38
-2.4609239 2.0452864 -1.047725 2.3418052e-38
-2.4619923 2.0672772 -1.0393411 2.3418052e-38
-2.4624577 2.078562 -1.036538 2.3418052e-38
-2.4632273 2.1315382 -1.0487485 2.3418052e-38
-2.4642429 2.1533544 -1.0412354 2.3418052e-38
-2.4649839 2.1815677 -1.041795 2.3418052e-38
-2.4655223 2.1943381 -1.0384113 2.3418052e-38
-2.4666445 2.2607429 -1.0508957 2.3418052e-38
-2.4673712 2.2669008 -1.0408752 2.3418052e-38
-2.469485 2.2808428 -1.0097744 2.3418052e-38
-2.4707737 2.2840972 -0.98823005 2.3418052e-38
-2.473388 2.2858627 -0.94215214 2.3418052e-38
-2.4744401 2.2868531 -0.92374653 2.3418052e-38
-2.475209 2.2862616 -0.90965271 2.3418052e-38
-2.4781988 2.3006673 -0.86304092 2.3418052e-38
-2.4796472 2.2992873 -0.83635008 2.3418052e-38
-2.4806721 2.2974102 -0.8170256 2.3418052e-38
-2.4826334 2.2989852 -0.78258157 2.3418052e-38
-2.483408 2.3018911 -0.7701022 2.3418052e-38
-2.4853194 2.3064246 -0.73800266 2.3418052e-38
-2.4869566 2.2989376 -0.70492589 2.3418052e-38
-2.4914596 2.3155499 -0.63223416 2.3418052e-38
-2.493916 2.2889996 -0.57506835 2.3418052e-38
-2.4957223 2.2884831 -0.54238248 2.3418052e-38
-2.4972045 2.2884529 -0.51575166 2.3418052e-38
-2.4991682 2.2947338 -0.48357528 2.3418052e-38
-2.5000727 2.2989004 -0.4693839 2.3418052e-38
-2.5013108 2.3047521 -0.45002842 2.3418052e-38
-2.5019922 2.3047063 -0.43776399 2.3418052e-38
-2.502914 2.3012395 -0.4195134 2.3418052e-38
-2.5055301 2.2986913 -0.3712815 2.3418052e-38
-2.5080795 2.2982461 -0.32527721 2.3418052e-38
-2.5108695 2.3046389 -0.27832294 2.3418052e-38
-2.5124719 2.2985301 -0.24654555 2.3418052e-38
-2.5134757 2.2959311 -0.22724512 2.3418052e-38
-2.516078 2.299346 -0.18219256 2.3418052e-38
-2.5170577 2.3033278 -0.16655645 2.3418052e-38
-2.5188205 2.3034291 -0.13495684 2.3418052e-38
-2.5198607 2.3021073 -0.11561377 2.3418052e-38
-2.5243857 2.3069105 -0.036731318 2.3418052e-38
-2.5268157 2.3023806 0.0091366172 2.3418052e-38
-2.5302355 2.3227353 0.060537279 2.3418052e-38
-2.5308759 2.3256793 0.070591465 2.3418052e-38
-2.5327537 2.3301663 0.10210185 2.3418052e-38
-2.5337369 2.3215058 0.12401761 2.3418052e-38
-2.5354028 2.3188341 0.1552477 2.3418052e-38
-2.5359809 2.3159723 0.16703452 2.3418052e-38
-2.5402975 2.3189425 0.24308814 2.3418052e-38
-2.5433991 2.3331735 0.29178888 2.3418052e-38
-2.5469742 2.3325207 0.35630542 2.3418052e-38
-2.5479507 2.3378513 0.37122798 2.3418052e-38
-2.5490088 2.3370984 0.39059007 2.3418052e-38
-2.5514772 2.333864 0.4365012 2.3418052e-38
-2.5526242 2.3361771 0.45596552 2.3418052e-38
-2.5542147 2.3398576 0.48272026 2.3418052e-38
-2.554395 2.3355598 0.48807114 2.3418052e-38
-2.5580533 2.3272519 0.55783957 2.3418052e-38
-2.5595362 2.336704 0.57982993 2.3418052e-38
-2.5599928 2.3390522 0.58687401 2.3418052e-38
-2.5607772 2.3405194 0.60023886 2.3418052e-38
-2.5623555 2.3437865 0.62697971 2.3418052e-38
-2.5633707 2.341572 0.64629304 2.3418052e-38
-2.5640707 2.340152 0.65956163 2.3418052e-38
-2.5650167 2.3355706 0.67879599 2.3418052e-38
-2.5655868 2.3322105 0.6906926 2.3418052e-38
-2.5670457 2.3311226 0.71742195 2.3418052e-38
-2.568368 2.3282142 0.74258935 2.3418052e-38
-2.5692654 2.330153 0.7577492 2.3418052e-38
-2.5700581 2.3320675 0.77105039 2.3418052e-38
-2.5718927 2.3276196 0.80618429 2.3418052e-38
-2.5726547 2.3265488 0.82039249 2.3418052e-38
-2.5735223 2.3266156 0.83594155 2.3418052e-38
-2.5745349 2.3243003 0.85525155 2.3418052e-38
-2.57531 2.3254647 0.86860633 2.3418052e-38
-2.5796387 2.3286479 0.94477057 2.3418052e-38
-2.5801139 2.3282628 0.95349312 2.3418052e-38
-2.5817003 2.3317986 0.98024297 2.3418052e-38
-2.5827253 2.3299284 0.99956787 2.3418052e-38
-2.5865176 2.3466139 1.0594594 2.3418052e-38
-2.5877337 2.3259199 1.0914723 2.3418052e-38
-2.588706 2.3191016 1.1122835 2.3418052e-38
-2.5928025 2.3184559 1.1861655 2.3418052e-38
-2.5965097 2.3307495 1.2466953 2.3418052e-38
-2.5977097 2.3328536 1.2672075 2.3418052e-38
-2.5994539 2.3419981 1.2940348 2.3418052e-38
-2.6002746 2.3463535 1.3066285 2.3418052e-38
-2.6017163 2.3583753 1.3266096 2.3418052e-38
-2.604326 2.3826931 1.3615183 2.3418052e-38
-2.6052876 2.3866246 1.3768522 2.3418052e-38
-2.6068254 2.3791521 1.4081371 2.3418052e-38
-2.6075191 2.3659694 1.4270735 2.3418052e-38
-2.6079106 2.3424106 1.4456856 2.3418052e-38
-2.6078186 2.3320856 1.4491062 2.3418052e-38
-2.6074445 2.321816 1.4474421 2.3418052e-38
-2.6066597 2.3022354 1.4429752 2.3418052e-38
-2.6058464 2.2359927 1.4609239 2.3418052e-38
-2.6059399 2.2312157 1.4649498 2.3418052e-38
-2.6047063 2.1790254 1.4684572 2.3418052e-38
-2.6038656 2.1467142 1.4692405 2.3418052e-38
-2.601547 2.0848284 1.4580181 2.3418052e-38
-2.6012638 2.0725846 1.458958 2.3418052e-38
-2.6009932 2.0590191 1.4607613 2.3418052e-38
-2.6003959 2.0395806 1.4595894 2.3418052e-38
-2.6000431 2.008167 1.4686941 2.3418052e-38
-2.598906 1.9805683 1.4618397 2.3418052e-38
-2.5986314 1.9734335 1.4604208 2.3418052e-38
-2.5983839 1.9662662 1.459498 2.3418052e-38
-2.5973475 1.9329433 1.4572688 2.3418052e-38
-2.5969884 1.9148328 1.4597242 2.3418052e-38
-2.5963752 1.8948865 1.4585174 2.3418052e-38
-2.5953658 1.8602734 1.4574044 2.3418052e-38
-2.5951219 1.8474221 1.4593421 2.3418052e-38
-2.5947077 1.8352425 1.4578867 2.3418052e-38
-2.5937388 1.8001332 1.4577428 2.3418052e-38
-2.5936503 1.7944336 1.4589665 2.3418052e-38
-2.5935528 1.7874963 1.4606186 2.3418052e-38
-2.5934644 1.7808113 1.4623141 2.3418052e-38
-2.5931036 1.7677014 1.4622817 2.3418052e-38
-2.5927417 1.7545881 1.4622257 2.3418052e-38
-2.5924258 1.7308111 1.4682406 2.3418052e-38
-2.5923884 1.7222524 1.4717788 2.3418052e-38
-2.5922215 1.7160213 1.4718419 2.3418052e-38
-2.5920489 1.7091138 1.47214 2.3418052e-38
-2.5916069 1.6965361 1.4703838 2.3418052e-38
-2.5912108 1.6833303 1.4697602 2.3418052e-38
-2.5908322 1.6701722 1.4694295 2.3418052e-38
-2.589684 1.6242195 1.4714061 2.3418052e-38
-2.5884399 1.5912961 1.4652513 2.3418052e-38
-2.5875614 1.5506051 1.4694698 2.3418052e-38
-2.5870674 1.5362601 1.4676516 2.3418052e-38
-2.5865228 1.5136819 1.4689698 2.3418052e-38
-2.5863795 1.5030446 1.4716232 2.3418052e-38
-2.5859926 1.489141 1.4715074 2.3418052e-38
-2.5853856 1.4389279 1.4852866 2.3418052e-38
-2.5849605 1.4127419 1.4905275 2.3418052e-38
-2.5847197 1.4012036 1.491871 2.3418052e-38
-2.5842538 1.3896863 1.4891641 2.3418052e-38
-2.5831859 1.3594184 1.4848748 2.3418052e-38
-2.5828025 1.3302038 1.4923478 2.3418052e-38
-2.5814402 1.294699 1.4853331 2.3418052e-38
-2.5811844 1.2804439 1.4877505 2.3418052e-38
-2.5807419 1.2655053 1.4871435 2.3418052e-38
-2.5803947 1.2486341 1.4892002 2.3418052e-38
-2.5801234 1.2040837 1.5062279 2.3418052e-38
-2.5792146 1.1838436 1.4998617 2.3418052e-38
-2.5778458 1.129976 1.5017579 2.3418052e-38
-2.577702 1.1239004 1.5021616 2.3418052e-38
-2.5775039 1.1128488 1.5040381 2.3418052e-38
-2.5770104 1.1008778 1.5010595 2.3418052e-38
-2.5761118 1.063858 1.503121 2.3418052e-38
-2.5756285 1.0504172 1.5010422 2.3418052e-38
-2.5751376 1.0303195 1.5021118 2.3418052e-38
-2.5745218 1.0008543 1.5055348 2.3418052e-38
-2.5740421 0.98584598 1.5042965 2.3418052e-38
-2.5734019 0.97159094 1.4998102 2.3418052e-38
-2.5725253 0.94495147 1.4971619 2.3418052e-38
-2.5723729 0.93733793 1.4981699 2.3418052e-38
-2.5715425 0.90054786 1.5013379 2.3418052e-38
-2.5710797 0.88605922 1.5001502 2.3418052e-38
-2.570226 0.83943188 1.5077374 2.3418052e-38
-2.5687175 0.79246223 1.5037415 2.3418052e-38
-2.5680494 0.77581829 1.4999299 2.3418052e-38
-2.5675411 0.75856555 1.4992745 2.3418052e-38
-2.5670037 0.73995394 1.498769 2.3418052e-38
-2.5658188 0.70537072 1.4944959 2.3418052e-38
-2.5656672 0.69857132 1.49511 2.3418052e-38
-2.5655429 0.69324625 1.4954972 2.3418052e-38
-2.5649788 0.67863184 1.4925542 2.3418052e-38
-2.5642314 0.64759678 1.4943849 2.3418052e-38
-2.5641198 0.63870656 1.4967538 2.3418052e-38
-2.5640473 0.63346207 1.4980267 2.3418052e-38
-2.5639751 0.62277836 1.5019859 2.3418052e-38
-2.5636933 0.61354351 1.5014647 2.3418052e-38
-2.5628886 0.58072072 1.5031492 2.3418052e-38
-2.5620646 0.55496979 1.501009 2.3418052e-38
-2.5612829 0.52744025 1.5004961 2.3418052e-38
-2.5604742 0.50128818 1.4988315 2.3418052e-38
-2.5602448 0.48658168 1.5019444 2.3418052e-38
-2.55984 0.47354013 1.5010903 2.3418052e-38
-2.5594082 0.45352638 1.5031694 2.3418052e-38
-2.558455 0.43209758 1.4965805 2.3418052e-38
-2.5574296 0.3884317 1.49963 2.3418052e-38
-2.557025 0.3744292 1.4992461 2.3418052e-38
-2.5568695 0.36833808 1.4994543 2.3418052e-38
-2.5562646 0.34843251 1.4983766 2.3418052e-38
-2.5561039 0.34124088 1.4990175 2.3418052e-38
-2.5560179 0.33675852 1.4996871 2.3418052e-38
-2.5555651 0.31597343 1.5017642 2.3418052e-38
-2.5548155 0.29677373 1.4977412 2.3418052e-38
-2.554302 0.2731984 1.5001093 2.3418052e-38
-2.5542483 0.26910731 1.501163 2.3418052e-38
-2.5536811 0.24287531 1.5038682 2.3418052e-38
-2.55303 0.22372007 1.5015914 2.3418052e-38
-2.5521903 0.18810549 1.5040176 2.3418052e-38
-2.5516739 0.17000261 1.5036466 2.3418052e-38
-2.5514281 0.15947551 1.5043969 2.3418052e-38
-2.5510414 0.14630562 1.5039309 2.3418052e-38
-2.5507383 0.13850701 1.5023255 2.3418052e-38
-2.5482166 0.043485738 1.5037496 2.3418052e-38
-2.5034542 0.28066361 0.58336294 2.3426335e-38
-2.5039086 0.31919596 0.5725854 2.3426335e-38
-2.5043757 0.32933202 0.57598746 2.3426335e-38
-2.5047197 0.33534747 0.57921404 2.3426335e-38
-2.5073557 0.38967961 0.59983635 2.3426335e-38
-2.5086348 0.42960081 0.60317969 2.3426335e-38
-2.5089438 0.44383544 0.60174119 2.3426335e-38
-2.5092494 0.45629525 0.60110265 2.3426335e-38
-2.5097792 0.47212458 0.60282743 2.3426335e-38
-2.510427 0.50145561 0.60005081 2.3426335e-38
-2.510186 0.57572985 0.55921209 2.3426335e-38
-2.5106409 0.58310157 0.56375498 2.3426335e-38
-2.5132086 0.6653586 0.56943303 2.3426335e-38
-2.5163639 0.73120862 0.59372228 2.3426335e-38
-2.5176723 0.77919763 0.59363723 2.3426335e-38
-2.5197923 0.8266654 0.60837382 2.3426335e-38
-2.5201662 0.84784633 0.60466897 2.3426335e-38
-2.5199652 0.87800866 0.58623683 2.3426335e-38
-2.520957 0.89879322 0.5938344 2.3426335e-38
-2.5216775 0.92400992 0.59437495 2.3426335e-38
-2.5234437 0.97645587 0.60031992 2.3426335e-38
-2.5250344 1.0269992 0.60403359 2.3426335e-38
-2.5258896 1.0550838 0.60558981 2.3426335e-38
-2.5272665 1.0909047 0.61270624 2.3426335e-38
-2.5276036 1.1058872 0.61138874 2.3426335e-38
-2.5256503 1.1634336 0.54803193 2.3426335e-38
-2.5246768 1.166837 0.52887261 2.3426335e-38
-2.5240531 1.1706653 0.51579893 2.3426335e-38
-2.5225871 1.1737189 0.48796725 2.3426335e-38
-2.5200472 1.1836187 0.43750179 2.3426335e-38
-2.5181661 1.1813917 0.40481156 2.3426335e-38
-2.5174878 1.1836998 0.39150029 2.3426335e-38
-2.5129898 1.1789193 0.31307536 2.3426335e-38
-2.5118659 1.1693466 0.29759961 2.3426335e-38
-2.5116248 1.1712992 0.2923044 2.3426335e-38
-2.5112395 1.1818569 0.28019977 2.3426335e-38
-2.5052927 1.1785266 0.17504929 2.3426335e-38
-2.5009332 1.1665339 0.10266297 2.3426335e-38
-2.4989979 1.1633725 0.069467932 2.3426335e-38
-2.4981151 1.1577975 0.056352407 2.3426335e-38
-2.4971128 1.160439 0.037053406 2.3426335e-38
-2.4963598 1.1613243 0.023096085 2.3426335e-38
-2.4954693 1.1665866 0.0045184344 2.3426335e-38
-2.4948246 1.169836 -0.0086521655 2.3426335e-38
-2.4929888 1.169332 -0.041372046 2.3426335e-38
-2.4917891 1.1652292 -0.060896128 2.3426335e-38
-2.4909067 1.1604122 -0.074372858 2.3426335e-38
-2.4899638 1.1526828 -0.087509811 2.3426335e-38
-2.4879827 1.1480503 -0.12080432 2.3426335e-38
-2.4871726 1.1457005 -0.13419876 2.3426335e-38
-2.4868114 1.144576 -0.140128 2.3426335e-38
-2.4853852 1.1468554 -0.16686332 2.3426335e-38
-2.483515 1.1451762 -0.19962242 2.3426335e-38
-2.4827325 1.1437907 -0.21298465 2.3426335e-38
-2.4815955 1.139936 -0.23151048 2.3426335e-38
-2.4806168 1.1337137 -0.24602397 2.3426335e-38
-2.4798059 1.1313312 -0.25941938 2.3426335e-38
-2.4788101 1.1288664 -0.27608523 2.3426335e-38
-2.4778361 1.1268985 -0.29261476 2.3426335e-38
-2.4769058 1.1294267 -0.31055534 2.3426335e-38
-2.4753432 1.1270375 -0.33744669 2.3426335e-38
-2.4743166 1.1280873 -0.3563962 2.3426335e-38
-2.4737246 1.1303999 -0.36816582 2.3426335e-38
-2.4725921 1.1328838 -0.38972044 2.3426335e-38
-2.4718702 1.1344252 -0.40344465 2.3426335e-38
-2.4715807 1.1355596 -0.40920049 2.3426335e-38
-2.470109 1.1364779 -0.43607926 2.3426335e-38
-2.4691715 1.1324265 -0.45091611 2.3426335e-38
-2.468214 1.1333333 -0.46855885 2.3426335e-38
-2.4670238 1.1301708 -0.48838001 2.3426335e-38
-2.4654479 1.1270016 -0.51511765 2.3426335e-38
-2.4643888 1.1276996 -0.53448141 2.3426335e-38
-2.4635675 1.12498 -0.54788834 2.3426335e-38
-2.4628689 1.1264583 -0.56115472 2.3426335e-38
-2.4611502 1.1299424 -0.59374166 2.3426335e-38
-2.4553616 1.0062792 -0.63690037 2.3426335e-38
-2.4556131 0.99059623 -0.62467694 2.3426335e-38
-2.4554224 0.9779461 -0.62188119 2.3426335e-38
-2.4550812 0.96572989 -0.62200278 2.3426335e-38
-2.4544704 0.9446581 -0.62261206 2.3426335e-38
-2.4535336 0.91178936 -0.6232723 2.3426335e-38
-2.4530768 0.89791965 -0.62466794 2.3426335e-38
-2.4523764 0.87756628 -0.62724131 2.3426335e-38
-2.4514616 0.84437424 -0.62735099 2.3426335e-38
-2.4501603 0.81152368 -0.63457078 2.3426335e-38
-2.4490783 0.76389867 -0.63058543 2.3426335e-38
-2.4489057 0.7453236 -0.62456441 2.3426335e-38
-2.4482491 0.71259618 -0.62026858 2.3426335e-38
-2.4478235 0.69940281 -0.62142062 2.3426335e-38
-2.4463956 0.66473705 -0.6300261 2.3426335e-38
-2.4458914 0.6305269 -0.62226593 2.3426335e-38
-2.4444187 0.56532145 -0.61665726 2.3426335e-38
-2.4444458 0.55542248 -0.61130732 2.3426335e-38
-2.4432344 0.50923866 -0.61035836 2.3426335e-38
-2.4429014 0.50195146 -0.61276072 2.3426335e-38
-2.4419518 0.47138095 -0.61478251 2.3426335e-38
-2.4415069 0.43806958 -0.60639554 2.3426335e-38
-2.4411643 0.42939913 -0.60828948 2.3426335e-38
-2.4397943 0.35871354 -0.59814936 2.3426335e-38
-2.4395647 0.34461138 -0.59534097 2.3426335e-38
-2.439105 0.33581442 -0.59926951 2.3426335e-38
-2.4376822 0.29084131 -0.60271567 2.3426335e-38
-2.4361515 0.26188314 -0.61596411 2.3426335e-38
-2.4350195 0.21208879 -0.61181581 2.3426335e-38
-2.4348421 0.20460424 -0.61132473 2.3426335e-38
-2.4346199 0.19119254 -0.60871845 2.3426335e-38
-2.4344475 0.14415868 -0.58870041 2.3426335e-38
-2.4344635 0.13533637 -0.58407652 2.3426335e-38
-2.434242 0.11962648 -0.58033192 2.3426335e-38
-2.4338503 0.096768998 -0.57612628 2.3426335e-38
-2.4329813 0.070149735 -0.57865107 2.3426335e-38
-2.4322762 0.050128967 -0.58147377 2.3426335e-38
-2.4309213 0.0095974803 -0.58587146 2.3426335e-38
-2.4298146 -0.033133164 -0.58474368 2.3426335e-38
-2.4295301 -0.052000195 -0.58058363 2.3426335e-38
-2.4294221 -0.063048154 -0.57709265 2.3426335e-38
-2.4285226 -0.083344348 -0.5832696 2.3426335e-38
-2.4274254 -0.10798126 -0.59086227 2.3426335e-38
-2.4266274 -0.14597301 -0.58651775 2.3426335e-38
-2.4264219 -0.15312311 -0.58669341 2.3426335e-38
-2.4261389 -0.16663177 -0.58513361 2.3426335e-38
-2.4253955 -0.18318662 -0.59034747 2.3426335e-38
-2.4250839 -0.18969074 -0.59274155 2.3426335e-38
-2.4238284 -0.23102988 -0.59497547 2.3426335e-38
-2.4232857 -0.24463108 -0.59803069 2.3426335e-38
-2.4228737 -0.25787884 -0.59891266 2.3426335e-38
-2.4224854 -0.27750865 -0.59623504 2.3426335e-38
-2.4222641 -0.29668736 -0.59078264 2.3426335e-38
-2.4220488 -0.30334336 -0.59137976 2.3426335e-38
-2.4215302 -0.32141849 -0.59181154 2.3426335e-38
-2.4206479 -0.3493616 -0.59391743 2.3426335e-38
-2.4200423 -0.37625921 -0.59157264 2.3426335e-38
-2.4196734 -0.40641031 -0.5833804 2.3426335e-38
-2.4190979 -0.42101187 -0.58653283 2.3426335e-38
-2.4180105 -0.4607321 -0.58653456 2.3426335e-38
-2.4175591 -0.4702445 -0.58996731 2.3426335e-38
-2.4171689 -0.47771639 -0.59330219 2.3426335e-38
-2.4160511 -0.50848532 -0.59824288 2.3426335e-38
-2.4155672 -0.53690535 -0.59297043 2.3426335e-38
-2.4146104 -0.55665386 -0.60044688 2.3426335e-38
-2.4136739 -0.60913789 -0.59145671 2.3426335e-38
-2.4126873 -0.66120195 -0.58358783 2.3426335e-38
-2.4119382 -0.68911201 -0.58331525 2.3426335e-38
-2.411346 -0.70939219 -0.58399189 2.3426335e-38
-2.4102693 -0.76419407 -0.57639086 2.3426335e-38
-2.4097378 -0.78529483 -0.57555538 2.3426335e-38
-2.4087079 -0.81673825 -0.57859826 2.3426335e-38
-2.4080243 -0.84791833 -0.5755499 2.3426335e-38
-2.40622 -0.91225094 -0.57631826 2.3426335e-38
-2.4055259 -0.92452109 -0.58275741 2.3426335e-38
-2.4043992 -0.94463092 -0.59311074 2.3426335e-38
-2.4031217 -0.98349524 -0.59694004 2.3426335e-38
-2.4016318 -1.041293 -0.59528428 2.3426335e-38
-2.4011753 -1.0593879 -0.59458882 2.3426335e-38
-2.4003608 -1.0858591 -0.59620172 2.3426335e-38
-2.3996739 -1.1055264 -0.59887546 2.3426335e-38
-2.3990502 -1.1385939 -0.59382254 2.3426335e-38
-2.3989456 -1.1555967 -0.58734208 2.3426335e-38
-2.398036 -1.1821258 -0.59062898 2.3426335e-38
-2.3973472 -1.1957827 -0.59629226 2.3426335e-38
-2.3955531 -1.243349 -0.60512406 2.3426335e-38
-2.3938506 -1.2879953 -0.6137569 2.3426335e-38
-2.3930249 -1.3206966 -0.61250848 2.3426335e-38
-2.3918519 -1.3790507 -0.60488951 2.3426335e-38
-2.3905087 -1.4137309 -0.61196578 2.3426335e-38
-2.3900676 -1.4267648 -0.6134758 2.3426335e-38
-2.3886578 -1.4489176 -0.6279062 2.3426335e-38
-2.3878558 -1.463238 -0.63526708 2.3426335e-38
-2.3869641 -1.4827381 -0.64169264 2.3426335e-38
-2.3864298 -1.4969296 -0.64431375 2.3426335e-38
-2.3856039 -1.5307375 -0.6425249 2.3426335e-38
-2.3845713 -1.6440918 -0.6053524 2.3426335e-38
-2.3856719 -1.6464977 -0.58440995 2.3426335e-38
-2.3878429 -1.658149 -0.53968585 2.3426335e-38
-2.3916917 -1.6488531 -0.47514915 2.3426335e-38
-2.3925786 -1.6474166 -0.45992792 2.3426335e-38
-2.3952355 -1.6534626 -0.40925062 2.3426335e-38
-2.395977 -1.652195 -0.39655918 2.3426335e-38
-2.3976943 -1.6552093 -0.36423165 2.3426335e-38
-2.3986521 -1.6530036 -0.34812069 2.3426335e-38
-2.4003515 -1.656693 -0.31579471 2.3426335e-38
-2.4013438 -1.654367 -0.29911691 2.3426335e-38
-2.4020975 -1.6553824 -0.28508621 2.3426335e-38
-2.4029894 -1.6536373 -0.2699199 2.3426335e-38
-2.4039853 -1.6547647 -0.25148439 2.3426335e-38
-2.4066033 -1.6640866 -0.19988872 2.3426335e-38
-2.4074378 -1.6622922 -0.18579172 2.3426335e-38
-2.4082165 -1.66014 -0.17286113 2.3426335e-38
-2.4091525 -1.6578619 -0.15717679 2.3426335e-38
-2.4094961 -1.6588631 -0.15051498 2.3426335e-38
-2.4135692 -1.6651207 -0.074294992 2.3426335e-38
-2.4145904 -1.6639838 -0.056520261 2.3426335e-38
-2.4153414 -1.664448 -0.042804673 2.3426335e-38
-2.4161584 -1.6629332 -0.028872848 2.3426335e-38
-2.4180233 -1.6626459 0.0044709891 2.3426335e-38
-2.4190581 -1.6625752 0.023012385 2.3426335e-38
-2.4196503 -1.6663191 0.035494789 2.3426335e-38
-2.4207523 -1.6675541 0.055886358 2.3426335e-38
-2.424058 -1.6670427 0.11499481 2.3426335e-38
-2.4251103 -1.6686114 0.13466759 2.3426335e-38
-2.4293728 -1.6718895 0.21281604 2.3426335e-38
-2.4302473 -1.6710567 0.22811009 2.3426335e-38
-2.4306056 -1.6726975 0.23534922 2.3426335e-38
-2.4319282 -1.6837674 0.26454318 2.3426335e-38
-2.4326861 -1.6870484 0.27976185 2.3426335e-38
-2.4344461 -1.6853082 0.31051075 2.3426335e-38
-2.436506 -1.6792151 0.34451276 2.3426335e-38
-2.4374504 -1.6799264 0.36181176 2.3426335e-38
-2.4379241 -1.6793697 0.37004399 2.3426335e-38
-2.4382944 -1.6788785 0.37645584 2.3426335e-38
-2.4403415 -1.6926756 0.41999662 2.3426335e-38
-2.4414501 -1.6928632 0.43999642 2.3426335e-38
-2.4422357 -1.6940758 0.45470685 2.3426335e-38
-2.4431975 -1.6968856 0.47334862 2.3426335e-38
-2.4438524 -1.6968819 0.48511684 2.3426335e-38
-2.4459672 -1.6903534 0.5198772 2.3426335e-38
-2.4519632 -1.6008735 0.58356512 2.3426335e-38
-2.4522972 -1.5862975 0.5824039 2.3426335e-38
-2.4543312 -1.5212535 0.58695573 2.3426335e-38
-2.4546311 -1.4897132 0.57683337 2.3426335e-38
-2.4549413 -1.4650857 0.57029665 2.3426335e-38
-2.4552221 -1.4565525 0.57114625 2.3426335e-38
-2.4559839 -1.4446552 0.57897919 2.3426335e-38
-2.4574673 -1.4140301 0.59056723 2.3426335e-38
-2.4578538 -1.4010913 0.59114283 2.3426335e-38
-2.4583485 -1.3825912 0.59093517 2.3426335e-38
-2.4586778 -1.3670356 0.58920044 2.3426335e-38
-2.4589574 -1.3505018 0.58609611 2.3426335e-38
-2.4599581 -1.3039155 0.58116627 2.3426335e-38
-2.4606605 -1.2795265 0.58179039 2.3426335e-38
-2.4610524 -1.2666252 0.58248651 2.3426335e-38
-2.4631777 -1.2087538 0.5922026 2.3426335e-38
-2.4632623 -1.2015522 0.59018928 2.3426335e-38
-2.4637721 -1.1707482 0.58420193 2.3426335e-38
-2.4655054 -1.1232607 0.59198391 2.3426335e-38
-2.466948 -1.0882863 0.6007027 2.3426335e-38
-2.4672647 -1.0747633 0.59973699 2.3426335e-38
-2.467814 -1.0555327 0.6001569 2.3426335e-38
-2.4681172 -1.0470202 0.60140991 2.3426335e-38
-2.4685373 -1.0317624 0.60145324 2.3426335e-38
-2.4689939 -1.0195503 0.60364705 2.3426335e-38
-2.4699929 -0.97427636 0.59933913 2.3426335e-38
-2.4700739 -0.96941519 0.59840465 2.3426335e-38
-2.4701889 -0.95123315 0.59152943 2.3426335e-38
-2.4719715 -0.90878272 0.60266966 2.3426335e-38
-2.4725962 -0.87604314 0.59779614 2.3426335e-38
-2.4745147 -0.82741892 0.60835481 2.3426335e-38
-2.4747076 -0.81222558 0.60434723 2.3426335e-38
-2.4750397 -0.79784274 0.60324156 2.3426335e-38
-2.4754605 -0.78275287 0.60338026 2.3426335e-38
-2.4766159 -0.70781505 0.58729362 2.3426335e-38
-2.4768827 -0.69656146 0.58655465 2.3426335e-38
-2.480226 -0.63557744 0.61661124 2.3426335e-38
-2.4806771 -0.58504725 0.59988225 2.3426335e-38
-2.4816191 -0.5643537 0.60662305 2.3426335e-38
-2.4821055 -0.55273008 0.60964626 2.3426335e-38
-2.4831512 -0.51694334 0.61083001 2.3426335e-38
-2.4836638 -0.47313929 0.59850568 2.3426335e-38
-2.4843564 -0.43367463 0.59154451 2.3426335e-38
-2.4845905 -0.4194479 0.58875328 2.3426335e-38
-2.4849243 -0.40726814 0.58875656 2.3426335e-38
-2.486793 -0.35997069 0.59906638 2.3426335e-38
-2.4872513 -0.35026148 0.60252583 2.3426335e-38
-2.4885836 -0.30995604 0.60664082 2.3426335e-38
-2.4898629 -0.27100503 0.61046726 2.3426335e-38
-2.4902568 -0.25721002 0.61075473 2.3426335e-38
-2.4908991 -0.23278204 0.61027938 2.3426335e-38
-2.4912097 -0.21872285 0.60895205 2.3426335e-38
-2.4913216 -0.2124207 0.60786676 2.3426335e-38
-2.491643 -0.20383705 0.6094138 2.3426335e-38
-2.4921184 -0.19138923 0.61183506 2.3426335e-38
-2.492511 -0.180677 0.61362004 2.3426335e-38
-2.4931748 -0.14571309 0.60835558 2.3426335e-38
-2.4935446 -0.13105807 0.60779017 2.3426335e-38
-2.4945345 -0.099766791 0.61018807 2.3426335e-38
-2.4950686 -0.078326739 0.60924244 2.3426335e-38
-2.4960716 -0.034235358 0.60557997 2.3426335e-38
-2.4962876 -0.027150348 0.60597569 2.3426335e-38
-2.4970415 -0.00084470212 0.60657567 2.3426335e-38
-2.4973006 0.010690555 0.60556042 2.3426335e-38
-2.4976192 0.020788245 0.60632497 2.3426335e-38
-2.4987843 0.053162962 0.61132634 2.3426335e-38
-2.4996922 0.079885572 0.61449194 2.3426335e-38
-2.5003359 0.11234108 0.61010224 2.3426335e-38
-2.5007217 0.13062406 0.60805088 2.3426335e-38
-2.5011151 0.14621347 0.60744071 2.3426335e-38
-2.5014789 0.16230091 0.60607094 2.3426335e-38
-2.5017672 0.17729148 0.60387045 2.3426335e-38
-2.5018554 0.19356194 0.59747124 2.3426335e-38
-2.5018966 0.20167238 0.59422171 2.3426335e-38
-2.5022631 0.21121341 0.59610999 2.3426335e-38
-2.5034542 0.28066361 0.58336294 2.3426335e-38
-2.5096457 1.3955836 0.14652883 2.3442901e-38
-2.5100391 1.3734983 0.16445313 2.3442901e-38
-2.5098398 1.3435581 0.17558308 2.3442901e-38
-2.5087974 1.2811317 0.18755575 2.3442901e-38
-2.5136409 1.2122233 0.30840081 2.3442901e-38
-2.5152986 1.2141519 0.33721128 2.3442901e-38
-2.5185471 1.2424934 0.38161701 2.3442901e-38
-2.5197473 1.2580113 0.39554852 2.3442901e-38
-2.522907 1.2429718 0.45968008 2.3442901e-38
-2.5251801 1.230118 0.5068137 2.3442901e-38
-2.5278172 1.2464621 0.5461334 2.3442901e-38
-2.5313935 1.2827057 0.5925442 2.3442901e-38
-2.5334182 1.3496096 0.59600908 2.3442901e-38
-2.5333159 1.3679154 0.58518064 2.3442901e-38
-2.5347295 1.427433 0.5813064 2.3442901e-38
-2.5351179 1.4402068 0.58200532 2.3442901e-38
-2.535537 1.4545391 0.58248192 2.3442901e-38
-2.5362937 1.4790155 0.58404279 2.3442901e-38
-2.5377023 1.5133579 0.59245294 2.3442901e-38
-2.5384915 1.5541853 0.58655953 2.3442901e-38
-2.5353205 1.6019864 0.50612128 2.3442901e-38
-2.5319009 1.588232 0.45147628 2.3442901e-38
-2.5258543 1.5714624 0.3511377 2.3442901e-38
-2.5250354 1.5646794 0.33976746 2.3442901e-38
-2.5263982 1.5850673 0.3542164 2.3442901e-38
-2.5285666 1.6337788 0.36921114 2.3442901e-38
-2.528497 1.689332 0.34065646 2.3442901e-38
-2.5262859 1.7271972 0.28233534 2.3442901e-38
-2.5211475 1.7019413 0.20248295 2.3442901e-38
-2.5183189 1.6554956 0.17451735 2.3442901e-38
-2.5179589 1.6494646 0.1710196 2.3442901e-38
-2.5156586 1.5803037 0.16370802 2.3442901e-38
-2.5132737 1.6005867 0.11091508 2.3442901e-38
-2.5121403 1.6105702 0.085650086 2.3442901e-38
-2.51106 1.6241732 0.059566796 2.3442901e-38
-2.5087976 1.7063513 -0.021448597 2.3442901e-38
-2.5026617 1.6125596 -0.085535266 2.3442901e-38
-2.5018475 1.5596399 -0.074139088 2.3442901e-38
-2.5015604 1.5465088 -0.072846062 2.3442901e-38
-2.5010917 1.5274323 -0.071880288 2.3442901e-38
-2.5000186 1.4874415 -0.071495816 2.3442901e-38
-2.4993563 1.462115 -0.070939586 2.3442901e-38
-2.498986 1.4408797 -0.067151561 2.3442901e-38
-2.4980705 1.417871 -0.072283775 2.3442901e-38
-2.4971607 1.3921382 -0.075973302 2.3442901e-38
-2.4958537 1.3522582 -0.079840079 2.3442901e-38
-2.4954886 1.3137333 -0.067461982 2.3442901e-38
-2.4973433 1.2452455 -0.00048997998 2.3442901e-38
-2.5052185 1.308677 0.10975026 2.3442901e-38
-2.5086052 1.3727689 0.13906018 2.3442901e-38
-2.5088365 1.380723 0.13930203 2.3442901e-38
-2.5093224 1.3897574 0.14358892 2.3442901e-38
-2.5096457 1.3955836 0.14652883 2.3442901e-38
