# .PCD v0.7 - Point Cloud Data file format
VERSION 0.7
FIELDS x y z rgb
SIZE 4 4 4 4
TYPE F F F F
COUNT 1 1 1 1
WIDTH 434
HEIGHT 1
VIEWPOINT 0 0 0 1 0 0 0
POINTS 434
DATA ascii
2.5132134 2.2348328 0.81778204 2.3448663e-38
2.527812 2.2394738 0.81805843 2.3448663e-38
2.5463538 2.2418036 0.81846094 2.3448663e-38
2.5736179 2.2502971 0.81897968 2.3448663e-38
2.5963116 2.2418289 0.81963557 2.3448663e-38
2.6606879 2.2261252 0.8213762 2.3448663e-38
2.6806703 2.2249868 0.82186264 2.3448663e-38
2.7127814 2.2339425 0.82248878 2.3448663e-38
2.7336767 2.2349489 0.82296568 2.3448663e-38
2.7498558 2.2397585 0.82327688 2.3448663e-38
2.7787194 2.2374423 0.82398915 2.3448663e-38
2.7920139 2.2269416 0.82445329 2.3448663e-38
2.7958188 2.2132003 0.82474095 2.3448663e-38
2.7973583 2.1991522 0.82497978 2.3448663e-38
2.8067923 2.1534667 0.82586062 2.3448663e-38
2.7991216 2.1135907 0.82625532 2.3448663e-38
2.8045199 2.0857768 0.82678348 2.3448663e-38
2.8196588 2.0618441 0.82748473 2.3448663e-38
2.822346 2.0491021 0.82773173 2.3448663e-38
2.8148484 2.0393815 0.82769555 2.3448663e-38
2.8033018 1.9861041 0.82819247 2.3448663e-38
2.8050129 1.9548814 0.82868302 2.3448663e-38
2.7999501 1.9357308 0.8288402 2.3448663e-38
2.8033757 1.8701221 0.82986701 2.3448663e-38
2.7973349 1.8152105 0.83051693 2.3448663e-38
2.8040786 1.78732 0.83107781 2.3448663e-38
2.8232553 1.7488986 0.83208305 2.3448663e-38
2.8106723 1.7100643 0.83234721 2.3448663e-38
2.8110266 1.6760024 0.83284688 2.3448663e-38
2.8046792 1.6562245 0.83298278 2.3448663e-38
2.801059 1.6044102 0.83364499 2.3448663e-38
2.8038347 1.5871165 0.8339597 2.3448663e-38
2.7920947 1.5500616 0.83421803 2.3448663e-38
2.7919493 1.5341403 0.83444434 2.3448663e-38
2.7881205 1.5651699 0.83390671 2.3448663e-38
2.7904453 1.5934511 0.83355343 2.3448663e-38
2.7959502 1.6186279 0.83331978 2.3448663e-38
2.7956679 1.6375844 0.8330397 2.3448663e-38
2.8046126 1.6892914 0.83250427 2.3448663e-38
2.8022528 1.7016189 0.83227098 2.3448663e-38
2.8086464 1.724454 0.83209205 2.3448663e-38
2.8000066 1.769209 0.83124328 2.3448663e-38
2.7941668 1.784111 0.83089101 2.3448663e-38
2.7971437 1.8007975 0.83072042 2.3448663e-38
2.7920675 1.8312707 0.83016133 2.3448663e-38
2.7914236 1.8489134 0.8298918 2.3448663e-38
2.7858591 1.8939267 0.8291117 2.3448663e-38
2.7862775 1.9029355 0.82899159 2.3448663e-38
2.7875285 1.9283631 0.82865429 2.3448663e-38
2.7949638 1.9813268 0.82806522 2.3448663e-38
2.7936463 1.9892031 0.82792068 2.3448663e-38
2.7967021 1.9995728 0.82784301 2.3448663e-38
2.8037167 2.0222788 0.82768041 2.3448663e-38
2.7976525 2.0640681 0.82693505 2.3448663e-38
2.795099 2.0770161 0.82668829 2.3448663e-38
2.7898383 2.0964339 0.82628447 2.3448663e-38
2.7771552 2.1201808 0.82564366 2.3448663e-38
2.7563968 2.1602619 0.82457727 2.3448663e-38
2.691571 2.2156873 0.82225311 2.3448663e-38
2.651875 2.2204556 0.82125074 2.3448663e-38
2.6467698 2.2194831 0.8211447 2.3448663e-38
2.6331425 2.2161851 0.82087171 2.3448663e-38
2.6147125 2.2149572 0.82045597 2.3448663e-38
2.6097941 2.2140081 0.82035398 2.3448663e-38
2.5919192 2.2208326 0.81983513 2.3448663e-38
2.5575259 2.2319808 0.81886542 2.3448663e-38
2.5186393 2.2336767 0.81792629 2.3448663e-38
2.5001309 2.2304835 0.81753701 2.3448663e-38
2.4871542 2.22593 0.81729758 2.3448663e-38
2.4713647 2.2242274 0.81695068 2.3448663e-38
2.4510384 2.2184074 0.81655657 2.3448663e-38
2.4313927 2.2227116 0.81603241 2.3448663e-38
2.4004016 2.2200575 0.81534177 2.3448663e-38
2.3514707 2.2135897 0.81428421 2.3448663e-38
2.3479195 2.2116632 0.81422848 2.3448663e-38
2.3235679 2.2012744 0.81380558 2.3448663e-38
2.3046155 2.1939712 0.81346512 2.3448663e-38
2.2594817 2.1509664 0.81302392 2.3448663e-38
2.2304323 2.1065211 0.81298167 2.3448663e-38
2.2186735 2.0620503 0.81334656 2.3448663e-38
2.2092605 2.0242517 0.81367028 2.3448663e-38
2.2142496 1.9937319 0.81422782 2.3448663e-38
2.2203665 1.9804054 0.81456393 2.3448663e-38
2.2231381 1.9155194 0.81556499 2.3448663e-38
2.2166317 1.8957613 0.8156969 2.3448663e-38
2.2180142 1.8469448 0.81643355 2.3448663e-38
2.2100711 1.7767192 0.81725961 2.3448663e-38
2.2172875 1.763929 0.81761378 2.3448663e-38
2.2089713 1.74322 0.81771684 2.3448663e-38
2.2051029 1.7082902 0.81812972 2.3448663e-38
2.1999073 1.6904957 0.81826419 2.3448663e-38
2.2022743 1.6570742 0.81880188 2.3448663e-38
2.2109134 1.6285188 0.81941694 2.3448663e-38
2.2121072 1.612673 0.81967354 2.3448663e-38
2.2217867 1.5518055 0.8207792 2.3448663e-38
2.2203951 1.5179656 0.82123452 2.3448663e-38
2.208662 1.4449687 0.82201147 2.3448663e-38
2.2130358 1.3965963 0.82281196 2.3448663e-38
2.2161641 1.3840282 0.82306689 2.3448663e-38
2.2209239 1.3533458 0.82362127 2.3448663e-38
2.2272816 1.340131 0.82396144 2.3448663e-38
2.2341931 1.3272635 0.82430953 2.3448663e-38
2.2138369 1.2670267 0.82469964 2.3448663e-38
2.2168894 1.217742 0.82548225 2.3448663e-38
2.218533 1.1706563 0.82620007 2.3448663e-38
2.2349057 1.1293223 0.82718134 2.3448663e-38
2.2318594 1.0948125 0.82760745 2.3448663e-38
2.2216995 1.0401412 0.82815701 2.3448663e-38
2.2365911 0.98172408 0.82934982 2.3448663e-38
2.2194886 0.95631176 0.82931405 2.3448663e-38
2.2060401 0.9493764 0.82909781 2.3448663e-38
2.1743593 0.9380067 0.82851666 2.3448663e-38
2.1330669 0.91717637 0.82784593 2.3448663e-38
2.0923505 0.92273623 0.82680809 2.3448663e-38
2.0542786 0.92736155 0.8258459 2.3448663e-38
2.0385196 0.92556554 0.82550114 2.3448663e-38
1.9959266 0.92279148 0.82453942 2.3448663e-38
1.9617043 0.93807602 0.82351398 2.3448663e-38
1.9270426 0.93657911 0.82272035 2.3448663e-38
1.9135042 0.96254259 0.82202744 2.3448663e-38
1.9067401 0.97552645 0.82168114 2.3448663e-38
1.8929116 1.0013659 0.82098311 2.3448663e-38
1.885892 1.0142405 0.82063234 2.3448663e-38
1.878603 1.0269994 0.82027686 2.3448663e-38
1.8793939 1.0928032 0.81934637 2.3448663e-38
1.8719816 1.1391294 0.81850386 2.3448663e-38
1.86581 1.152367 0.81816775 2.3448663e-38
1.8521293 1.2112981 0.81699592 2.3448663e-38
1.8594109 1.2645923 0.81639856 2.3448663e-38
1.7481718 1.3054558 0.81319284 2.3448663e-38
1.7296282 1.3436385 0.81220591 2.3448663e-38
1.6927208 1.3761736 0.81086862 2.3448663e-38
1.6436356 1.4002613 0.8093667 2.3448663e-38
1.6095515 1.4320396 0.80810672 2.3448663e-38
1.5586793 1.457664 0.80654061 2.3448663e-38
1.5324711 1.4746326 0.80567944 2.3448663e-38
1.5251914 1.4873961 0.80532414 2.3448663e-38
1.5184221 1.5003778 0.80497772 2.3448663e-38
1.5121851 1.5135871 0.80464041 2.3448663e-38
1.4511836 1.5962251 0.80201375 2.3448663e-38
1.428138 1.6023089 0.80138397 2.3448663e-38
1.4193261 1.6141859 0.80100542 2.3448663e-38
1.4147325 1.6283365 0.80069327 2.3448663e-38
1.4217473 1.6666545 0.8003056 2.3448663e-38
1.423547 1.679161 0.80016756 2.3448663e-38
1.4227132 1.6975095 0.79988331 2.3448663e-38
1.4229918 1.7121694 0.79967839 2.3448663e-38
1.4287083 1.7337996 0.79950088 2.3448663e-38
1.4300945 1.7516237 0.79927635 2.3448663e-38
1.4288468 1.7675694 0.79901701 2.3448663e-38
1.435805 1.7878183 0.79888862 2.3448663e-38
1.4387511 1.8193772 0.79850268 2.3448663e-38
1.4556942 1.847639 0.79849356 2.3448663e-38
1.4662321 1.868199 0.79844493 2.3448663e-38
1.4717661 1.8888168 0.79827774 2.3448663e-38
1.5910063 1.9011077 0.80090499 2.3448663e-38
1.5985428 1.9214826 0.8007884 2.3448663e-38
1.5917964 2.000531 0.79948956 2.3448663e-38
1.5849028 2.0134592 0.79914093 2.3448663e-38
1.5781956 2.0264673 0.79879558 2.3448663e-38
1.5708284 2.0391934 0.79843873 2.3448663e-38
1.5293522 2.0836873 0.79682148 2.3448663e-38
1.5371674 2.1029177 0.7967279 2.3448663e-38
1.5504757 2.1111479 0.79692221 2.3448663e-38
1.5733962 2.1065328 0.79752791 2.3448663e-38
1.6275177 2.1016579 0.79887116 2.3448663e-38
1.6676676 2.1238317 0.79949564 2.3448663e-38
1.7368271 2.1254857 0.80109847 2.3448663e-38
1.7639041 2.1396153 0.80153155 2.3448663e-38
1.7799611 2.1476665 0.80179304 2.3448663e-38
1.8291022 2.1402614 0.80305564 2.3448663e-38
1.8735234 2.1273263 0.80428702 2.3448663e-38
1.8889936 2.1224539 0.80472124 2.3448663e-38
1.9666963 2.1292331 0.80645102 2.3448663e-38
1.9767686 2.1345229 0.80661154 2.3448663e-38
1.9952013 2.1403351 0.8069613 2.3448663e-38
2.0276418 2.1549385 0.80751365 2.3448663e-38
2.0846894 2.1453774 0.80899334 2.3448663e-38
2.114459 2.1561573 0.80953801 2.3448663e-38
2.1924627 2.1807714 0.81101763 2.3448663e-38
2.2257257 2.2318025 0.81106389 2.3448663e-38
2.2403243 2.2518737 0.81111783 2.3448663e-38
2.2459295 2.2658625 0.81104791 2.3448663e-38
2.2500119 2.2749462 0.81101292 2.3448663e-38
2.2582936 2.283325 0.81108683 2.3448663e-38
2.2682273 2.2937469 0.8111701 2.3448663e-38
2.2786539 2.3106182 0.81117207 2.3448663e-38
2.2958426 2.3363793 0.81120479 2.3448663e-38
2.3070979 2.3488333 0.81128997 2.3448663e-38
2.3110693 2.352901 0.8113246 2.3448663e-38
2.3025906 2.3396709 0.81131601 2.3448663e-38
2.3886397 2.2335863 0.81487 2.3448663e-38
2.4033101 2.2405231 0.81511503 2.3448663e-38
2.4684198 2.2271116 0.81683981 2.3448663e-38
2.5132134 2.2348328 0.81778204 2.3448663e-38
1.5292926 -0.17941844 0.82946157 2.3479274e-38
1.5352812 -0.15983708 0.82931995 2.3479274e-38
1.5362047 -0.12635081 0.82885879 2.3479274e-38
1.5285316 -0.080808982 0.82802153 2.3479274e-38
1.5218751 -0.067775257 0.82767689 2.3479274e-38
1.5150757 -0.054823123 0.82733011 2.3479274e-38
1.5121058 -0.041973874 0.82707494 2.3479274e-38
1.5181816 -0.02002354 0.82690132 2.3479274e-38
1.5236501 0.0023641111 0.82670701 2.3479274e-38
1.5228179 0.034527157 0.82622343 2.3479274e-38
1.5207788 0.047348022 0.82599062 2.3479274e-38
1.5247338 0.06473656 0.8258329 2.3479274e-38
1.5229423 0.097953558 0.8253116 2.3479274e-38
1.5215933 0.13037895 0.82481223 2.3479274e-38
1.5197034 0.14470576 0.82456112 2.3479274e-38
1.5218346 0.16533428 0.8243137 2.3479274e-38
1.5233935 0.18077093 0.82412767 2.3479274e-38
1.5188307 0.21243726 0.82356364 2.3479274e-38
1.5184727 0.24452721 0.8230924 2.3479274e-38
1.5217352 0.26452795 0.82288069 2.3479274e-38
1.5235435 0.27994278 0.82270086 2.3479274e-38
1.5250535 0.29434055 0.82252878 2.3479274e-38
1.5263597 0.33052409 0.82203758 2.3479274e-38
1.528559 0.35139093 0.82178825 2.3479274e-38
1.5273101 0.36451945 0.82156956 2.3479274e-38
1.5251511 0.39642987 0.82105857 2.3479274e-38
1.5169735 0.44172949 0.82021278 2.3479274e-38
1.512271 0.45637211 0.81989098 2.3479274e-38
1.5251179 0.495482 0.81962901 2.3479274e-38
1.5196273 0.54220617 0.81882602 2.3479274e-38
1.5186921 0.574826 0.81833351 2.3479274e-38
1.5310485 0.58110416 0.81853372 2.3479274e-38
1.5565467 0.59437156 0.81894201 2.3479274e-38
1.5735857 0.60336453 0.81921303 2.3479274e-38
1.6122879 0.60716414 0.82006854 2.3479274e-38
1.6272364 0.60173815 0.82049847 2.3479274e-38
1.6774539 0.59919733 0.82171619 2.3479274e-38
1.6925566 0.59953189 0.82206655 2.3479274e-38
1.7260389 0.60052449 0.8228398 2.3479274e-38
1.74765 0.59657842 0.82340491 2.3479274e-38
1.7939708 0.60306293 0.82440096 2.3479274e-38
1.814561 0.59725767 0.82496893 2.3479274e-38
1.8469137 0.59768701 0.82572365 2.3479274e-38
1.8805642 0.59965372 0.82648671 2.3479274e-38
1.9207757 0.58862126 0.82759154 2.3479274e-38
2.0084457 0.58310467 0.82973325 2.3479274e-38
2.0749557 0.58482981 0.83127272 2.3479274e-38
2.0955157 0.57909 0.83183897 2.3479274e-38
2.1290145 0.54706824 0.83308887 2.3479274e-38
2.1952071 0.54861188 0.83462334 2.3479274e-38
2.209321 0.55870324 0.83480978 2.3479274e-38
2.2135749 0.54367214 0.83512658 2.3479274e-38
2.1957746 0.48288906 0.83558464 2.3479274e-38
2.1997128 0.46842426 0.83588588 2.3479274e-38
2.2198169 0.42940879 0.83692157 2.3479274e-38
2.2150509 0.37734431 0.83756042 2.3479274e-38
2.2171652 0.31241047 0.83854663 2.3479274e-38
2.222425 0.26564941 0.8393448 2.3479274e-38
2.2078428 0.1919204 0.84006524 2.3479274e-38
2.2021968 0.17250822 0.84021246 2.3479274e-38
2.1958904 0.15153915 0.84036666 2.3479274e-38
2.1901326 0.13189033 0.8405146 2.3479274e-38
2.2467909 0.051388964 0.84300828 2.3479274e-38
2.2191899 -0.00025952701 0.843104 2.3479274e-38
2.2012489 -0.026175994 0.8430559 2.3479274e-38
2.1894205 -0.065390751 0.84334326 2.3479274e-38
2.1859143 -0.16626839 0.84471571 2.3479274e-38
2.1929996 -0.17907818 0.84506714 2.3479274e-38
2.2462971 -0.21736662 0.84687293 2.3479274e-38
2.2146087 -0.21782975 0.84613436 2.3479274e-38
2.1967211 -0.22185858 0.84577173 2.3479274e-38
2.165143 -0.22400476 0.84505999 2.3479274e-38
2.1440983 -0.22014907 0.84450942 2.3479274e-38
2.1247571 -0.22188462 0.84407955 2.3479274e-38
2.0622401 -0.26421744 0.8432197 2.3479274e-38
2.042006 -0.25829083 0.84265828 2.3479274e-38
2.022877 -0.25173253 0.84211379 2.3479274e-38
2.0027857 -0.24572469 0.84155458 2.3479274e-38
1.9851949 -0.23842195 0.84103554 2.3479274e-38
1.9644144 -0.2327092 0.84046429 2.3479274e-38
1.9422677 -0.22783993 0.83987325 2.3479274e-38
1.9089103 -0.2277429 0.83908725 2.3479274e-38
1.8846962 -0.2249496 0.83847749 2.3479274e-38
1.8676213 -0.21895523 0.83798939 2.3479274e-38
1.8215454 -0.22491494 0.83699167 2.3479274e-38
1.8099391 -0.23102003 0.83680665 2.3479274e-38
1.7542163 -0.22710887 0.83543968 2.3479274e-38
1.7006104 -0.22211185 0.83410686 2.3479274e-38
1.6689601 -0.21842304 0.83330917 2.3479274e-38
1.6475508 -0.21680263 0.83278227 2.3479274e-38
1.6119792 -0.21614736 0.83193618 2.3479274e-38
1.5631354 -0.22035497 0.8308481 2.3479274e-38
1.5479009 -0.21821772 0.83045882 2.3479274e-38
1.5306693 -0.20973724 0.8299312 2.3479274e-38
1.5222842 -0.19878227 0.82957608 2.3479274e-38
2.8332214 0.21857864 0.85438979 2.3479274e-38
2.8245504 0.24876553 0.85375047 2.3479274e-38
2.8292427 0.28245831 0.85337484 2.3479274e-38
2.842345 0.35759857 0.8525992 2.3479274e-38
2.8321497 0.1521669 0.85532242 2.3479274e-38
2.8350451 0.12052955 0.85584688 2.3479274e-38
2.8216774 0.061931215 0.8563776 2.3479274e-38
2.815836 0.044436991 0.85649258 2.3479274e-38
2.8260269 0.00010235794 0.85737169 2.3479274e-38
2.8260078 -0.014053896 0.85757542 2.3479274e-38
2.7914855 -0.11676028 0.85824484 2.3479274e-38
2.7524602 -0.14194532 0.85769022 2.3479274e-38
2.7283788 -0.1657211 0.85746676 2.3479274e-38
2.7246563 -0.16854411 0.85741991 2.3479274e-38
2.7127199 -0.17749812 0.85726827 2.3479274e-38
2.7045996 -0.19375248 0.85731173 2.3479274e-38
2.6230395 -0.27022356 0.85649645 2.3479274e-38
2.589751 -0.27020887 0.85571325 2.3479274e-38
2.5762568 -0.28660744 0.85563242 2.3479274e-38
2.5628145 -0.29924554 0.85549849 2.3479274e-38
2.549572 -0.30762449 0.85530788 2.3479274e-38
2.5209622 -0.32192686 0.85484129 2.3479274e-38
2.5055268 -0.33327827 0.85464197 2.3479274e-38
2.5400386 -0.31722558 0.85522217 2.3479274e-38
2.5677278 -0.31485808 0.85583925 2.3479274e-38
2.6284704 -0.3298355 0.85748398 2.3479274e-38
2.6523075 -0.30665055 0.85771018 2.3479274e-38
2.6666486 -0.29910523 0.85793865 2.3479274e-38
2.6809146 -0.28881043 0.85812575 2.3479274e-38
2.720504 -0.2528902 0.85853881 2.3479274e-38
2.7256103 -0.24367495 0.85852599 2.3479274e-38
2.7923422 -0.16536777 0.85896605 2.3479274e-38
2.8651102 -0.19959304 0.86117125 2.3479274e-38
2.8746238 -0.1885916 0.86123633 2.3479274e-38
2.8671482 -0.10304217 0.85982656 2.3479274e-38
2.8639755 -0.095233433 0.85963935 2.3479274e-38
2.8573234 -0.082741514 0.8593027 2.3479274e-38
2.8523707 -0.068378158 0.85897905 2.3479274e-38
2.845279 -0.051780246 0.85857284 2.3479274e-38
2.8423655 -0.040425263 0.85834056 2.3479274e-38
2.8347909 0.021486485 0.85726947 2.3479274e-38
2.8404679 0.060632668 0.85683835 2.3479274e-38
2.842185 0.075126596 0.85666966 2.3479274e-38
2.8416362 0.090283073 0.85643816 2.3479274e-38
2.8412299 0.10723929 0.85618407 2.3479274e-38
2.8370032 0.12199444 0.85587186 2.3479274e-38
2.8359361 0.13353856 0.85568017 2.3479274e-38
2.8341491 0.16744408 0.85514915 2.3479274e-38
2.8394501 0.1869144 0.85499299 2.3479274e-38
2.8433428 0.2074568 0.85478824 2.3479274e-38
2.8381827 0.22163805 0.85446239 2.3479274e-38
2.8327925 0.26688793 0.85368288 2.3479274e-38
2.8388588 0.28676313 0.85353887 2.3479274e-38
2.847342 0.3082912 0.85342795 2.3479274e-38
2.8495357 0.32824737 0.85319167 2.3479274e-38
2.855005 0.34588096 0.85306597 2.3479274e-38
2.8527975 0.35871276 0.85282892 2.3479274e-38
2.8493013 0.37595755 0.85249805 2.3479274e-38
2.8505723 0.40659541 0.85208607 2.3479274e-38
2.8512838 0.42629525 0.85181862 2.3479274e-38
2.8474863 0.45754278 0.8512786 2.3479274e-38
2.8491168 0.47108695 0.8511216 2.3479274e-38
2.8480077 0.50796908 0.85056359 2.3479274e-38
2.8553231 0.55224192 0.85009706 2.3479274e-38
2.8555858 0.56200981 0.84996235 2.3479274e-38
2.8593242 0.58121794 0.84977323 2.3479274e-38
2.8612912 0.59646726 0.84959954 2.3479274e-38
2.8583422 0.61160094 0.84931195 2.3479274e-38
2.8531516 0.65772712 0.84852457 2.3479274e-38
2.8495362 0.67265105 0.84822428 2.3479274e-38
2.8466358 0.70453912 0.84769613 2.3479274e-38
2.847919 0.76748759 0.84681839 2.3479274e-38
2.8582838 0.79176617 0.84671199 2.3479274e-38
2.8638647 0.84236556 0.84611344 2.3479274e-38
2.8638024 0.84527069 0.84606999 2.3479274e-38
2.856318 0.85769731 0.84571475 2.3479274e-38
2.8397849 0.8820557 0.84497458 2.3479274e-38
2.8201041 0.93844235 0.84369844 2.3479274e-38
2.8144314 0.96664304 0.84315825 2.3479274e-38
2.8106701 0.98236394 0.84284306 2.3479274e-38
2.8074141 1.0471082 0.8418327 2.3479274e-38
2.8126559 1.0664326 0.84167719 2.3479274e-38
2.8299274 1.1074986 0.8414911 2.3479274e-38
2.8192983 1.1529473 0.84058559 2.3479274e-38
2.8142104 1.1660991 0.8402763 2.3479274e-38
2.813045 1.1986413 0.83977944 2.3479274e-38
2.8075302 1.2122657 0.83945322 2.3479274e-38
2.802865 1.2263212 0.83914077 2.3479274e-38
2.7987661 1.2714018 0.83839422 2.3479274e-38
2.8009682 1.2904609 0.83817106 2.3479274e-38
2.7978516 1.3226547 0.83763343 2.3479274e-38
2.8019445 1.3581758 0.83721733 2.3479274e-38
2.8077154 1.3774945 0.83707446 2.3479274e-38
2.8031583 1.3913268 0.83676773 2.3479274e-38
2.8031969 1.4252056 0.83627999 2.3479274e-38
2.8007824 1.404438 0.83652276 2.3479274e-38
2.8126271 1.1485966 0.84049141 2.3479274e-38
2.8146071 1.133551 0.84075499 2.3479274e-38
2.8129971 1.1156995 0.84097463 2.3479274e-38
2.8015225 1.0696759 0.84136856 2.3479274e-38
2.7982233 1.0420492 0.84168935 2.3479274e-38
2.7920852 1.0196424 0.84186816 2.3479274e-38
2.7942545 1.0073221 0.84209692 2.3479274e-38
2.7995181 0.99329436 0.84242308 2.3479274e-38
2.8134894 0.95089835 0.84336317 2.3479274e-38
2.8168356 0.92242247 0.84385258 2.3479274e-38
2.8233917 0.90712482 0.84422737 2.3479274e-38
2.8313029 0.8780542 0.84483278 2.3479274e-38
2.8354177 0.8636384 0.84513754 2.3479274e-38
2.8457625 0.81933326 0.8460198 2.3479274e-38
2.8104985 0.75133252 0.8461712 2.3479274e-38
2.8338187 0.71393478 0.84725904 2.3479274e-38
2.8415868 0.68668449 0.84783489 2.3479274e-38
2.8465397 0.65310222 0.84843576 2.3479274e-38
2.8483193 0.6387921 0.84868401 2.3479274e-38
2.8523402 0.62729168 0.84894443 2.3479274e-38
2.8579504 0.59441817 0.84955055 2.3479274e-38
2.8467691 0.55499482 0.84985626 2.3479274e-38
2.8398838 0.5212245 0.85018134 2.3479274e-38
2.8430884 0.48746651 0.85074359 2.3479274e-38
2.8421345 0.45609793 0.85117358 2.3479274e-38
2.8429012 0.42156518 0.8516897 2.3479274e-38
2.8008151 1.3905948 0.83672321 2.3479274e-38
2.8014007 1.3730011 0.83699071 2.3479274e-38
2.795614 1.338707 0.83734918 2.3479274e-38
2.784699 1.300282 0.83764672 2.3479274e-38
2.7900259 1.2853978 0.83798671 2.3479274e-38
2.792948 1.2502882 0.83856183 2.3479274e-38
2.7940459 1.2382668 0.83876103 2.3479274e-38
2.8077662 1.1818743 0.83989716 2.3479274e-38
2.8091428 1.4446149 0.83613992 2.3479274e-38
2.8127253 1.4640973 0.83594322 2.3479274e-38
2.8112831 1.4782774 0.83570468 2.3479274e-38
2.8049018 1.4913237 0.83536649 2.3479274e-38
2.8056006 1.4585409 0.83585578 2.3479274e-38
2.8027167 1.4717494 0.8355974 2.3479274e-38
2.7962019 1.5033543 0.8349883 2.3479274e-38
2.0579274 1.8799175 0.81219268 2.3479274e-38
2.1825492 1.8786329 0.81514233 2.3479274e-38
2.1882033 1.9310455 0.81451941 2.3479274e-38
2.1897178 1.997671 0.81359404 2.3479274e-38
2.0656397 1.9994844 0.81064951 2.3479274e-38
2.0582743 1.9461225 0.81124598 2.3479274e-38
1.5292926 -0.17941844 0.82946157 2.3479274e-38
