# .PCD v0.7 - Point Cloud Data file format
VERSION 0.7
FIELDS x y z rgb
SIZE 4 4 4 4
TYPE F F F F
COUNT 1 1 1 1
WIDTH 152
HEIGHT 1
VIEWPOINT 0 0 0 1 0 0 0
POINTS 152
DATA ascii
1.7622041 2.1529515 0.81142151 2.3418052e-38
1.7319918 2.1725531 0.81316882 2.3418052e-38
1.6895593 2.1631193 0.81659722 2.3418052e-38
1.623469 2.1582067 0.82167923 2.3418052e-38
1.5925138 2.1517253 0.82416981 2.3418052e-38
1.5516363 2.1602337 0.82700872 2.3418052e-38
1.5383857 2.1545241 0.82815218 2.3418052e-38
1.5275298 2.1427312 0.8292765 2.3418052e-38
1.5194702 2.1281726 0.83026427 2.3418052e-38
1.5064068 2.107619 0.83178514 2.3418052e-38
1.5035565 2.0876179 0.83252603 2.3418052e-38
1.4948629 2.0660679 0.83374548 2.3418052e-38
1.4991127 2.0274625 0.83444476 2.3418052e-38
1.4964628 2.0014393 0.83532935 2.3418052e-38
1.4888924 1.9558208 0.83709937 2.3418052e-38
1.4825027 1.9276059 0.83832186 2.3418052e-38
1.4759967 1.9058897 0.83938181 2.3418052e-38
1.4700954 1.8862376 0.8403421 2.3418052e-38
1.4657911 1.865792 0.84120381 2.3418052e-38
1.4631864 1.8512834 0.84178132 2.3418052e-38
1.4543282 1.8301151 0.84300327 2.3418052e-38
1.4503362 1.8145278 0.84371328 2.3418052e-38
1.4460247 1.7951308 0.84454775 2.3418052e-38
1.4436405 1.7738148 0.8452884 2.3418052e-38
1.439959 1.7566161 0.8460176 2.3418052e-38
1.4407656 1.7393316 0.84641278 2.3418052e-38
1.4405519 1.7239373 0.84683466 2.3418052e-38
1.4390706 1.7086602 0.84734845 2.3418052e-38
1.437008 1.6871303 0.84807056 2.3418052e-38
1.4410892 1.7117661 0.84711522 2.3418052e-38
1.4423938 1.7249812 0.84666908 2.3418052e-38
1.5206723 1.782045 0.83929884 2.3418052e-38
1.6087347 1.7447995 0.83368164 2.3418052e-38
1.6240089 1.720198 0.83318567 2.3418052e-38
1.6289312 1.6732354 0.83405471 2.3418052e-38
1.6285622 1.6065749 0.83583969 2.3418052e-38
1.4939559 1.5701557 0.84688675 2.3418052e-38
1.4912369 1.5515184 0.84758174 2.3418052e-38
1.4921461 1.5362334 0.8479166 2.3418052e-38
1.5005591 1.4909993 0.84847862 2.3418052e-38
1.500508 1.4579595 0.84935343 2.3418052e-38
1.5012708 1.4253299 0.85015649 2.3418052e-38
1.6088762 1.3822209 0.84322941 2.3418052e-38
1.6614971 1.3765149 0.83943653 2.3418052e-38
1.7159114 1.3717821 0.83548379 2.3418052e-38
1.7613318 1.3826767 0.83179283 2.3418052e-38
1.8133715 1.405899 0.827281 2.3418052e-38
1.8397042 1.4360921 0.82451183 2.3418052e-38
1.7682532 1.5475554 0.82692772 2.3418052e-38
1.7566948 1.5547204 0.82760501 2.3418052e-38
2.153296 0.93751228 0.81415594 2.3418052e-38
2.1719203 0.96504706 0.81203443 2.3418052e-38
2.1652291 0.97807807 0.81219232 2.3418052e-38
2.1578717 0.99074739 0.81240964 2.3418052e-38
2.1515634 1.0039864 0.81253338 2.3418052e-38
2.1448166 1.0169871 0.81269622 2.3418052e-38
2.1409287 1.0644945 0.81173527 2.3418052e-38
2.1453989 1.1163384 0.81003356 2.3418052e-38
2.1504261 1.1705496 0.80822772 2.3418052e-38
2.1592283 1.1895541 0.80706716 2.3418052e-38
2.1520305 1.2353221 0.80639994 2.3418052e-38
2.1451428 1.2482467 0.80657542 2.3418052e-38
2.1455817 1.3145082 0.80479574 2.3418052e-38
2.1413791 1.3948536 0.80299258 2.3418052e-38
2.1593401 1.4206972 0.80096531 2.3418052e-38
2.1646318 1.4729667 0.79919076 2.3418052e-38
2.1594553 1.4866633 0.7992177 2.3418052e-38
2.1516187 1.4992181 0.79947388 2.3418052e-38
2.1453912 1.513245 0.7995708 2.3418052e-38
2.1378407 1.5250695 0.79982495 2.3418052e-38
2.1316974 1.5385084 0.79993093 2.3418052e-38
2.1238508 1.5508147 0.80019462 2.3418052e-38
2.1390707 1.6577545 0.79623497 2.3418052e-38
2.1421862 1.725404 0.79421806 2.3418052e-38
2.1681385 1.7681941 0.79114527 2.3418052e-38
2.1752262 1.7755884 0.79041922 2.3418052e-38
2.1697202 1.8701189 0.78833985 2.3418052e-38
2.1683016 1.9040301 0.78755212 2.3418052e-38
2.1734612 1.9562358 0.78578925 2.3418052e-38
2.1817443 1.9754615 0.78466171 2.3418052e-38
2.1727884 2.0219052 0.78410852 2.3418052e-38
2.1732264 2.0551436 0.78319943 2.3418052e-38
2.1385028 2.0866227 0.78497171 2.3418052e-38
2.1124182 2.1067638 0.78639543 2.3418052e-38
2.0603681 2.1128964 0.79013407 2.3418052e-38
2.0042946 2.116915 0.7942301 2.3418052e-38
1.9887645 2.1160853 0.7954157 2.3418052e-38
1.9571867 2.1079521 0.79799646 2.3418052e-38
1.8901509 2.1225581 0.80263484 2.3418052e-38
1.8743106 2.1274118 0.80369401 2.3418052e-38
1.8288122 2.14029 0.80676389 2.3418052e-38
1.8174436 2.1479015 0.80741531 2.3418052e-38
1.7797034 2.1477811 0.81024647 2.3418052e-38
1.7622041 2.1529515 0.81142151 2.3418052e-38
2.1245592 0.92393357 0.81666744 2.3463789e-38
2.1059895 0.92972106 0.81790632 2.3463789e-38
2.0537107 0.92722428 0.82188976 2.3463789e-38
2.0378211 0.92543977 0.82312751 2.3463789e-38
1.995175 0.92273241 0.82639456 2.3463789e-38
1.9354048 0.92334741 0.83085734 2.3463789e-38
1.9013102 0.92348015 0.83340883 2.3463789e-38
1.8807379 0.92910904 0.83480203 2.3463789e-38
1.8598394 0.93492436 0.83621472 2.3463789e-38
1.8150026 0.92855263 0.8397426 2.3463789e-38
1.7957222 0.93145436 0.84111083 2.3463789e-38
1.7604854 0.92966044 0.84379876 2.3463789e-38
1.7474399 0.92657769 0.84485757 2.3463789e-38
1.6931411 0.92990673 0.84883875 2.3463789e-38
1.6568494 0.93126923 0.85152245 2.3463789e-38
1.6243281 0.92775708 0.85405195 2.3463789e-38
1.5944812 0.91262817 0.85668755 2.3463789e-38
1.5829467 0.90661025 0.85771042 2.3463789e-38
1.5691192 0.90149218 0.85888159 2.3463789e-38
1.5289701 0.94533414 0.8607344 2.3463789e-38
1.5109429 0.95178401 0.86191529 2.3463789e-38
1.5030937 0.96207261 0.86223227 2.3463789e-38
1.477267 0.98401618 0.86358917 2.3463789e-38
1.4841024 1.0038671 0.86255366 2.3463789e-38
1.4898498 1.0233356 0.8616097 2.3463789e-38
1.4968362 1.0434765 0.86055517 2.3463789e-38
1.4903487 1.089785 0.85982049 2.3463789e-38
1.4906548 1.122808 0.85892713 2.3463789e-38
1.4957162 1.1408271 0.85807282 2.3463789e-38
1.4901156 1.1885613 0.85723412 2.3463789e-38
1.4858437 1.2008604 0.85723007 2.3463789e-38
1.4919697 1.2219745 0.85621428 2.3463789e-38
1.4838201 1.2678078 0.85561675 2.3463789e-38
1.4901683 1.2892579 0.85457557 2.3463789e-38
1.4903296 1.3537135 0.85286427 2.3463789e-38
1.4826689 1.3661664 0.85311007 2.3463789e-38
1.4855946 1.3856052 0.85237849 2.3463789e-38
1.4891462 1.3996689 0.85174155 2.3463789e-38
1.4924014 1.4196602 0.85097057 2.3463789e-38
1.4884633 1.453964 0.85036135 2.3463789e-38
1.4887655 1.4851036 0.84951782 2.3463789e-38
1.4898323 1.520669 0.84850037 2.3463789e-38
1.4641676 1.5708216 0.84910142 2.3463789e-38
1.4537541 1.5808518 0.84961736 2.3463789e-38
1.4426095 1.5929686 0.85013306 2.3463789e-38
1.441898 1.6074679 0.84980416 2.3463789e-38
1.4417663 1.6256088 0.84933579 2.3463789e-38
1.4380209 1.6420916 0.84918189 2.3463789e-38
1.4353751 1.6551957 0.84903467 2.3463789e-38
1.4365809 1.6724035 0.84849066 2.3463789e-38
1.4933703 1.6027955 0.84607023 2.3463789e-38
1.6363262 1.7741413 0.83084059 2.3463789e-38
1.5530293 1.832108 0.83555436 2.3463789e-38
1.5433104 1.8737671 0.8351844 2.3463789e-38
1.6473162 1.9303824 0.82589811 2.3463789e-38
1.6849973 1.8999277 0.82387727 2.3463789e-38
1.682718 1.8002092 0.82667696 2.3463789e-38
2.1245592 0.92393357 0.81666744 2.3463789e-38
