# .PCD v0.7 - Point Cloud Data file format
VERSION 0.7
FIELDS x y z rgb
SIZE 4 4 4 4
TYPE F F F F
COUNT 1 1 1 1
WIDTH 1007
HEIGHT 1
VIEWPOINT 0 0 0 1 0 0 0
POINTS 1007
DATA ascii
-2.4789279 -2.4042304 1.4562528 2.3418052e-38
-2.4773424 -2.4311919 1.44103 2.3418052e-38
-2.4757257 -2.4599121 1.4261141 2.3418052e-38
-2.4749126 -2.462183 1.4126434 2.3418052e-38
-2.4741108 -2.4646988 1.399492 2.3418052e-38
-2.4730382 -2.4637609 1.3797925 2.3418052e-38
-2.4724493 -2.4610629 1.3679068 2.3418052e-38
-2.4711442 -2.4407654 1.3345408 2.3418052e-38
-2.4701841 -2.4366317 1.3152919 2.3418052e-38
-2.4694848 -2.433393 1.3011649 2.3418052e-38
-2.4672611 -2.4138174 1.2516723 2.3418052e-38
-2.4651728 -2.4115865 1.2131183 2.3418052e-38
-2.4632783 -2.4201827 1.1833501 2.3418052e-38
-2.4622974 -2.4199145 1.1656229 2.3418052e-38
-2.4579115 -2.4370177 1.0953277 2.3418052e-38
-2.4569745 -2.439369 1.07968 2.3418052e-38
-2.4552765 -2.4219694 1.0406878 2.3418052e-38
-2.4535317 -2.4079962 1.0025325 2.3418052e-38
-2.4508352 -2.4123015 0.95627779 2.3418052e-38
-2.4486566 -2.3939908 0.90821892 2.3418052e-38
-2.447871 -2.3931494 0.89371628 2.3418052e-38
-2.4466827 -2.3928723 0.87226588 2.3418052e-38
-2.4459293 -2.3940735 0.85933805 2.3418052e-38
-2.445312 -2.39589 0.84916049 2.3418052e-38
-2.4416764 -2.4156172 0.79361153 2.3418052e-38
-2.4410322 -2.4188306 0.78362966 2.3418052e-38
-2.4372196 -2.4168339 0.71426779 2.3418052e-38
-2.4325049 -2.4028659 0.62284595 2.3418052e-38
-2.428019 -2.3959379 0.53897101 2.3418052e-38
-2.4271469 -2.3985262 0.52459693 2.3418052e-38
-2.4253733 -2.3971424 0.49209777 2.3418052e-38
-2.4228687 -2.3968248 0.44702232 2.3418052e-38
-2.4214354 -2.4069958 0.42629451 2.3418052e-38
-2.4190373 -2.4007969 0.38024229 2.3418052e-38
-2.4184175 -2.3967626 0.36715132 2.3418052e-38
-2.4175239 -2.3916302 0.34860128 2.3418052e-38
-2.4157388 -2.391999 0.31675684 2.3418052e-38
-2.4148092 -2.3917325 0.29995531 2.3418052e-38
-2.41312 -2.3912992 0.26943487 2.3418052e-38
-2.4123776 -2.390089 0.25553077 2.3418052e-38
-2.411423 -2.3857729 0.23628658 2.3418052e-38
-2.4101815 -2.3803329 0.21135643 2.3418052e-38
-2.408206 -2.3855274 0.17846143 2.3418052e-38
-2.4074008 -2.3783529 0.16049509 2.3418052e-38
-2.4067025 -2.375618 0.14663225 2.3418052e-38
-2.4063523 -2.3749793 0.14003843 2.3418052e-38
-2.4056699 -2.3732145 0.12692489 2.3418052e-38
-2.4037189 -2.3680675 0.089409649 2.3418052e-38
-2.4029036 -2.3681183 0.074807405 2.3418052e-38
-2.3989277 -2.3786273 0.0086424649 2.3418052e-38
-2.3987744 -2.374603 0.0039209723 2.3418052e-38
-2.3975964 -2.3611197 -0.023826182 2.3418052e-38
-2.3966801 -2.3575821 -0.041994184 2.3418052e-38
-2.3963497 -2.3550777 -0.049152531 2.3418052e-38
-2.3931339 -2.3565996 -0.10609294 2.3418052e-38
-2.3923442 -2.356873 -0.12012136 2.3418052e-38
-2.3906515 -2.362143 -0.14790399 2.3418052e-38
-2.3892636 -2.3702335 -0.16883039 2.3418052e-38
-2.3849726 -2.3673136 -0.24723795 2.3418052e-38
-2.3844047 -2.352555 -0.26465952 2.3418052e-38
-2.3837767 -2.3365624 -0.28376901 2.3418052e-38
-2.3802345 -2.3322976 -0.34940183 2.3418052e-38
-2.3781617 -2.3512037 -0.37730783 2.3418052e-38
-2.3756795 -2.3435242 -0.42559779 2.3418052e-38
-2.3746634 -2.3474498 -0.44190538 2.3418052e-38
-2.3738685 -2.3381855 -0.46070445 2.3418052e-38
-2.3703096 -2.3442342 -0.52157986 2.3418052e-38
-2.3694811 -2.3505609 -0.53333509 2.3418052e-38
-2.3688045 -2.3487525 -0.5463658 2.3418052e-38
-2.3663263 -2.3580899 -0.58623809 2.3418052e-38
-2.3626096 -2.34692 -0.65838629 2.3418052e-38
-2.3597958 -2.3449337 -0.70983493 2.3418052e-38
-2.3587306 -2.351027 -0.72595698 2.3418052e-38
-2.357058 -2.349735 -0.75658971 2.3418052e-38
-2.3565779 -2.349658 -0.76523751 2.3418052e-38
-2.3560638 -2.3467774 -0.77587855 2.3418052e-38
-2.3539615 -2.3488569 -0.8125692 2.3418052e-38
-2.3533967 -2.3502495 -0.8220129 2.3418052e-38
-2.3517017 -2.3555591 -0.84982038 2.3418052e-38
-2.3514788 -2.3514066 -0.85585225 2.3418052e-38
-2.3509486 -2.3417931 -0.87007701 2.3418052e-38
-2.3492172 -2.3289006 -0.90745997 2.3418052e-38
-2.3473325 -2.3312075 -0.94013053 2.3418052e-38
-2.3464007 -2.3304148 -0.95723379 2.3418052e-38
-2.3456645 -2.3285258 -0.9713667 2.3418052e-38
-2.3446333 -2.3282619 -0.99000001 2.3418052e-38
-2.343936 -2.3264606 -1.0033858 2.3418052e-38
-2.3430946 -2.3272877 -1.0180728 2.3418052e-38
-2.3427169 -2.3253343 -1.025805 2.3418052e-38
-2.340868 -2.317071 -1.0630245 2.3418052e-38
-2.3361471 -2.3274257 -1.1426311 2.3418052e-38
-2.3351889 -2.3250496 -1.1609987 2.3418052e-38
-2.334152 -2.3223917 -1.1808897 2.3418052e-38
-2.3332007 -2.3178105 -1.2002057 2.3418052e-38
-2.3328152 -2.3062825 -1.2127671 2.3418052e-38
-2.3329828 -2.2631614 -1.2309121 2.3418052e-38
-2.3362579 -2.188271 -1.2088836 2.3418052e-38
-2.3366086 -2.1726265 -1.2102641 2.3418052e-38
-2.3370872 -2.1590047 -1.2083596 2.3418052e-38
-2.3374863 -2.1457028 -1.2077157 2.3418052e-38
-2.3379881 -2.1318147 -1.2055264 2.3418052e-38
-2.3387535 -2.0939975 -1.2103395 2.3418052e-38
-2.339052 -2.0810564 -1.2113389 2.3418052e-38
-2.3392036 -2.0741992 -1.2119823 2.3418052e-38
-2.3395767 -2.0610542 -1.2117301 2.3418052e-38
-2.3409345 -2.0266671 -1.2042422 2.3418052e-38
-2.3420575 -1.9995761 -1.197383 2.3418052e-38
-2.3428953 -1.9770634 -1.1933864 2.3418052e-38
-2.3438623 -1.9333262 -1.1974831 2.3418052e-38
-2.3447659 -1.9120196 -1.1917285 2.3418052e-38
-2.3451447 -1.8988601 -1.191388 2.3418052e-38
-2.345468 -1.8794017 -1.195122 2.3418052e-38
-2.3460634 -1.8638345 -1.1920823 2.3418052e-38
-2.3470201 -1.8212297 -1.1958041 2.3418052e-38
-2.3474231 -1.8098536 -1.1941578 2.3418052e-38
-2.3480129 -1.7811248 -1.1976638 2.3418052e-38
-2.348047 -1.7742951 -1.200402 2.3418052e-38
-2.3485711 -1.7553444 -1.2002943 2.3418052e-38
-2.3490481 -1.7347131 -1.2018502 2.3418052e-38
-2.3494256 -1.7280045 -1.198369 2.3418052e-38
-2.3502178 -1.7119883 -1.1920161 2.3418052e-38
-2.350889 -1.6933315 -1.1891229 2.3418052e-38
-2.3515234 -1.6737959 -1.1873193 2.3418052e-38
-2.3521314 -1.6592559 -1.1835507 2.3418052e-38
-2.3531175 -1.6209702 -1.184629 2.3418052e-38
-2.3540497 -1.5861858 -1.1849675 2.3418052e-38
-2.3537664 -1.545041 -1.2102249 2.3418052e-38
-2.3555417 -1.4896787 -1.2055266 2.3418052e-38
-2.3562756 -1.4645338 -1.2046944 2.3418052e-38
-2.35673 -1.4492676 -1.2040234 2.3418052e-38
-2.3577228 -1.4290714 -1.1961195 2.3418052e-38
-2.3597538 -1.3621542 -1.192503 2.3418052e-38
-2.3623619 -1.3173114 -1.1677127 2.3418052e-38
-2.3629007 -1.2986882 -1.1671703 2.3418052e-38
-2.3631849 -1.2870228 -1.167798 2.3418052e-38
-2.36338 -1.278811 -1.1683267 2.3418052e-38
-2.3637023 -1.2658033 -1.1689218 2.3418052e-38
-2.3640056 -1.2410595 -1.1756159 2.3418052e-38
-2.3641758 -1.2338045 -1.1761206 2.3418052e-38
-2.3648279 -1.2125657 -1.1748321 2.3418052e-38
-2.3651717 -1.2014225 -1.1741307 2.3418052e-38
-2.3659384 -1.1677594 -1.1768816 2.3418052e-38
-2.3676426 -1.1322786 -1.1637152 2.3418052e-38
-2.3687811 -1.0975127 -1.1603377 2.3418052e-38
-2.3695929 -1.0655699 -1.1614424 2.3418052e-38
-2.3705475 -1.0010116 -1.1759728 2.3418052e-38
-2.3710377 -0.9864288 -1.1743323 2.3418052e-38
-2.3718176 -0.9552629 -1.1756252 2.3418052e-38
-2.3721654 -0.9357397 -1.1789601 2.3418052e-38
-2.3725584 -0.92254192 -1.1783836 2.3418052e-38
-2.3730123 -0.90273172 -1.179955 2.3418052e-38
-2.3735695 -0.88684779 -1.1777487 2.3418052e-38
-2.3752294 -0.84174943 -1.1700864 2.3418052e-38
-2.375654 -0.82962304 -1.1684173 2.3418052e-38
-2.3757143 -0.82762462 -1.1683109 2.3418052e-38
-2.3760984 -0.8144381 -1.167889 2.3418052e-38
-2.3764873 -0.80129033 -1.1673553 2.3418052e-38
-2.3771629 -0.78153241 -1.1649251 2.3418052e-38
-2.377389 -0.77400142 -1.1645715 2.3418052e-38
-2.3775513 -0.7683472 -1.1644263 2.3418052e-38
-2.3783338 -0.72974247 -1.169317 2.3418052e-38
-2.3783762 -0.71681559 -1.1749034 2.3418052e-38
-2.3784544 -0.71169645 -1.1760086 2.3418052e-38
-2.3789153 -0.6958558 -1.1755021 2.3418052e-38
-2.3791475 -0.69045794 -1.1739845 2.3418052e-38
-2.3794665 -0.68358898 -1.1716318 2.3418052e-38
-2.3797863 -0.67583871 -1.1697005 2.3418052e-38
-2.3809457 -0.64843357 -1.1623392 2.3418052e-38
-2.3817992 -0.61540693 -1.1632187 2.3418052e-38
-2.382195 -0.60220253 -1.1626017 2.3418052e-38
-2.3823841 -0.59462237 -1.162919 2.3418052e-38
-2.3828032 -0.58039284 -1.1623793 2.3418052e-38
-2.3838964 -0.53733492 -1.1638854 2.3418052e-38
-2.3841865 -0.52893496 -1.1628052 2.3418052e-38
-2.3851309 -0.49750793 -1.1612701 2.3418052e-38
-2.3861737 -0.46857315 -1.1567532 2.3418052e-38
-2.3865576 -0.45540032 -1.1563308 2.3418052e-38
-2.3867216 -0.44744641 -1.1572814 2.3418052e-38
-2.3871174 -0.43468979 -1.1564372 2.3418052e-38
-2.3873248 -0.42905504 -1.1554879 2.3418052e-38
-2.3888719 -0.41647321 -1.1339035 2.3418052e-38
-2.3945744 -0.34836099 -1.0650067 2.3418052e-38
-2.3949444 -0.3348017 -1.0650151 2.3418052e-38
-2.3958602 -0.30908254 -1.0612056 2.3418052e-38
-2.3963156 -0.28264439 -1.0659981 2.3418052e-38
-2.3966472 -0.26961184 -1.0664387 2.3418052e-38
-2.3975444 -0.23695621 -1.0663632 2.3418052e-38
-2.3979447 -0.22342896 -1.0658102 2.3418052e-38
-2.3987069 -0.1946789 -1.0662441 2.3418052e-38
-2.3995478 -0.16809794 -1.0641911 2.3418052e-38
-2.4011886 -0.11575906 -1.0604217 2.3418052e-38
-2.4014978 -0.09868516 -1.0632486 2.3418052e-38
-2.4018021 -0.08204937 -1.0659473 2.3418052e-38
-2.40291 -0.041326798 -1.0660397 2.3418052e-38
-2.4035096 -0.017449409 -1.0669935 2.3418052e-38
-2.4043751 0.014452904 -1.0671074 2.3418052e-38
-2.4061921 0.063286677 -1.0584633 2.3418052e-38
-2.4071543 0.10821303 -1.0632404 2.3418052e-38
-2.4076469 0.13461971 -1.0673537 2.3418052e-38
-2.4091747 0.17897566 -1.0616869 2.3418052e-38
-2.4094961 0.19637644 -1.0644647 2.3418052e-38
-2.409867 0.20922232 -1.0641024 2.3418052e-38
-2.4107554 0.23412654 -1.0603864 2.3418052e-38
-2.4110374 0.24710175 -1.0616841 2.3418052e-38
-2.4114022 0.26101112 -1.061963 2.3418052e-38
-2.4116914 0.27770311 -1.0649587 2.3418052e-38
-2.413182 0.30744094 -1.0527995 2.3418052e-38
-2.4138429 0.30401361 -1.0392663 2.3418052e-38
-2.414031 0.29529759 -1.031615 2.3418052e-38
-2.4139538 0.26820475 -1.0197146 2.3418052e-38
-2.4164779 0.23787698 -0.95957017 2.3418052e-38
-2.4173748 0.23973846 -0.94439054 2.3418052e-38
-2.4214976 0.26697639 -0.88379574 2.3418052e-38
-2.425559 0.39475635 -0.8735919 2.3418052e-38
-2.4241948 0.41373247 -0.90737671 2.3418052e-38
-2.4226296 0.43081531 -0.9438256 2.3418052e-38
-2.424459 0.47878462 -0.93452996 2.3418052e-38
-2.4247122 0.49827737 -0.93955261 2.3418052e-38
-2.4244909 0.53050226 -0.95931697 2.3418052e-38
-2.4240289 0.54545039 -0.97494316 2.3418052e-38
-2.4235964 0.58176351 -1.0004995 2.3418052e-38
-2.4215279 0.6170736 -1.0549248 2.3418052e-38
-2.4150538 0.55343032 -1.139847 2.3418052e-38
-2.4143288 0.52660978 -1.1397029 2.3418052e-38
-2.4130349 0.48122203 -1.1406503 2.3418052e-38
-2.4122412 0.4669407 -1.1478916 2.3418052e-38
-2.4129624 0.49960971 -1.1509693 2.3418052e-38
-2.4129827 0.53276271 -1.1668692 2.3418052e-38
-2.4140007 0.56954372 -1.1666399 2.3418052e-38
-2.4148393 0.59151334 -1.162378 2.3418052e-38
-2.4157224 0.64327389 -1.171917 2.3418052e-38
-2.4175973 0.70951933 -1.1707677 2.3418052e-38
-2.4175887 0.72082841 -1.1764621 2.3418052e-38
-2.4179423 0.73293805 -1.1760577 2.3418052e-38
-2.4185715 0.75225282 -1.1742413 2.3418052e-38
-2.4194179 0.78708178 -1.1761414 2.3418052e-38
-2.4195664 0.79393041 -1.1768345 2.3418052e-38
-2.4203947 0.82629532 -1.1778409 2.3418052e-38
-2.422648 0.8701418 -1.1589327 2.3418052e-38
-2.4235454 0.89683944 -1.1559224 2.3418052e-38
-2.424124 0.9355703 -1.1645333 2.3418052e-38
-2.424546 0.96743053 -1.1725862 2.3418052e-38
-2.4249341 0.98061603 -1.1720858 2.3418052e-38
-2.4254723 1.0006535 -1.1722572 2.3418052e-38
-2.4259474 1.0155942 -1.1710618 2.3418052e-38
-2.426362 1.0286957 -1.1700506 2.3418052e-38
-2.4267218 1.0468851 -1.1725163 2.3418052e-38
-2.4270504 1.0593095 -1.1727126 2.3418052e-38
-2.4273889 1.0738902 -1.1737918 2.3418052e-38
-2.4275537 1.0798527 -1.1737592 2.3418052e-38
-2.4279981 1.1055505 -1.1783905 2.3418052e-38
-2.4295547 1.146699 -1.1706405 2.3418052e-38
-2.4298208 1.1618526 -1.1732974 2.3418052e-38
-2.429987 1.1796058 -1.1790264 2.3418052e-38
-2.4302609 1.1917255 -1.1800525 2.3418052e-38
-2.430686 1.2073376 -1.1800873 2.3418052e-38
-2.4315736 1.2378652 -1.1791341 2.3418052e-38
-2.431704 1.244665 -1.1801287 2.3418052e-38
-2.4318979 1.2573261 -1.1828535 2.3418052e-38
-2.4322026 1.3195885 -1.2079252 2.3418052e-38
-2.4323401 1.3276809 -1.2094258 2.3418052e-38
-2.4330802 1.3462321 -1.2052484 2.3418052e-38
-2.4337094 1.3545094 -1.1980201 2.3418052e-38
-2.4359353 1.4030068 -1.1818724 2.3418052e-38
-2.4374073 1.456529 -1.1817129 2.3418052e-38
-2.437551 1.4690537 -1.1852765 2.3418052e-38
-2.4377186 1.5244744 -1.2094414 2.3418052e-38
-2.4396198 1.5975323 -1.2111682 2.3418052e-38
-2.4417143 1.635834 -1.1923699 2.3418052e-38
-2.4438169 1.6824389 -1.1775074 2.3418052e-38
-2.4449081 1.7161064 -1.1744432 2.3418052e-38
-2.4452937 1.727684 -1.1732051 2.3418052e-38
-2.4458055 1.7492511 -1.1745973 2.3418052e-38
-2.4462037 1.7624633 -1.1739328 2.3418052e-38
-2.4466212 1.7821732 -1.1761196 2.3418052e-38
-2.4467311 1.7946072 -1.1802408 2.3418052e-38
-2.4470849 1.814147 -1.1834744 2.3418052e-38
-2.4476922 1.8465078 -1.1884465 2.3418052e-38
-2.4479666 1.859385 -1.1898428 2.3418052e-38
-2.4481781 1.8944165 -1.2032269 2.3418052e-38
-2.4484301 1.9099419 -1.206316 2.3418052e-38
-2.4492245 1.9424725 -1.2080194 2.3418052e-38
-2.4505153 1.9784994 -1.2025331 2.3418052e-38
-2.4509857 1.9930758 -1.2012365 2.3418052e-38
-2.4522936 2.023243 -1.1925725 2.3418052e-38
-2.4533677 2.0582974 -1.19049 2.3418052e-38
-2.4535253 2.0708592 -1.1938267 2.3418052e-38
-2.4536793 2.0904977 -1.2006986 2.3418052e-38
-2.4544749 2.1227293 -1.2022219 2.3418052e-38
-2.4547389 2.1355782 -1.2037909 2.3418052e-38
-2.4552472 2.1490879 -1.2012973 2.3418052e-38
-2.4558775 2.1693745 -1.1999342 2.3418052e-38
-2.4564853 2.1813653 -1.1949131 2.3418052e-38
-2.4575927 2.2168641 -1.1924585 2.3418052e-38
-2.4582696 2.2428629 -1.1930723 2.3418052e-38
-2.4584923 2.25107 -1.1930953 2.3418052e-38
-2.4588401 2.2639608 -1.1931795 2.3418052e-38
-2.4597495 2.2651827 -1.1774637 2.3418052e-38
-2.4611688 2.2693264 -1.154039 2.3418052e-38
-2.4612854 2.269706 -1.1521292 2.3418052e-38
-2.4619756 2.2691171 -1.1394631 2.3418052e-38
-2.4665763 2.2639279 -1.0543954 2.3418052e-38
-2.4674108 2.2668993 -1.0408771 2.3418052e-38
-2.4695253 2.2808428 -1.009778 2.3418052e-38
-2.4708157 2.2840965 -0.98823315 2.3418052e-38
-2.4734323 2.285862 -0.94215554 2.3418052e-38
-2.4744859 2.2868521 -0.92374969 2.3418052e-38
-2.4752555 2.2862606 -0.90965605 2.3418052e-38
-2.4782479 2.3006663 -0.86304438 2.3418052e-38
-2.4796975 2.2992868 -0.83635443 2.3418052e-38
-2.4807236 2.2974098 -0.81702954 2.3418052e-38
-2.482687 2.2989838 -0.78258556 2.3418052e-38
-2.4834623 2.3018906 -0.77010643 2.3418052e-38
-2.4853754 2.3064237 -0.73800665 2.3418052e-38
-2.4870148 2.2989364 -0.70493025 2.3418052e-38
-2.4915214 2.3155494 -0.63223934 2.3418052e-38
-2.4921691 2.3000772 -0.61302489 2.3418052e-38
-2.4939823 2.2889984 -0.575073 2.3418052e-38
-2.4957902 2.2884815 -0.54238719 2.3418052e-38
-2.4972737 2.2884519 -0.51575714 2.3418052e-38
-2.4992392 2.2947328 -0.48358071 2.3418052e-38
-2.5001442 2.2988994 -0.46938959 2.3418052e-38
-2.5013831 2.3047507 -0.45003349 2.3418052e-38
-2.5020659 2.3047047 -0.43776929 2.3418052e-38
-2.5029886 2.3012381 -0.41951853 2.3418052e-38
-2.5056074 2.2986901 -0.3712872 2.3418052e-38
-2.5081599 2.2982447 -0.32528332 2.3418052e-38
-2.510952 2.3046374 -0.27832931 2.3418052e-38
-2.5125566 2.2985291 -0.24655214 2.3418052e-38
-2.5143974 2.3009856 -0.21473488 2.3418052e-38
-2.5161664 2.2993443 -0.18219909 2.3418052e-38
-2.5171468 2.3033264 -0.16656317 2.3418052e-38
-2.5189116 2.3034277 -0.13496371 2.3418052e-38
-2.5199535 2.3021052 -0.11562027 2.3418052e-38
-2.5233734 2.3059423 -0.056157932 2.3418052e-38
-2.5244823 2.3069084 -0.036738083 2.3418052e-38
-2.5269153 2.3023784 0.0091292709 2.3418052e-38
-2.5303376 2.3227339 0.060529947 2.3418052e-38
-2.5309784 2.3256776 0.07058382 2.3418052e-38
-2.5328574 2.3301647 0.10209447 2.3418052e-38
-2.5338426 2.3215039 0.12401026 2.3418052e-38
-2.5355105 2.3188317 0.1552403 2.3418052e-38
-2.5360892 2.3159699 0.1670267 2.3418052e-38
-2.5404103 2.3189402 0.24307996 2.3418052e-38
-2.5416522 2.3307679 0.2595582 2.3418052e-38
-2.5435143 2.3331714 0.29178068 2.3418052e-38
-2.5470932 2.3325183 0.35629708 2.3418052e-38
-2.5480707 2.3378489 0.37121952 2.3418052e-38
-2.549129 2.3370955 0.39058191 2.3418052e-38
-2.5516002 2.3338614 0.43649268 2.3418052e-38
-2.5523977 2.335737 0.44987082 2.3418052e-38
-2.5527487 2.336174 0.45595747 2.3418052e-38
-2.5543408 2.339855 0.48271143 2.3418052e-38
-2.5545218 2.3355567 0.48806298 2.3418052e-38
-2.5581839 2.3272483 0.55783206 2.3418052e-38
-2.5596678 2.3367014 0.57982099 2.3418052e-38
-2.5601251 2.3390493 0.5868659 2.3418052e-38
-2.56091 2.3405159 0.60023046 2.3418052e-38
-2.5624902 2.3437834 0.62697059 2.3418052e-38
-2.5635064 2.3415692 0.64628422 2.3418052e-38
-2.5642071 2.3401487 0.65955234 2.3418052e-38
-2.5651541 2.335568 0.67878693 2.3418052e-38
-2.5657253 2.3322074 0.69068307 2.3418052e-38
-2.5671859 2.3311186 0.71741354 2.3418052e-38
-2.5685093 2.3282111 0.74258012 2.3418052e-38
-2.5694075 2.3301499 0.7577396 2.3418052e-38
-2.5702012 2.3320642 0.77104044 2.3418052e-38
-2.5720387 2.327616 0.80617446 2.3418052e-38
-2.5728009 2.3265455 0.82038265 2.3418052e-38
-2.5736697 2.3266125 0.83593148 2.3418052e-38
-2.574683 2.3242967 0.85524184 2.3418052e-38
-2.5754592 2.3254616 0.86859614 2.3418052e-38
-2.5797923 2.3286443 0.94476014 2.3418052e-38
-2.5802677 2.3282597 0.9534834 2.3418052e-38
-2.5818558 2.331795 0.98023242 2.3418052e-38
-2.5828819 2.3299251 0.99955779 2.3418052e-38
-2.5866771 2.3466096 1.059449 2.3418052e-38
-2.5888646 2.3336778 1.1050358 2.3418052e-38
-2.5929708 2.3184521 1.1861544 2.3418052e-38
-2.5947874 2.3165574 1.2196703 2.3418052e-38
-2.597012 2.3270392 1.2544401 2.3418052e-38
-2.597882 2.33285 1.2671962 2.3418052e-38
-2.5997503 2.3372109 1.2985713 2.3418052e-38
-2.6018 2.3512044 1.3284708 2.3418052e-38
-2.6027834 2.3601491 1.3417251 2.3418052e-38
-2.604502 2.3826888 1.3615077 2.3418052e-38
-2.6054642 2.3866203 1.3768408 2.3418052e-38
-2.6070044 2.379148 1.4081259 2.3418052e-38
-2.6076994 2.3659651 1.4270625 2.3418052e-38
-2.6080928 2.3424056 1.4456742 2.3418052e-38
-2.6080017 2.3320808 1.4490949 2.3418052e-38
-2.6076279 2.3218119 1.4474301 2.3418052e-38
-2.6071239 2.3080738 1.4451195 2.3418052e-38
-2.6060333 2.2359867 1.4609141 2.3418052e-38
-2.6040564 2.1467092 1.4692297 2.3418052e-38
-2.6018105 2.091419 1.4560525 2.3418052e-38
-2.6014569 2.0725796 1.458946 2.3418052e-38
-2.6011868 2.0590136 1.4607511 2.3418052e-38
-2.6005898 2.0395758 1.4595773 2.3418052e-38
-2.6002386 2.0081623 1.4686818 2.3418052e-38
-2.599102 1.9805639 1.4618268 2.3418052e-38
-2.5988281 1.9734282 1.4604088 2.3418052e-38
-2.5985808 1.9662607 1.4594868 2.3418052e-38
-2.5975454 1.9329376 1.4572577 2.3418052e-38
-2.5965748 1.8948815 1.4585053 2.3418052e-38
-2.5955667 1.8602682 1.457392 2.3418052e-38
-2.5953233 1.847416 1.4593313 2.3418052e-38
-2.5949087 1.8352381 1.4578733 2.3418052e-38
-2.593941 1.8001273 1.4577317 2.3418052e-38
-2.593854 1.7944281 1.4589543 2.3418052e-38
-2.593756 1.7874907 1.4606071 2.3418052e-38
-2.5936677 1.7808052 1.4623036 2.3418052e-38
-2.5933075 1.7676955 1.4622707 2.3418052e-38
-2.5929458 1.7545822 1.462214 2.3418052e-38
-2.5925338 1.7343184 1.4647601 2.3418052e-38
-2.592428 1.7160151 1.4718311 2.3418052e-38
-2.591814 1.6965308 1.4703712 2.3418052e-38
-2.591418 1.6833254 1.4697473 2.3418052e-38
-2.5910399 1.6701674 1.4694164 2.3418052e-38
-2.5898941 1.6242149 1.4713924 2.3418052e-38
-2.5886512 1.5912902 1.4652395 2.3418052e-38
-2.587774 1.5505997 1.4694569 2.3418052e-38
-2.5872803 1.5362551 1.4676385 2.3418052e-38
-2.586585 1.5102218 1.4679379 2.3418052e-38
-2.5864744 1.503311 1.4693401 2.3418052e-38
-2.5862072 1.4891346 1.4714959 2.3418052e-38
-2.584897 1.4377732 1.4731786 2.3418052e-38
-2.5847962 1.4196756 1.4802446 2.3418052e-38
-2.5844302 1.425133 1.4709964 2.3418052e-38
-2.5843124 1.434015 1.4645319 2.3418052e-38
-2.5843656 1.4440722 1.4605572 2.3418052e-38
-2.5851345 1.4650466 1.4640622 2.3418052e-38
-2.5859845 1.509357 1.4575839 2.3418052e-38
-2.586112 1.5155818 1.4568231 2.3418052e-38
-2.5867922 1.535053 1.4594712 2.3418052e-38
-2.5877254 1.5695536 1.4592929 2.3418052e-38
-2.5878725 1.5876827 1.4530492 2.3418052e-38
-2.5894051 1.6342723 1.4576898 2.3418052e-38
-2.5900059 1.6537645 1.4589067 2.3418052e-38
-2.5907869 1.6763337 1.4618537 2.3418052e-38
-2.5911546 1.6890612 1.4622104 2.3418052e-38
-2.5918913 1.7274609 1.4565966 2.3418052e-38
-2.5925612 1.7482197 1.4584291 2.3418052e-38
-2.5927277 1.7547493 1.4582059 2.3418052e-38
-2.5930979 1.76639 1.4591432 2.3418052e-38
-2.5934951 1.7875435 1.4558983 2.3418052e-38
-2.5938244 1.8116194 1.450002 2.3418052e-38
-2.5942612 1.8381593 1.4448245 2.3418052e-38
-2.5944483 1.8471252 1.443784 2.3418052e-38
-2.5947847 1.8638349 1.441623 2.3418052e-38
-2.5962217 1.8990778 1.45011 2.3418052e-38
-2.5965512 1.9137197 1.4488473 2.3418052e-38
-2.5968618 1.9263541 1.4482281 2.3418052e-38
-2.5977285 1.9516431 1.4513733 2.3418052e-38
-2.597959 1.9588923 1.451952 2.3418052e-38
-2.5982606 1.9665865 1.4535933 2.3418052e-38
-2.5987084 1.9774537 1.4562919 2.3418052e-38
-2.5993893 2.0002658 1.4573174 2.3418052e-38
-2.6001434 2.0254753 1.4584832 2.3418052e-38
-2.6004364 2.045609 1.4538672 2.3418052e-38
-2.6005745 2.0581186 1.4502125 2.3418052e-38
-2.6006632 2.0648055 1.4485242 2.3418052e-38
-2.600867 2.0774927 1.4459615 2.3418052e-38
-2.6012342 2.0906208 1.44611 2.3418052e-38
-2.6019366 2.1128623 1.447803 2.3418052e-38
-2.6021681 2.1257505 1.4456285 2.3418052e-38
-2.6030405 2.1747658 1.4372456 2.3418052e-38
-2.6035895 2.2062559 1.4316571 2.3418052e-38
-2.6039758 2.2203019 1.4316943 2.3418052e-38
-2.6051276 2.2840476 1.4210923 2.3418052e-38
-2.6031575 2.3294406 1.3634944 2.3418052e-38
-2.6006806 2.3267038 1.3204093 2.3418052e-38
-2.595721 2.211628 1.2878735 2.3418052e-38
-2.5955093 2.1925662 1.2934206 2.3418052e-38
-2.595027 2.1786349 1.2916057 2.3418052e-38
-2.5939794 2.151804 1.28596 2.3418052e-38
-2.5923827 2.1117599 1.276958 2.3418052e-38
-2.5918882 2.0983734 1.2746589 2.3418052e-38
-2.5899739 2.0311701 1.2732754 2.3418052e-38
-2.5895422 2.0178621 1.2720568 2.3418052e-38
-2.5888934 1.9855027 1.2762821 2.3418052e-38
-2.5874755 1.9486521 1.2689214 2.3418052e-38
-2.5862625 1.8852885 1.278228 2.3418052e-38
-2.5859253 1.8698095 1.2797682 2.3418052e-38
-2.5857503 1.8531942 1.2847791 2.3418052e-38
-2.5858626 1.8348131 1.2958069 2.3418052e-38
-2.5851071 1.8020523 1.2983191 2.3418052e-38
-2.5844269 1.7883081 1.2928511 2.3418052e-38
-2.582237 1.7270606 1.2836075 2.3418052e-38
-2.5806165 1.6734409 1.280834 2.3418052e-38
-2.5805149 1.6558633 1.287627 2.3418052e-38
-2.5798569 1.6099963 1.2983205 2.3418052e-38
-2.5796649 1.5908933 1.3042402 2.3418052e-38
-2.5788217 1.5578943 1.3052894 2.3418052e-38
-2.5780835 1.526505 1.3074441 2.3418052e-38
-2.5773652 1.492569 1.3111944 2.3418052e-38
-2.5770435 1.47695 1.3130949 2.3418052e-38
-2.5756204 1.4425359 1.3044342 2.3418052e-38
-2.5752587 1.42881 1.3046776 2.3418052e-38
-2.5748987 1.4130869 1.3059356 2.3418052e-38
-2.5740271 1.3792065 1.306916 2.3418052e-38
-2.5725491 1.3137733 1.3124869 2.3418052e-38
-2.5719001 1.3000348 1.30758 2.3418052e-38
-2.5699644 1.2343761 1.305057 2.3418052e-38
-2.5696096 1.217679 1.3068762 2.3418052e-38
-2.5678635 1.184683 1.2917392 2.3418052e-38
-2.5670216 1.1715962 1.2830527 2.3418052e-38
-2.5659583 1.1616777 1.2688335 2.3418052e-38
-2.5631871 1.1538491 1.2229667 2.3418052e-38
-2.5617335 1.1708679 1.1885471 2.3418052e-38
-2.5569882 1.1564553 1.1104951 2.3418052e-38
-2.5546596 1.1263441 1.0834808 2.3418052e-38
-2.5521128 1.0773761 1.0618165 2.3418052e-38
-2.5516641 1.0621668 1.0612191 2.3418052e-38
-2.5510519 1.030381 1.0658211 2.3418052e-38
-2.55111 1.0123718 1.0757043 2.3418052e-38
-2.5508993 0.98004538 1.0877764 2.3418052e-38
-2.5508723 0.96091729 1.0966711 2.3418052e-38
-2.5501304 0.93320256 1.0969474 2.3418052e-38
-2.5499089 0.91933501 1.0997825 2.3418052e-38
-2.5464795 0.86630237 1.0642618 2.3418052e-38
-2.5459247 0.85352778 1.0605826 2.3418052e-38
-2.544621 0.81587911 1.0556509 2.3418052e-38
-2.5477657 0.75136679 1.1436968 2.3418052e-38
-2.54987 0.76492637 1.1747937 2.3418052e-38
-2.5526464 0.7641083 1.224999 2.3418052e-38
-2.5533667 0.76356536 1.2381887 2.3418052e-38
-2.554203 0.76462799 1.252666 2.3418052e-38
-2.5559592 0.76366013 1.2846446 2.3418052e-38
-2.5561345 0.72881907 1.3048668 2.3418052e-38
-2.5560687 0.70997393 1.3129337 2.3418052e-38
-2.556195 0.68002951 1.3298879 2.3418052e-38
-2.5560462 0.65833491 1.3378587 2.3418052e-38
-2.5549443 0.62753981 1.3331919 2.3418052e-38
-2.5544031 0.61394036 1.3301454 2.3418052e-38
-2.5526597 0.58509517 1.3130151 2.3418052e-38
-2.5512555 0.5495708 1.3052506 2.3418052e-38
-2.5506165 0.51824802 1.3091476 2.3418052e-38
-2.5504551 0.49945229 1.315469 2.3418052e-38
-2.5498524 0.46538645 1.3213646 2.3418052e-38
-2.5491471 0.43514258 1.3235462 2.3418052e-38
-2.5487344 0.40683952 1.3300211 2.3418052e-38
-2.5476563 0.38170493 1.3230002 2.3418052e-38
-2.547013 0.34925392 1.3273757 2.3418052e-38
-2.5465281 0.31618556 1.3348911 2.3418052e-38
-2.5457332 0.28258029 1.3371115 2.3418052e-38
-2.5447183 0.24985483 1.3349435 2.3418052e-38
-2.5440385 0.20516342 1.3446743 2.3418052e-38
-2.5434742 0.18505529 1.3444123 2.3418052e-38
-2.5431898 0.17859817 1.3424776 2.3418052e-38
-2.5426924 0.17164749 1.3369572 2.3418052e-38
-2.5421538 0.16443497 1.330843 2.3418052e-38
-2.54057 0.13325024 1.3177131 2.3418052e-38
-2.5391533 0.075378418 1.3206844 2.3418052e-38
-2.5391693 0.051143765 1.3328555 2.3418052e-38
-2.5398185 0.028026722 1.3558383 2.3418052e-38
-2.5397253 0.021326631 1.3574471 2.3418052e-38
-2.5391905 -0.010837995 1.3636267 2.3418052e-38
-2.5368319 -0.090786189 1.3605199 2.3418052e-38
-2.5356448 -0.12236316 1.3547096 2.3418052e-38
-2.5351186 -0.15656699 1.362045 2.3418052e-38
-2.534524 -0.19208711 1.3687935 2.3418052e-38
-2.5330889 -0.23591325 1.3645489 2.3418052e-38
-2.5320547 -0.27017099 1.3627918 2.3418052e-38
-2.5317574 -0.28879586 1.3665838 2.3418052e-38
-2.531492 -0.30971664 1.3720868 2.3418052e-38
-2.5306156 -0.35330939 1.3777444 2.3418052e-38
-2.5298395 -0.36757246 1.3708181 2.3418052e-38
-2.5287361 -0.39811587 1.3660026 2.3418052e-38
-2.5284204 -0.41351721 1.3678925 2.3418052e-38
-2.528089 -0.42634517 1.3682295 2.3418052e-38
-2.5271318 -0.4670493 1.3710181 2.3418052e-38
-2.5261917 -0.50035572 1.3704925 2.3418052e-38
-2.524838 -0.53359354 1.3625071 2.3418052e-38
-2.524405 -0.54771888 1.3616606 2.3418052e-38
-2.5233061 -0.58168036 1.3586075 2.3418052e-38
-2.5226872 -0.61407232 1.3633895 2.3418052e-38
-2.5219803 -0.62828445 1.357681 2.3418052e-38
-2.520951 -0.66161847 1.3555627 2.3418052e-38
-2.5199897 -0.69454801 1.3544645 2.3418052e-38
-2.518173 -0.74038136 1.3443539 2.3418052e-38
-2.5165637 -0.80848706 1.3488841 2.3418052e-38
-2.5163727 -0.86274588 1.3720598 2.3418052e-38
-2.5160811 -0.87465113 1.3726654 2.3418052e-38
-2.5138683 -0.96987796 1.3796728 2.3418052e-38
-2.5125201 -1.0034513 1.3719478 2.3418052e-38
-2.5107536 -1.0327774 1.354632 2.3418052e-38
-2.5096362 -1.097236 1.3662006 2.3418052e-38
-2.50933 -1.1354783 1.3794644 2.3418052e-38
-2.5086706 -1.1677775 1.3834708 2.3418052e-38
-2.5070915 -1.1963398 1.3691556 2.3418052e-38
-2.5063975 -1.2167296 1.3666986 2.3418052e-38
-2.5057588 -1.2328196 1.3631334 2.3418052e-38
-2.5050976 -1.2634058 1.3662775 2.3418052e-38
-2.5037723 -1.2958441 1.3584032 2.3418052e-38
-2.5030358 -1.3305088 1.3621877 2.3418052e-38
-2.5024967 -1.3436984 1.3589959 2.3418052e-38
-2.5008197 -1.3910863 1.3521438 2.3418052e-38
-2.4994686 -1.4250357 1.3445528 2.3418052e-38
-2.4988854 -1.4577391 1.3501287 2.3418052e-38
-2.4977467 -1.4915481 1.3462875 2.3418052e-38
-2.496083 -1.5388997 1.3396566 2.3418052e-38
-2.4938633 -1.5878578 1.3238461 2.3418052e-38
-2.4929392 -1.6209679 1.3235133 2.3418052e-38
-2.4922519 -1.6349616 1.3180404 2.3418052e-38
-2.4916563 -1.647774 1.3136389 2.3418052e-38
-2.4902956 -1.6840773 1.3070366 2.3418052e-38
-2.4900036 -1.7036588 1.3113992 2.3418052e-38
-2.4899011 -1.7334738 1.3241706 2.3418052e-38
-2.4900503 -1.7513666 1.3356285 2.3418052e-38
-2.4978101 -1.7248991 1.4618471 2.3418052e-38
-2.4984701 -1.7169055 1.4697613 2.3418052e-38
-2.4988623 -1.7149589 1.4758465 2.3418052e-38
-2.4993124 -1.7152553 1.4840639 2.3418052e-38
-2.4989686 -1.7353461 1.4877455 2.3418052e-38
-2.4975491 -1.7750118 1.481735 2.3418052e-38
-2.4968638 -1.801136 1.4822521 2.3418052e-38
-2.4967191 -1.8131826 1.4855676 2.3418052e-38
-2.4966464 -1.8203061 1.487757 2.3418052e-38
-2.49633 -1.8397448 1.4916131 2.3418052e-38
-2.4961679 -1.8466303 1.4920785 2.3418052e-38
-2.4958773 -1.8659992 1.4963629 2.3418052e-38
-2.4957438 -1.8716521 1.4967368 2.3418052e-38
-2.4951861 -1.8864506 1.4939892 2.3418052e-38
-2.4939709 -1.9204535 1.4888673 2.3418052e-38
-2.4921532 -1.9615822 1.4764314 2.3418052e-38
-2.4911342 -1.9952461 1.4746553 2.3418052e-38
-2.4905293 -2.021152 1.4765134 2.3418052e-38
-2.4898963 -2.0479445 1.478296 2.3418052e-38
-2.4884565 -2.0825036 1.4694111 2.3418052e-38
-2.4879203 -2.0960882 1.4664559 2.3418052e-38
-2.4863765 -2.1460552 1.4632623 2.3418052e-38
-2.4864335 -2.2036436 1.4925232 2.3418052e-38
-2.4846408 -2.2465978 1.4814339 2.3418052e-38
-2.4835784 -2.2847602 1.4810829 2.3418052e-38
-2.4805114 -2.3482108 1.4571857 2.3418052e-38
-2.4799256 -2.3812351 1.4628725 2.3418052e-38
-2.4789279 -2.4042304 1.4562528 2.3418052e-38
-2.5034919 0.23214135 0.60411441 2.3429216e-38
-2.5021067 0.20166612 0.59421068 2.3429216e-38
-2.5024185 0.18352249 0.60869694 2.3429216e-38
-2.500746 0.11832599 0.61066777 2.3429216e-38
-2.5001814 0.085815281 0.61648369 2.3429216e-38
-2.4990005 0.05315648 0.61131519 2.3429216e-38
-2.4978371 0.020781711 0.60631371 2.3429216e-38
-2.4975178 0.010684527 0.60554832 2.3429216e-38
-2.4965065 -0.027156837 0.60596406 2.3429216e-38
-2.495291 -0.078332663 0.60925162 2.3429216e-38
-2.4949651 -0.093016498 0.61059761 2.3429216e-38
-2.4946411 -0.1111668 0.61369193 2.3429216e-38
-2.4942644 -0.12395313 0.61320621 2.3429216e-38
-2.493742 -0.13892259 0.61117458 2.3429216e-38
-2.4935384 -0.14804198 0.61199534 2.3429216e-38
-2.4932866 -0.15873583 0.61272562 2.3429216e-38
-2.4923437 -0.191396 0.61182338 2.3429216e-38
-2.4918687 -0.2038435 0.60940164 2.3429216e-38
-2.4915473 -0.2124266 0.60785377 2.3429216e-38
-2.4914358 -0.21872923 0.60893959 2.3429216e-38
-2.4911256 -0.23278806 0.61026645 2.3429216e-38
-2.4904842 -0.25721574 0.61074108 2.3429216e-38
-2.4900911 -0.27101049 0.61045325 2.3429216e-38
-2.4888129 -0.30996221 0.60662764 2.3429216e-38
-2.4874818 -0.35026824 0.60251355 2.3429216e-38
-2.4870703 -0.36454648 0.60213411 2.3429216e-38
-2.4867306 -0.37919247 0.60322255 2.3429216e-38
-2.4845891 -0.43368146 0.59153223 2.3429216e-38
-2.484241 -0.48300463 0.60946596 2.3429216e-38
-2.4839089 -0.49738944 0.61056352 2.3429216e-38
-2.4833882 -0.51695037 0.61081755 2.3429216e-38
-2.4823453 -0.55273658 0.60965407 2.3429216e-38
-2.4811082 -0.61494714 0.61796421 2.3429216e-38
-2.4808226 -0.63528568 0.62281609 2.3429216e-38
-2.4790342 -0.67999125 0.61266345 2.3429216e-38
-2.4776556 -0.70595419 0.6006676 2.3429216e-38
-2.4769409 -0.76660681 0.61758953 2.3429216e-38
-2.4759157 -0.78864932 0.61000878 2.3429216e-38
-2.4751618 -0.81531519 0.60955364 2.3429216e-38
-2.4739687 -0.85791945 0.60904449 2.3429216e-38
-2.4731853 -0.88663632 0.60907298 2.3429216e-38
-2.4727633 -0.90023643 0.60816783 2.3429216e-38
-2.4724147 -0.91005683 0.60673201 2.3429216e-38
-2.4704406 -0.95123899 0.59151375 2.3429216e-38
-2.4703267 -0.96942252 0.59839112 2.3429216e-38
-2.4692485 -1.019558 0.60363364 2.3429216e-38
-2.4687924 -1.0317695 0.60143924 2.3429216e-38
-2.4683728 -1.0470273 0.60139567 2.3429216e-38
-2.4682851 -1.0549595 0.60371464 2.3429216e-38
-2.4673769 -1.08902 0.60412472 2.3429216e-38
-2.4667866 -1.1025262 0.60015661 2.3429216e-38
-2.4658537 -1.1351078 0.59939241 2.3429216e-38
-2.4648261 -1.1633811 0.59483129 2.3429216e-38
-2.4635227 -1.2015587 0.5901739 2.3429216e-38
-2.463438 -1.2087609 0.592188 2.3429216e-38
-2.4630928 -1.2282782 0.59556031 2.3429216e-38
-2.4609232 -1.2795343 0.58177644 2.3429216e-38
-2.4607306 -1.2942894 0.5855521 2.3429216e-38
-2.4596226 -1.3421417 0.58914334 2.3429216e-38
-2.4594376 -1.3554568 0.59235662 2.3429216e-38
-2.4592547 -1.3644353 0.59347564 2.3429216e-38
-2.4572966 -1.4267565 0.58890671 2.3429216e-38
-2.4562526 -1.444663 0.57896531 2.3429216e-38
-2.4554904 -1.4565595 0.57113087 2.3429216e-38
-2.45521 -1.4650927 0.57028109 2.3429216e-38
-2.4549015 -1.4897209 0.57681882 2.3429216e-38
-2.4549196 -1.5013777 0.58285862 2.3429216e-38
-2.4554675 -1.5291522 0.60631049 2.3429216e-38
-2.4532113 -1.6053548 0.60320753 2.3429216e-38
-2.4481561 -1.6853198 0.55174112 2.3429216e-38
-2.4462416 -1.6903615 0.51986247 2.3429216e-38
-2.4441252 -1.6968898 0.485102 2.3429216e-38
-2.4434686 -1.6968935 0.47333407 2.3429216e-38
-2.4425068 -1.6940835 0.45469201 2.3429216e-38
-2.4417195 -1.6928706 0.43998182 2.3429216e-38
-2.4406097 -1.6926832 0.4199819 2.3429216e-38
-2.43856 -1.6788864 0.37644184 2.3429216e-38
-2.438189 -1.679377 0.37002921 2.3429216e-38
-2.4367697 -1.6792231 0.34449896 2.3429216e-38
-2.4347079 -1.6853157 0.31049657 2.3429216e-38
-2.4329462 -1.6870556 0.27974761 2.3429216e-38
-2.4321871 -1.6837749 0.2645295 2.3429216e-38
-2.4308627 -1.6727053 0.23533575 2.3429216e-38
-2.4305036 -1.6710639 0.22809625 2.3429216e-38
-2.4296286 -1.6718968 0.21280234 2.3429216e-38
-2.4253614 -1.6686187 0.13465425 2.3429216e-38
-2.4243076 -1.6670496 0.11498123 2.3429216e-38
-2.4209986 -1.6675615 0.055873558 2.3429216e-38
-2.4198954 -1.666326 0.035481751 2.3429216e-38
-2.4193022 -1.6625828 0.022999808 2.3429216e-38
-2.4182663 -1.662653 0.0044579208 2.3429216e-38
-2.4163997 -1.6629403 -0.028885812 2.3429216e-38
-2.4155819 -1.6644551 -0.042817242 2.3429216e-38
-2.41483 -1.6639912 -0.056532532 2.3429216e-38
-2.4138079 -1.6651278 -0.074307457 2.3429216e-38
-2.4097297 -1.65887 -0.15052706 2.3429216e-38
-2.4093859 -1.657869 -0.15718924 2.3429216e-38
-2.4084492 -1.6601467 -0.17287354 2.3429216e-38
-2.4076698 -1.6622992 -0.18580371 2.3429216e-38
-2.4068346 -1.6640937 -0.19990043 2.3429216e-38
-2.4051349 -1.6600299 -0.23238225 2.3429216e-38
-2.4042132 -1.6547713 -0.25149632 2.3429216e-38
-2.4032161 -1.6536438 -0.26993197 2.3429216e-38
-2.4023232 -1.6553893 -0.28509802 2.3429216e-38
-2.4015689 -1.6543739 -0.29912853 2.3429216e-38
-2.4005754 -1.6566995 -0.31580642 2.3429216e-38
-2.398874 -1.6530104 -0.34813219 2.3429216e-38
-2.3972526 -1.6522576 -0.37759233 2.3429216e-38
-2.3961959 -1.6522014 -0.39657038 2.3429216e-38
-2.3954537 -1.6534693 -0.40926158 2.3429216e-38
-2.3927941 -1.647423 -0.45993918 2.3429216e-38
-2.3919063 -1.6488595 -0.47516006 2.3429216e-38
-2.3880544 -1.6581551 -0.53969711 2.3429216e-38
-2.3858795 -1.6465039 -0.58442044 2.3429216e-38
-2.3847778 -1.644098 -0.60536301 2.3429216e-38
-2.3850007 -1.5399652 -0.65242743 2.3429216e-38
-2.3866289 -1.4969357 -0.64432359 2.3429216e-38
-2.387959 -1.4778991 -0.62979585 2.3429216e-38
-2.3902659 -1.4267703 -0.61348677 2.3429216e-38
-2.3907065 -1.4137367 -0.61197627 2.3429216e-38
-2.3920488 -1.3790562 -0.60490012 2.3429216e-38
-2.3921406 -1.3337195 -0.6254887 2.3429216e-38
-2.3933148 -1.301861 -0.62004393 2.3429216e-38
-2.3957455 -1.2433549 -0.60513365 2.3429216e-38
-2.3975379 -1.1957884 -0.59630173 2.3429216e-38
-2.3982272 -1.1821311 -0.59063965 2.3429216e-38
-2.3991356 -1.1556014 -0.58735377 2.3429216e-38
-2.3992391 -1.1385995 -0.59383243 2.3429216e-38
-2.3998616 -1.1055318 -0.59888512 2.3429216e-38
-2.400548 -1.0858643 -0.59621191 2.3429216e-38
-2.4013615 -1.0593936 -0.59459829 2.3429216e-38
-2.4018178 -1.0412983 -0.59529418 2.3429216e-38
-2.4033053 -0.98350084 -0.59694904 2.3429216e-38
-2.4045808 -0.9446364 -0.59311986 2.3429216e-38
-2.4057078 -0.92452621 -0.58276719 2.3429216e-38
-2.4064026 -0.91225541 -0.57632911 2.3429216e-38
-2.4082036 -0.8479237 -0.57555902 2.3429216e-38
-2.4088862 -0.81674254 -0.57860899 2.3429216e-38
-2.4099152 -0.7852996 -0.5755651 2.3429216e-38
-2.4104455 -0.76419926 -0.57640004 2.3429216e-38
-2.4115202 -0.70939589 -0.58400321 2.3429216e-38
-2.4121122 -0.68911594 -0.58332598 2.3429216e-38
-2.4128599 -0.66120631 -0.5835979 2.3429216e-38
-2.4138443 -0.60914218 -0.59146655 2.3429216e-38
-2.4147778 -0.5566591 -0.60045499 2.3429216e-38
-2.4157345 -0.5369103 -0.59297901 2.3429216e-38
-2.4162915 -0.50326633 -0.59948444 2.3429216e-38
-2.4167707 -0.4898355 -0.59747529 2.3429216e-38
-2.4173341 -0.47772089 -0.59331131 2.3429216e-38
-2.4177244 -0.47024924 -0.58997595 2.3429216e-38
-2.4181759 -0.46073616 -0.58654428 2.3429216e-38
-2.4192612 -0.42101654 -0.58654135 2.3429216e-38
-2.4198363 -0.40641379 -0.58339083 2.3429216e-38
-2.4202039 -0.37626413 -0.59158063 2.3429216e-38
-2.4208086 -0.34936643 -0.59392565 2.3429216e-38
-2.4216897 -0.32142246 -0.59182101 2.3429216e-38
-2.4222078 -0.30334759 -0.5913887 2.3429216e-38
-2.4224234 -0.29669231 -0.59079027 2.3429216e-38
-2.4226437 -0.27751338 -0.59624296 2.3429216e-38
-2.4230309 -0.25788334 -0.59892082 2.3429216e-38
-2.4234419 -0.24463578 -0.59803855 2.3429216e-38
-2.4239841 -0.2310348 -0.59498298 2.3429216e-38
-2.4252386 -0.18969499 -0.59274995 2.3429216e-38
-2.4255497 -0.18319032 -0.59035683 2.3429216e-38
-2.4262931 -0.16663566 -0.58514255 2.3429216e-38
-2.4265754 -0.15312696 -0.58670235 2.3429216e-38
-2.4267809 -0.14597729 -0.58652604 2.3429216e-38
-2.427577 -0.10798533 -0.59087068 2.3429216e-38
-2.4286737 -0.083348989 -0.58327711 2.3429216e-38
-2.4295728 -0.063051149 -0.57710278 2.3429216e-38
-2.4296803 -0.052003376 -0.58059335 2.3429216e-38
-2.4299645 -0.033137418 -0.58475167 2.3429216e-38
-2.4310696 0.0095937774 -0.58588016 2.3429216e-38
-2.4324226 0.05012472 -0.58148146 2.3429216e-38
-2.4331272 0.070145771 -0.57865918 2.3429216e-38
-2.4339957 0.096764624 -0.57613367 2.3429216e-38
-2.434386 0.11962259 -0.58033991 2.3429216e-38
-2.434607 0.13533264 -0.58408475 2.3429216e-38
-2.4345903 0.14415529 -0.58870912 2.3429216e-38
-2.4347599 0.1911892 -0.60872686 2.3429216e-38
-2.4356029 0.22398734 -0.60968661 2.3429216e-38
-2.4378188 0.29083705 -0.60272235 2.3429216e-38
-2.43924 0.33581072 -0.59927702 2.3429216e-38
-2.4396996 0.34460744 -0.59534806 2.3429216e-38
-2.4412956 0.42939499 -0.6082958 2.3429216e-38
-2.4416385 0.43806547 -0.60640192 2.3429216e-38
-2.4430299 0.50194722 -0.6127668 2.3429216e-38
-2.443363 0.50923502 -0.61036527 2.3429216e-38
-2.4443405 0.54992831 -0.6127854 2.3429216e-38
-2.4445722 0.55541879 -0.61131382 2.3429216e-38
-2.4445448 0.56531745 -0.61666328 2.3429216e-38
-2.4458604 0.63574326 -0.62760031 2.3429216e-38
-2.446517 0.66473323 -0.63003182 2.3429216e-38
-2.4479444 0.69939905 -0.62142646 2.3429216e-38
-2.4483693 0.71259207 -0.62027407 2.3429216e-38
-2.4490247 0.74531955 -0.62456977 2.3429216e-38
-2.4491968 0.76389486 -0.63059098 2.3429216e-38
-2.4497504 0.79725659 -0.63701445 2.3429216e-38
-2.4515769 0.84437048 -0.62735629 2.3429216e-38
-2.4533892 0.89217728 -0.61828697 2.3429216e-38
-2.4541569 0.9240759 -0.620161 2.3429216e-38
-2.4545825 0.94465464 -0.6226176 2.3429216e-38
-2.4551923 0.96572655 -0.62200856 2.3429216e-38
-2.4555333 0.97794288 -0.62188667 2.3429216e-38
-2.4550951 0.99275404 -0.637007 2.3429216e-38
-2.4554441 1.1069961 -0.68676329 2.3429216e-38
-2.4566491 1.1224689 -0.67273992 2.3429216e-38
-2.461257 1.129939 -0.59374648 2.3429216e-38
-2.4629786 1.1264546 -0.56115973 2.3429216e-38
-2.4636774 1.1249765 -0.54789364 2.3429216e-38
-2.464499 1.127696 -0.53448719 2.3429216e-38
-2.4655595 1.1269982 -0.51512295 2.3429216e-38
-2.4671366 1.1301675 -0.48838603 2.3429216e-38
-2.4683282 1.1333297 -0.46856433 2.3429216e-38
-2.4692869 1.1324224 -0.45092142 2.3429216e-38
-2.4702246 1.1364741 -0.43608469 2.3429216e-38
-2.4716978 1.1355562 -0.40920678 2.3429216e-38
-2.4719877 1.1344211 -0.40345019 2.3429216e-38
-2.4727106 1.13288 -0.38972646 2.3429216e-38
-2.4738445 1.1303959 -0.36817157 2.3429216e-38
-2.4744372 1.1280835 -0.3564021 2.3429216e-38
-2.4754651 1.1270335 -0.33745247 2.3429216e-38
-2.4770293 1.1294229 -0.31056169 2.3429216e-38
-2.4779603 1.1268945 -0.29262087 2.3429216e-38
-2.4791038 1.1283675 -0.27283987 2.3429216e-38
-2.4799321 1.1313272 -0.25942546 2.3429216e-38
-2.4807441 1.1337099 -0.24603039 2.3429216e-38
-2.4817235 1.1399322 -0.23151699 2.3429216e-38
-2.4828613 1.1437864 -0.21299076 2.3429216e-38
-2.4836442 1.1451724 -0.19962892 2.3429216e-38
-2.4855163 1.1468513 -0.16686977 2.3429216e-38
-2.4869444 1.1445723 -0.14013542 2.3429216e-38
-2.4873059 1.1456963 -0.13420525 2.3429216e-38
-2.4881165 1.1480465 -0.12081118 2.3429216e-38
-2.4900994 1.1526785 -0.087516613 2.3429216e-38
-2.4910429 1.160408 -0.074379787 2.3429216e-38
-2.491926 1.1652253 -0.060903326 2.3429216e-38
-2.4931266 1.1693276 -0.041378692 2.3429216e-38
-2.4949646 1.1698316 -0.0086588115 2.3429216e-38
-2.49561 1.1665826 0.004511252 2.3429216e-38
-2.4965014 1.1613197 0.023089305 2.3429216e-38
-2.4972553 1.1604347 0.037046075 2.3429216e-38
-2.4982591 1.1577928 0.056345388 2.3429216e-38
-2.4991426 1.163368 0.06946069 2.3429216e-38
-2.5010796 1.1665289 0.10265581 2.3429216e-38
-2.5021217 1.177165 0.11613634 2.3429216e-38
-2.5050054 1.1907635 0.16119456 2.3429216e-38
-2.506397 1.2292465 0.16728453 2.3429216e-38
-2.5068748 1.2389934 0.17107616 2.3429216e-38
-2.5079911 1.262344 0.1796485 2.3429216e-38
-2.5088027 1.2957809 0.17781577 2.3429216e-38
-2.5086381 1.3381157 0.15409927 2.3429216e-38
-2.5052562 1.2622247 0.13065457 2.3429216e-38
-2.5048356 1.2553074 0.12649846 2.3429216e-38
-2.4991114 1.2310622 0.035707951 2.3429216e-38
-2.4974809 1.2452409 -0.0004966408 2.3429216e-38
-2.4954567 1.2955005 -0.061453477 2.3429216e-38
-2.4956198 1.313729 -0.06746836 2.3429216e-38
-2.4959826 1.3522547 -0.079847097 2.3429216e-38
-2.4972882 1.3921354 -0.075981393 2.3429216e-38
-2.4981976 1.4178673 -0.072290704 2.3429216e-38
-2.4985502 1.4267628 -0.070317909 2.3429216e-38
-2.4991124 1.4408765 -0.067159362 2.3429216e-38
-2.4994817 1.4621119 -0.070947468 2.3429216e-38
-2.5001431 1.4874382 -0.071503133 2.3429216e-38
-2.5012147 1.5274284 -0.071886234 2.3429216e-38
-2.5016825 1.5465065 -0.072854534 2.3429216e-38
-2.5019693 1.5596373 -0.074147128 2.3429216e-38
-2.5027809 1.6125559 -0.085541382 2.3429216e-38
-2.5089173 1.7063475 -0.021454774 2.3429216e-38
-2.5137174 1.6660619 0.084400088 2.3429216e-38
-2.5137174 1.6505381 0.092014253 2.3429216e-38
-2.5159082 1.6574717 0.12791637 2.3429216e-38
-2.5175674 1.6782441 0.14748861 2.3429216e-38
-2.5196743 1.6998571 0.17468448 2.3429216e-38
-2.520391 1.7106643 0.18224086 2.3429216e-38
-2.5240145 1.7421066 0.2318245 2.3429216e-38
-2.5286381 1.6893287 0.34064746 2.3429216e-38
-2.5298276 1.6715453 0.37069833 2.3429216e-38
-2.5302796 1.6372528 0.39562613 2.3429216e-38
-2.530287 1.6359897 0.39638072 2.3429216e-38
-2.5325639 1.6062554 0.4517988 2.3429216e-38
-2.5328093 1.6015937 0.45848763 2.3429216e-38
-2.5356326 1.6076789 0.50615418 2.3429216e-38
-2.5391643 1.5523636 0.59662539 2.3429216e-38
-2.5388589 1.5359893 0.59917939 2.3429216e-38
-2.5383463 1.5004585 0.60740501 2.3429216e-38
-2.5358062 1.442071 0.59046668 2.3429216e-38
-2.5359819 1.4279592 0.60054654 2.3429216e-38
-2.5353584 1.3872249 0.60934031 2.3429216e-38
-2.5351033 1.3733749 0.61155277 2.3429216e-38
-2.5329587 1.3055762 0.606323 2.3429216e-38
-2.5279865 1.2464573 0.54612392 2.3429216e-38
-2.5253477 1.2301142 0.50680292 2.3429216e-38
-2.5227501 1.2302313 0.46014887 2.3429216e-38
-2.5204926 1.2364833 0.41658717 2.3429216e-38
-2.5191534 1.2326645 0.39443165 2.3429216e-38
-2.5182383 1.2288244 0.37990415 2.3429216e-38
-2.5175643 1.1923425 0.38570178 2.3429216e-38
-2.5193565 1.1912882 0.41836971 2.3429216e-38
-2.5225513 1.1984301 0.47217792 2.3429216e-38
-2.5242233 1.1706603 0.51579022 2.3429216e-38
-2.5248477 1.166832 0.52886325 2.3429216e-38
-2.5258226 1.1634283 0.54802293 2.3429216e-38
-2.5266521 1.1658907 0.56169367 2.3429216e-38
-2.528446 1.0630863 0.64428508 2.3429216e-38
-2.5258212 1.0140114 0.62126613 2.3429216e-38
-2.5246034 0.99358147 0.60943609 2.3429216e-38
-2.5240457 0.96551579 0.61319649 2.3429216e-38
-2.5221968 0.91972506 0.60248297 2.3429216e-38
-2.5219309 0.90233064 0.60624439 2.3429216e-38
-2.5208449 0.82912958 0.6226573 2.3429216e-38
-2.5194545 0.80131733 0.61135221 2.3429216e-38
-2.519062 0.78457749 0.61251998 2.3429216e-38
-2.5188386 0.77155566 0.61490309 2.3429216e-38
-2.5173612 0.73275828 0.6074217 2.3429216e-38
-2.5167506 0.72194135 0.60177207 2.3429216e-38
-2.5156596 0.68681484 0.59942836 2.3429216e-38
-2.5149834 0.65530407 0.60274768 2.3429216e-38
-2.5146337 0.63785219 0.60503858 2.3429216e-38
-2.5141828 0.62305266 0.6042012 2.3429216e-38
-2.5140464 0.61129797 0.60752189 2.3429216e-38
-2.5129402 0.5638293 0.61095405 2.3429216e-38
-2.5120549 0.54235142 0.60560352 2.3429216e-38
-2.5115249 0.53032154 0.60199875 2.3429216e-38
-2.5108433 0.49618834 0.60650116 2.3429216e-38
-2.5091457 0.44382924 0.60173082 2.3429216e-38
-2.5088367 0.42959487 0.60316885 2.3429216e-38
-2.5085146 0.41159698 0.60621196 2.3429216e-38
-2.5070252 0.36262739 0.60350776 2.3429216e-38
-2.5071592 0.32990006 0.62196416 2.3429216e-38
-2.5053465 0.27753383 0.61512417 2.3429216e-38
-2.5034919 0.23214135 0.60411441 2.3429216e-38
-2.4623725 1.8831714 -0.94309127 2.3475313e-38
-2.4584234 1.8657011 -1.0053624 2.3475313e-38
-2.4577076 1.8678823 -1.0192677 2.3475313e-38
-2.4569619 1.8702056 -1.0337855 2.3475313e-38
-2.4559066 1.865551 -1.050434 2.3475313e-38
-2.4506035 1.874676 -1.1500379 2.3475313e-38
-2.4513595 1.9507744 -1.1737905 2.3475313e-38
-2.4531295 2.0015359 -1.1669323 2.3475313e-38
-2.4554377 2.0316603 -1.1402991 2.3475313e-38
-2.4609709 2.0452845 -1.0477265 2.3475313e-38
-2.4616401 2.0412357 -1.0337321 2.3475313e-38
-2.4625435 2.032568 -1.0132781 2.3475313e-38
-2.4632037 2.0207417 -0.99564129 2.3475313e-38
-2.4641576 2.0301123 -0.98312283 2.3475313e-38
-2.4661703 2.0456119 -0.95461911 2.3475313e-38
-2.4668605 2.0488563 -0.94382882 2.3475313e-38
-2.467777 2.0513504 -0.92860597 2.3475313e-38
-2.4691019 2.0599573 -0.90906453 2.3475313e-38
-2.4736338 2.0554614 -0.82557011 2.3475313e-38
-2.474402 2.0563254 -0.81221497 2.3475313e-38
-2.4753234 2.0569286 -0.79597241 2.3475313e-38
-2.4765644 2.0644522 -0.77740401 2.3475313e-38
-2.4774072 2.069093 -0.76456165 2.3475313e-38
-2.4783943 2.076272 -0.75037819 2.3475313e-38
-2.4818912 2.0653923 -0.68231326 2.3475313e-38
-2.4832985 2.0463781 -0.64774168 2.3475313e-38
-2.4774361 1.9196672 -0.69077194 2.3475313e-38
-2.4753454 1.9056058 -0.72137862 2.3475313e-38
-2.4732149 1.8922553 -0.75304884 2.3475313e-38
-2.4711261 1.8931251 -0.79094642 2.3475313e-38
-2.4705853 1.8942904 -0.80121785 2.3475313e-38
-2.4696333 1.8950884 -0.8186838 2.3475313e-38
-2.4688101 1.8959749 -0.83389676 2.3475313e-38
-2.4665539 1.9108273 -0.88164389 2.3475313e-38
-2.4644215 1.8925253 -0.91092026 2.3475313e-38
-2.4623725 1.8831714 -0.94309127 2.3475313e-38
