# .PCD v0.7 - Point Cloud Data file format
VERSION 0.7
FIELDS x y z rgb
SIZE 4 4 4 4
TYPE F F F F
COUNT 1 1 1 1
WIDTH 1029
HEIGHT 1
VIEWPOINT 0 0 0 1 0 0 0
POINTS 1029
DATA ascii
-0.89301455 0.90606594 2.2470651 2.350953e-38
-0.87222618 0.90191436 2.2519898 2.350953e-38
-0.85145098 0.89799064 2.25701 2.3509531e-38
-0.83172494 0.89705402 2.2629917 2.3509531e-38
-0.82335234 0.89915365 2.2666194 2.3509531e-38
-0.81683087 0.89999461 2.2690985 2.3509531e-38
-0.79865021 0.89839083 2.2742894 2.3509532e-38
-0.79030144 0.89830679 2.2769575 2.3509532e-38
-0.78361666 0.89879066 2.2793341 2.3509532e-38
-0.76715541 0.8957969 2.2833619 2.3509532e-38
-0.75929278 0.89570159 2.2858677 2.3509534e-38
-0.73278922 0.89573914 2.2944698 2.3509534e-38
-0.71658367 0.89274305 2.2984135 2.3509534e-38
-0.70858204 0.88953727 2.2996085 2.3509534e-38
-0.68449312 0.88455504 2.3052406 2.3509535e-38
-0.6693517 0.887321 2.3113518 2.3509535e-38
-0.65570712 0.88735789 2.315788 2.3509535e-38
-0.64002174 0.8846091 2.3196712 2.3509535e-38
-0.61132264 0.88653201 2.3298068 2.3509537e-38
-0.60732818 0.88820636 2.3318305 2.3509537e-38
-0.60341698 0.88773763 2.3328931 2.3509537e-38
-0.5875597 0.88667512 2.3375671 2.3509537e-38
-0.57778621 0.88482916 2.3399286 2.3509537e-38
-0.56979138 0.8838805 2.3421052 2.3509538e-38
-0.53236854 0.87930107 2.3522325 2.3509538e-38
-0.52479684 0.88208294 2.3558981 2.3509538e-38
-0.48367512 0.87835926 2.3675969 2.3509538e-38
-0.4678219 0.87562698 2.3715413 2.3509539e-38
-0.44638032 0.87765431 2.3793716 2.3509539e-38
-0.43879575 0.87872916 2.3822968 2.3509539e-38
-0.41223952 0.87420565 2.3889284 2.3509539e-38
-0.39607447 0.86941761 2.3920784 2.3509541e-38
-0.36468956 0.85912853 2.3977613 2.3509541e-38
-0.3606703 0.85864687 2.3988531 2.3509541e-38
-0.35665098 0.85816532 2.399945 2.3509541e-38
-0.35263187 0.85768354 2.4010372 2.3509542e-38
-0.32585856 0.85847014 2.4100537 2.3509542e-38
-0.32177776 0.85798597 2.4111645 2.3509542e-38
-0.3176969 0.85750175 2.4122753 2.3509542e-38
-0.31361607 0.85701746 2.4133863 2.3509544e-38
-0.30947819 0.85653472 2.4145164 2.3509544e-38
-0.28268805 0.85338444 2.4218223 2.3509544e-38
-0.24588183 0.85658205 2.4351397 2.3509544e-38
-0.22497013 0.85032409 2.4391868 2.3509545e-38
-0.22089349 0.84983557 2.4402943 2.3509545e-38
-0.21311633 0.84937692 2.4426136 2.3509545e-38
-0.20894706 0.8488822 2.4437485 2.3509545e-38
-0.20477781 0.8483873 2.4448838 2.3509545e-38
-0.20060845 0.84789264 2.4460189 2.3509547e-38
-0.19643912 0.84739786 2.447154 2.3509547e-38
-0.17926708 0.84154761 2.4501669 2.3509547e-38
-0.17509772 0.84105289 2.4513021 2.3509547e-38
-0.15474576 0.84245056 2.4585042 2.3509548e-38
-0.12561858 0.83898568 2.4664304 2.3509548e-38
-0.11321153 0.83749878 2.4698014 2.3509548e-38
-0.10907584 0.83700317 2.4709251 2.3509548e-38
-0.079735503 0.83703226 2.4804428 2.3509549e-38
-0.033597589 0.83945465 2.4964454 2.3509549e-38
-0.01419306 0.8178134 2.4932988 2.3509549e-38
-0.0093583874 0.81338769 2.4929361 2.3509549e-38
-0.0046193576 0.80895942 2.4925413 2.3509551e-38
-0.0040750615 0.80503398 2.4910064 2.3509551e-38
-0.0035308958 0.80110836 2.4894717 2.3509551e-38
-0.010285517 0.77888232 2.477596 2.3509551e-38
-0.013487319 0.77158403 2.4733775 2.3509552e-38
-0.015194752 0.75259095 2.4645457 2.3509552e-38
-0.012633356 0.72645772 2.4539845 2.3509552e-38
-0.011643955 0.71871483 2.4509304 2.3509552e-38
-0.010864593 0.70380497 2.4446838 2.3509554e-38
-0.013529991 0.69276696 2.4390094 2.3509554e-38
-0.014307382 0.68361264 2.4347672 2.3509554e-38
2.5753743e-05 0.64326227 2.421823 2.3509554e-38
0.0189033 0.62223119 2.4187715 2.3509554e-38
0.053732093 0.60306555 2.4217007 2.3509555e-38
0.066549055 0.59778643 2.4235518 2.3509555e-38
0.10172403 0.58825892 2.4307942 2.3509555e-38
0.11364902 0.59062868 2.4356902 2.3509555e-38
0.12143533 0.59348941 2.4394596 2.3509556e-38
0.12971281 0.59250724 2.4417129 2.3509556e-38
0.17657538 0.61082226 2.4648778 2.3509556e-38
0.18647219 0.61610299 2.4703856 2.3509556e-38
0.21832725 0.62780201 2.4858048 2.3509558e-38
0.22205436 0.6312269 2.4885049 2.3509558e-38
0.22578155 0.6346519 2.4912052 2.3509558e-38
0.23931092 0.64741415 2.5011511 2.3509558e-38
0.24306515 0.65086395 2.5038707 2.3509559e-38
0.26908171 0.67082995 2.5210013 2.3509559e-38
0.28353527 0.68012404 2.5297353 2.3509559e-38
0.28890809 0.6715855 2.5277538 2.3509559e-38
0.3004792 0.6551649 2.5243452 2.3509561e-38
0.30714074 0.63931835 2.5195961 2.3509561e-38
0.31211853 0.63023543 2.5172496 2.3509561e-38
0.31742898 0.62175572 2.515274 2.3509561e-38
0.39066732 0.6091066 2.5334866 2.3509562e-38
0.39437208 0.61258036 2.5362008 2.3509562e-38
0.40917945 0.62963462 2.5484314 2.3509562e-38
0.41281649 0.63621539 2.5524783 2.3509562e-38
0.42065912 0.63813746 2.5558567 2.3509562e-38
0.42503402 0.63761371 2.5570452 2.3509563e-38
0.43151781 0.62200451 2.5523424 2.3509563e-38
0.4291763 0.60751015 2.5452659 2.3509563e-38
0.46097654 0.56027019 2.5349772 2.3509563e-38
0.46560296 0.55573595 2.5344999 2.3509565e-38
0.47579068 0.54266417 2.5321028 2.3509565e-38
0.49703401 0.50625032 2.5231123 2.3509565e-38
0.53531307 0.49360678 2.5300026 2.3509565e-38
0.55545938 0.48575926 2.5331082 2.3509566e-38
0.59694254 0.46106532 2.5357838 2.3509566e-38
0.60484171 0.46057507 2.5381291 2.3509566e-38
0.62669885 0.46148869 2.545608 2.3509566e-38
0.63642466 0.4622387 2.5490859 2.3509568e-38
0.64897722 0.46473315 2.5542395 2.3509568e-38
0.66204691 0.46318224 2.5577977 2.3509568e-38
0.66640341 0.46266535 2.5589836 2.3509568e-38
0.69779068 0.46476981 2.5700688 2.3509569e-38
0.73943949 0.44663095 2.5756552 2.3509569e-38
0.74757874 0.44527358 2.5777004 2.3509569e-38
0.75625169 0.44178781 2.5789907 2.3509569e-38
0.80149114 0.4375158 2.5917842 2.350957e-38
0.82003105 0.43986231 2.5988133 2.350957e-38
0.83240539 0.4420597 2.6037796 2.350957e-38
0.84550875 0.44492495 2.6092739 2.350957e-38
0.86059719 0.45337033 2.6178429 2.350957e-38
0.88359451 0.45103723 2.6242759 2.3509572e-38
0.89980936 0.45125163 2.629622 2.3509572e-38
0.93863964 0.50530642 2.6657627 2.3509572e-38
0.93806916 0.50948262 2.6673987 2.3509572e-38
0.93692833 0.51783514 2.6706696 2.3509573e-38
0.93635803 0.52201146 2.6723051 2.3509573e-38
0.98510623 0.52651781 2.6900616 2.3509573e-38
1.0006105 0.520998 2.6926782 2.3509573e-38
1.0354596 0.5210731 2.7040007 2.3509575e-38
1.0912571 0.52236921 2.7226417 2.3509575e-38
1.0938418 0.47447768 2.7026045 2.3509575e-38
1.1078117 0.44686237 2.6950932 2.3509575e-38
1.1476376 0.42663911 2.6991804 2.3509576e-38
1.1869266 0.43257257 2.7144942 2.3509576e-38
1.2309208 0.43350267 2.7291522 2.3509576e-38
1.2366527 0.43555748 2.7319047 2.3509576e-38
1.2495961 0.44313356 2.7393999 2.3509577e-38
1.254499 0.44488287 2.741751 2.3509577e-38
1.2649016 0.44362336 2.7445719 2.3509577e-38
1.2814624 0.42701697 2.7426984 2.3509577e-38
1.2835193 0.41818365 2.7395146 2.3509579e-38
1.2907974 0.37836188 2.7245154 2.3509579e-38
1.296447 0.36931819 2.7224038 2.3509579e-38
1.3071582 0.35553673 2.7198665 2.3509579e-38
1.336458 0.33367011 2.7198272 2.3509579e-38
1.3428206 0.28835717 2.7021379 2.350958e-38
1.3434087 0.28405142 2.7004516 2.350958e-38
1.3439969 0.27974555 2.6987653 2.350958e-38
1.3564723 0.25304654 2.6911693 2.350958e-38
1.3833396 0.23183784 2.6906288 2.3509582e-38
1.4030803 0.22054081 2.6920998 2.3509582e-38
1.4074523 0.20726252 2.6877286 2.3509582e-38
1.4117906 0.19579451 2.6841354 2.3509582e-38
1.4101522 0.17346752 2.6738729 2.3509583e-38
1.4066174 0.088358179 2.6356306 2.3509583e-38
1.3930475 0.031493917 2.6064489 2.3509583e-38
1.3931419 0.00021751595 2.5928471 2.3509583e-38
1.3958839 -0.0091284392 2.5896616 2.3509584e-38
1.4469303 -0.063485399 2.5825057 2.3509584e-38
1.3978891 -0.13137351 2.5370278 2.3509584e-38
1.4005855 -0.14056379 2.5338955 2.3509584e-38
1.4008703 -0.1703805 2.5209913 2.3509586e-38
1.3859582 -0.21275699 2.4976897 2.3509586e-38
1.3886067 -0.22179988 2.4946063 2.3509586e-38
1.3964974 -0.2779077 2.4727063 2.3509586e-38
1.4058625 -0.29642737 2.4676681 2.3509587e-38
1.4035187 -0.31604826 2.4583564 2.3509587e-38
1.4008677 -0.33559385 2.4489784 2.3509587e-38
1.3954891 -0.34609762 2.4426575 2.3509587e-38
1.4103675 -0.41006961 2.4195936 2.3509587e-38
1.4122878 -0.43055946 2.4112847 2.3509589e-38
1.4124507 -0.4852052 2.3875189 2.3509589e-38
1.4614226 -0.52167654 2.3874867 2.3509589e-38
1.5167617 -0.49401632 2.4174707 2.3509589e-38
1.5320182 -0.4939751 2.422431 2.350959e-38
1.55089 -0.48821577 2.4310551 2.350959e-38
1.5686197 -0.46606901 2.4464519 2.350959e-38
1.6175368 -0.44172722 2.4729092 2.350959e-38
1.6538621 -0.42212182 2.4932225 2.3509591e-38
1.6765872 -0.40111864 2.5097392 2.3509591e-38
1.6882099 -0.3478846 2.5367076 2.3509591e-38
1.692427 -0.40075666 2.5150285 2.3509591e-38
1.7174519 -0.44997793 2.5016811 2.3509593e-38
1.708629 -0.47067252 2.4898026 2.3509593e-38
1.7000718 -0.47965294 2.4831161 2.3509593e-38
1.7015429 -0.53815651 2.4580927 2.3509593e-38
1.7058533 -0.60512334 2.4302998 2.3509594e-38
1.7090131 -0.63363272 2.4188969 2.3509594e-38
1.7118379 -0.64305168 2.4157066 2.3509594e-38
1.7014693 -0.67990649 2.3962834 2.3509594e-38
1.7007548 -0.71170014 2.3821938 2.3509596e-38
1.7035419 -0.72099924 2.3790436 2.3509596e-38
1.7063286 -0.7302984 2.3758931 2.3509596e-38
1.7086868 -0.77597558 2.3567474 2.3509596e-38
1.696322 -0.80169147 2.3415329 2.3509596e-38
1.6992702 -0.83745319 2.3269005 2.3509597e-38
1.6981171 -0.85776919 2.3176715 2.3509597e-38
1.6856481 -0.89037633 2.2994196 2.3509597e-38
1.6859443 -0.8990466 2.2957363 2.3509597e-38
1.6961617 -0.92572647 2.2874174 2.3509598e-38
1.6897764 -0.94967556 2.27491 2.3509598e-38
1.6409352 -0.95249242 2.2578597 2.3509598e-38
1.6098084 -0.94868642 2.2494347 2.3509598e-38
1.5886649 -0.94618249 2.2436767 2.35096e-38
1.5792201 -0.94486719 2.2411902 2.35096e-38
1.5547587 -0.94313425 2.2340212 2.35096e-38
1.5248888 -0.93959665 2.2258863 2.35096e-38
1.5046973 -0.93598789 2.2209182 2.3509601e-38
1.4953284 -0.93564469 2.2180326 2.3509601e-38
1.4729568 -0.93259126 2.212116 2.3509601e-38
1.4658313 -0.93203807 2.2100487 2.3509601e-38
1.4430754 -0.92823982 2.2043324 2.3509603e-38
1.4365451 -0.92844784 2.2021263 2.3509603e-38
1.4163162 -0.92500108 2.1970754 2.3509603e-38
1.3826017 -0.92204851 2.1874402 2.3509603e-38
1.3565975 -0.91909236 2.1803043 2.3509604e-38
1.337409 -0.9168691 2.1750572 2.3509604e-38
1.2882979 -0.91093099 2.1617355 2.3509604e-38
1.2672751 -0.91140449 2.1547186 2.3509604e-38
1.2591777 -0.91021335 2.1526146 2.3509604e-38
1.2535264 -0.90983951 2.1509469 2.3509605e-38
1.247867 -0.90946424 2.149277 2.3509605e-38
1.2294414 -0.90688115 2.144434 2.3509605e-38
1.2006178 -0.90321749 2.1366928 2.3509605e-38
1.1819504 -0.90106392 2.1315842 2.3509607e-38
1.1708323 -0.89968288 2.1285844 2.3509607e-38
1.1651094 -0.89889133 2.1270754 2.3509607e-38
1.1529239 -0.89515072 2.1247582 2.3509607e-38
1.1461619 -0.89427489 2.1229494 2.3509608e-38
1.1210747 -0.89364821 2.1150954 2.3509608e-38
1.1006166 -0.88735318 2.1112115 2.3509608e-38
1.0889329 -0.88577163 2.1081159 2.3509608e-38
1.0863304 -0.88556176 2.1073644 2.350961e-38
1.0791192 -0.88465071 2.1054254 2.350961e-38
1.0601915 -0.88254476 2.1002114 2.350961e-38
1.0584999 -0.88222617 2.0998023 2.350961e-38
1.0513874 -0.88128251 2.0979097 2.3509611e-38
1.0427153 -0.88049299 2.0954442 2.3509611e-38
1.0359001 -0.87988633 2.0935009 2.3509611e-38
1.0233489 -0.87686902 2.09075 2.3509611e-38
1.0131938 -0.8765437 2.0876021 2.3509612e-38
1.0031252 -0.87532741 2.0848703 2.3509612e-38
0.98988557 -0.87381911 2.0812387 2.3509612e-38
0.98488182 -0.87354016 2.0797393 2.3509612e-38
0.97346669 -0.87218535 2.0766318 2.3509612e-38
0.96571445 -0.87083369 2.0747094 2.3509614e-38
0.95112801 -0.86916864 2.0707097 2.3509614e-38
0.94341278 -0.86990345 2.0678902 2.3509614e-38
0.9351272 -0.8688767 2.0656536 2.3509614e-38
0.92199612 -0.86737615 2.0620537 2.3509615e-38
0.89773875 -0.86446857 2.0554626 2.3509615e-38
0.87546861 -0.86184067 2.0493934 2.3509615e-38
0.8694098 -0.8610568 2.0477724 2.3509615e-38
0.85512358 -0.85938579 2.0438726 2.3509617e-38
0.85213774 -0.85874534 2.0431843 2.3509617e-38
0.83651 -0.85650671 2.0390973 2.3509617e-38
0.82995135 -0.85592055 2.0372281 2.3509617e-38
0.82063919 -0.85466939 2.0347569 2.3509618e-38
0.80679411 -0.85345685 2.0308001 2.3509618e-38
0.80321676 -0.85298067 2.0298488 2.3509618e-38
0.78953671 -0.85111684 2.0262294 2.3509618e-38
0.76944762 -0.84910977 2.0205963 2.3509619e-38
0.75570244 -0.84745389 2.016865 2.3509619e-38
0.74982697 -0.84670627 2.0152874 2.3509619e-38
0.74181205 -0.84573823 2.013113 2.3509619e-38
0.73592478 -0.84499091 2.0115316 2.3509621e-38
0.73396397 -0.84481961 2.0109711 2.3509621e-38
0.72224146 -0.84330118 2.0078351 2.3509621e-38
0.71283686 -0.84233934 2.0052078 2.3509621e-38
0.70202649 -0.84110457 2.002244 2.3509621e-38
0.69176292 -0.8398757 1.9994545 2.3509622e-38
0.68349451 -0.83822364 1.9974959 2.3509622e-38
0.67494434 -0.8371796 1.9951812 2.3509622e-38
0.66447401 -0.83600062 1.9923031 2.3509622e-38
0.65100157 -0.83452833 1.9885803 2.3509624e-38
0.64774352 -0.83460337 1.9874922 2.3509624e-38
0.64023292 -0.83370066 1.9854525 2.3509624e-38
0.63433969 -0.83296263 1.983865 2.3509624e-38
0.63103509 -0.83264631 1.9829322 2.3509625e-38
0.61947143 -0.83135545 1.9797488 2.3509625e-38
0.61253822 -0.83050573 1.9778731 2.3509625e-38
0.60341358 -0.82945544 1.9753751 2.3509625e-38
0.59529418 -0.82846832 1.9731749 2.3509626e-38
0.59419477 -0.82831347 1.9728862 2.3509626e-38
0.58828413 -0.82756889 1.971296 2.3509626e-38
0.58013803 -0.82660729 1.9690759 2.3509626e-38
0.57415891 -0.82582843 1.9674785 2.3509628e-38
0.56682384 -0.82495254 1.9654841 2.3509628e-38
0.56147867 -0.82416123 1.9640973 2.3509628e-38
0.5582881 -0.82395786 1.9631524 2.3509628e-38
0.55325794 -0.82345361 1.9617428 2.3509629e-38
0.5473904 -0.82271653 1.960163 2.3509629e-38
0.53953511 -0.82178849 1.9580228 2.3509629e-38
0.5276829 -0.81880683 1.9554827 2.3509629e-38
0.52049863 -0.81790304 1.9535495 2.3509629e-38
0.51269227 -0.81697524 1.9514248 2.3509631e-38
0.50282294 -0.81583953 1.9487226 2.3509631e-38
0.48947513 -0.81440187 1.9450251 2.3509631e-38
0.48291084 -0.81359482 1.9432504 2.3509631e-38
0.48094189 -0.81321013 1.9427803 2.3509632e-38
0.47584113 -0.81254542 1.9414173 2.3509632e-38
0.46715891 -0.81112963 1.9392219 2.3509632e-38
0.45515496 -0.80983835 1.9358959 2.3509632e-38
0.44563073 -0.80878091 1.9332715 2.3509633e-38
0.43941897 -0.80801731 1.931592 2.3509633e-38
0.43320411 -0.8072536 1.9299114 2.3509633e-38
0.42513955 -0.80631709 1.9277071 2.3509633e-38
0.4221848 -0.80583984 1.9269578 2.3509635e-38
0.41432258 -0.80492294 1.9248104 2.3509635e-38
0.40489885 -0.8038801 1.9222122 2.3509635e-38
0.39693621 -0.80295587 1.9200355 2.3509635e-38
0.38724908 -0.80189288 1.9173605 2.3509636e-38
0.38108301 -0.80113649 1.9156928 2.3509636e-38
0.37320241 -0.80022246 1.9135382 2.3509636e-38
0.36704832 -0.79946768 1.9118735 2.3509636e-38
0.35936931 -0.79857349 1.9097755 2.3509638e-38
0.35322517 -0.79782021 1.9081134 2.3509638e-38
0.34544086 -0.7969178 1.905985 2.3509638e-38
0.33783662 -0.79603267 1.9039074 2.3509638e-38
0.33171648 -0.7952826 1.9022516 2.3509638e-38
0.32415435 -0.79440248 1.9001855 2.3509639e-38
0.31804299 -0.79365373 1.8985318 2.3509639e-38
0.31192771 -0.79290479 1.8968773 2.3509639e-38
0.30580857 -0.79215562 1.8952215 2.3509639e-38
0.29203594 -0.79075915 1.8913685 2.350964e-38
0.28595939 -0.79001576 1.8897239 2.350964e-38
0.2798793 -0.78927213 1.8880783 2.350964e-38
0.27600968 -0.78879184 1.8870342 2.350964e-38
0.2686159 -0.78793275 1.8850133 2.3509642e-38
0.26124954 -0.78707677 1.8829999 2.3509642e-38
0.255191 -0.78633624 1.8813598 2.3509642e-38
0.24469244 -0.78522611 1.8784429 2.3509642e-38
0.23866042 -0.78448921 1.8768098 2.3509643e-38
0.2326245 -0.78375202 1.8751757 2.3509643e-38
0.22658502 -0.78301477 1.8735406 2.3509643e-38
0.21933602 -0.78217334 1.8715589 2.3509643e-38
0.20943674 -0.78112131 1.8688107 2.3509645e-38
0.20566988 -0.78065467 1.8677936 2.3509645e-38
0.19850363 -0.77982342 1.8658345 2.3509645e-38
0.19147733 -0.77900469 1.8639151 2.3509645e-38
0.18275855 -0.77805895 1.8615028 2.3509646e-38
0.1757814 -0.77724648 1.8595966 2.3509646e-38
0.16982061 -0.77651989 1.8579824 2.3509646e-38
0.16385596 -0.77579302 1.8563669 2.3509646e-38
0.15681015 -0.77497637 1.8544403 2.3509647e-38
0.15311584 -0.77451932 1.8534427 2.3509647e-38
0.14715829 -0.77379364 1.8518289 2.3509647e-38
0.14119689 -0.77306771 1.8502141 2.3509647e-38
0.13523155 -0.77234149 1.8485982 2.3509647e-38
0.12744494 -0.77146727 1.8464568 2.3509649e-38
0.11548109 -0.77028507 1.8430961 2.3509649e-38
0.11184676 -0.76983619 1.8421143 2.3509649e-38
0.10594513 -0.76911855 1.8405154 2.3509649e-38
0.10003967 -0.76840037 1.8389153 2.350965e-38
0.093374804 -0.76762211 1.8370955 2.350965e-38
0.08663363 -0.76683837 1.8352532 2.350965e-38
0.083029486 -0.76639372 1.8342794 2.350965e-38
0.074689217 -0.76549959 1.8319672 2.3509652e-38
0.066385016 -0.76461029 1.8296646 2.3509652e-38
0.058644913 -0.76346624 1.8276559 2.3509652e-38
0.054374363 -0.76297224 1.8264877 2.3509652e-38
0.048485305 -0.76225704 1.8248914 2.3509653e-38
0.042591985 -0.7615416 1.8232942 2.3509653e-38
0.036694735 -0.76082581 1.8216958 2.3509653e-38
0.030065637 -0.76005566 1.8198839 2.3509653e-38
0.02650786 -0.75961769 1.8189223 2.3509654e-38
0.019985449 -0.75885671 1.8171411 2.3509654e-38
0.014104262 -0.7578882 1.8156579 2.3509654e-38
0.0031228662 -0.75727367 1.8123682 2.3509654e-38
-0.010939043 -0.75596738 1.808382 2.3509656e-38
-0.019793291 -0.75505823 1.80591 2.3509656e-38
-0.028721655 -0.75410742 1.803432 2.3509656e-38
-0.032711633 -0.75364709 1.8023401 2.3509656e-38
-0.040582608 -0.75279135 1.8001631 2.3509656e-38
-0.043659855 -0.7523365 1.7993646 2.3509657e-38
-0.052107882 -0.75143147 1.7970222 2.3509657e-38
-0.055350337 -0.75103867 1.7961429 2.3509657e-38
-0.060808908 -0.75038588 1.7946593 2.3509657e-38
-0.066271536 -0.74973255 1.7931743 2.3509659e-38
-0.070164971 -0.74928403 1.7921085 2.3509659e-38
-0.075623088 -0.74863136 1.7906247 2.3509659e-38
-0.083359703 -0.74779367 1.7884836 2.3509659e-38
-0.086578533 -0.74740458 1.7876105 2.350966e-38
-0.092568181 -0.74670738 1.7859738 2.350966e-38
-0.095783457 -0.74623615 1.7851377 2.350966e-38
-0.098612204 -0.74571276 1.7844495 2.350966e-38
-0.10556124 -0.74502468 1.7824981 2.3509661e-38
-0.10929677 -0.74442798 1.781548 2.3509661e-38
-0.11399197 -0.74356765 1.7804022 2.3509661e-38
-0.11809926 -0.74296039 1.7793361 2.3509661e-38
-0.12180021 -0.74249911 1.7783383 2.3509663e-38
-0.12549141 -0.74217945 1.7772818 2.3509663e-38
-0.12922567 -0.74174726 1.7762605 2.3509663e-38
-0.13572715 -0.74101251 1.7744746 2.3509663e-38
-0.1414663 -0.74031979 1.7729172 2.3509664e-38
-0.14720957 -0.73962682 1.7713586 2.3509664e-38
-0.1505612 -0.73921758 1.7704512 2.3509664e-38
-0.15630865 -0.73852444 1.7688915 2.3509664e-38
-0.15933695 -0.73813188 1.7680814 2.3509664e-38
-0.16591179 -0.71204692 1.7773211 2.3509666e-38
-0.1643136 -0.6923154 1.7864394 2.3509666e-38
-0.16484517 -0.68669409 1.7887174 2.3509666e-38
-0.16791119 -0.66589421 1.7967902 2.3509666e-38
-0.16491085 -0.65481997 1.8025891 2.3509667e-38
-0.16345045 -0.64047205 1.8093162 2.3509667e-38
-0.16061968 -0.62340569 1.817672 2.3509667e-38
-0.16111907 -0.6176126 1.8200353 2.3509667e-38
-0.16306366 -0.58515012 1.833555 2.3509668e-38
-0.1609273 -0.57348526 1.8393315 2.3509668e-38
-0.16120066 -0.56430876 1.8432429 2.3509668e-38
-0.16171052 -0.5583939 1.8456557 2.3509668e-38
-0.16307518 -0.55144352 1.8482431 2.350967e-38
-0.16086285 -0.53005266 1.8582836 2.350967e-38
-0.16175172 -0.52424151 1.8605285 2.350967e-38
-0.16643016 -0.48397127 1.8765656 2.350967e-38
-0.16778457 -0.47766906 1.8788738 2.3509671e-38
-0.15695402 -0.44880536 1.8949634 2.3509671e-38
-0.15744758 -0.44255051 1.8975298 2.3509671e-38
-0.15703759 -0.43474448 1.9010651 2.3509671e-38
-0.15755562 -0.42930734 1.9032674 2.3509673e-38
-0.15794231 -0.42628133 1.904461 2.3509673e-38
-0.1595642 -0.41860786 1.9072803 2.3509673e-38
-0.16017997 -0.41500312 1.9086519 2.3509673e-38
-0.16109332 -0.40906075 1.9109461 2.3509673e-38
-0.16005042 -0.39111227 1.9191073 2.3509674e-38
-0.16082825 -0.3850255 1.9215084 2.3509674e-38
-0.16180828 -0.37957761 1.9235655 2.3509674e-38
-0.16123576 -0.37220472 1.9269646 2.3509674e-38
-0.16083644 -0.36798617 1.9289328 2.3509675e-38
-0.16073668 -0.36056027 1.9322019 2.3509675e-38
-0.15735884 -0.3509919 1.9374667 2.3509675e-38
-0.15525579 -0.33550423 1.9448987 2.3509675e-38
-0.1557723 -0.32897991 1.9475751 2.3509677e-38
-0.15670802 -0.32290632 1.9499193 2.3509677e-38
-0.15644012 -0.31196186 1.9547766 2.3509677e-38
-0.15683569 -0.30886629 1.9559976 2.3509677e-38
-0.15689377 -0.29879197 1.9603701 2.3509678e-38
-0.1578356 -0.29268453 1.962727 2.3509678e-38
-0.15877737 -0.28657728 1.9650838 2.3509678e-38
-0.15900321 -0.28234509 1.9668554 2.3509678e-38
-0.15908407 -0.27231121 1.9712027 2.350968e-38
-0.15948191 -0.26919839 1.9724308 2.350968e-38
-0.15987973 -0.26608545 1.9736588 2.350968e-38
-0.16354744 -0.25070381 1.9791749 2.350968e-38
-0.15951839 -0.23606071 1.9868627 2.3509681e-38
-0.15806068 -0.21998802 1.9943405 2.3509681e-38
-0.15846558 -0.21681985 1.9955904 2.3509681e-38
-0.15887044 -0.21365163 1.9968402 2.3509681e-38
-0.15889291 -0.1993877 2.0030501 2.3509681e-38
-0.15955029 -0.19556338 2.004504 2.3509682e-38
-0.16051857 -0.18930325 2.0069191 2.3509682e-38
-0.16294476 -0.1732952 2.0131106 2.3509682e-38
-0.15764852 -0.15697052 2.0219419 2.3509682e-38
-0.15623523 -0.14718714 2.026664 2.3509684e-38
-0.156637 -0.12337014 2.0369151 2.3509684e-38
-0.16201963 -0.091512471 2.0490572 2.3509684e-38
-0.16372564 -0.072437234 2.056819 2.3509684e-38
-0.15891229 -0.055735849 2.0656581 2.3509685e-38
-0.15846547 -0.045917898 2.0700822 2.3509685e-38
-0.15779893 -0.041698262 2.0721374 2.3509685e-38
-0.15852839 -0.023676539 2.0797563 2.3509685e-38
-0.15909003 -0.01631199 2.0827844 2.3509687e-38
-0.15831777 -0.0064498587 2.0873332 2.3509687e-38
-0.15884537 0.0010578602 2.0904346 2.3509687e-38
-0.15919748 0.012994825 2.0955236 2.3509687e-38
-0.15962215 0.016317962 2.0968347 2.3509688e-38
-0.16004677 0.019641036 2.0981455 2.3509688e-38
-0.16264619 0.030434251 2.1020079 2.3509688e-38
-0.16366729 0.03701267 2.1045444 2.3509688e-38
-0.16012383 0.058375735 2.1150038 2.3509689e-38
-0.15809382 0.071106076 2.1212103 2.3509689e-38
-0.16477014 0.098496556 2.1309865 2.3509689e-38
-0.16282807 0.10840641 2.1359348 2.3509689e-38
-0.16391957 0.13884503 2.1488488 2.3509689e-38
-0.16313112 0.14982453 2.1538899 2.3509691e-38
-0.16004719 0.1824425 2.1691062 2.3509691e-38
-0.16076091 0.18658206 2.1706793 2.3509691e-38
-0.15997274 0.19322814 2.1738317 2.3509691e-38
-0.15843059 0.20602718 2.1799102 2.3509692e-38
-0.15770571 0.21300359 2.1831856 2.3509692e-38
-0.15768956 0.23790634 2.1940453 2.3509692e-38
-0.15841669 0.24212576 2.1956489 2.3509692e-38
-0.15563589 0.26290199 2.2056055 2.3509694e-38
-0.15563257 0.26665172 2.2072411 2.3509694e-38
-0.15455163 0.28342721 2.2149034 2.3509694e-38
-0.15460859 0.29672003 2.2206788 2.3509694e-38
-0.1539371 0.3038528 2.2240055 2.3509695e-38
-0.15374148 0.3088713 2.2262564 2.3509695e-38
-0.15396979 0.31461731 2.2286866 2.3509695e-38
-0.15362707 0.3284632 2.2348328 2.3509695e-38
-0.15441322 0.34927952 2.2436514 2.3509696e-38
-0.15550303 0.35628432 2.2463517 2.3509696e-38
-0.16220346 0.37552601 2.252568 2.3509696e-38
-0.15630797 0.40351471 2.2666774 2.3509696e-38
-0.15605333 0.41863468 2.2733502 2.3509698e-38
-0.15715937 0.42573991 2.276089 2.3509698e-38
-0.15826513 0.43284518 2.2788277 2.3509698e-38
-0.15795648 0.44345087 2.2835505 2.3509698e-38
-0.15841809 0.44706321 2.2849755 2.3509698e-38
-0.15887979 0.4506754 2.2864006 2.3509699e-38
-0.15934132 0.45428768 2.2878253 2.3509699e-38
-0.16019431 0.48206553 2.2996566 2.3509699e-38
-0.15933605 0.49560273 2.3058352 2.3509699e-38
-0.15891597 0.50683522 2.3108673 2.3509701e-38
-0.15938389 0.51049638 2.3123116 2.3509701e-38
-0.15985174 0.51415759 2.3137558 2.3509701e-38
-0.15987399 0.5325591 2.3217695 2.3509701e-38
-0.15749969 0.55298483 2.3314414 2.3509702e-38
-0.15811855 0.56212699 2.3352256 2.3509702e-38
-0.15835762 0.58339959 2.3444204 2.3509702e-38
-0.15711887 0.60682613 2.3550329 2.3509702e-38
-0.15826038 0.61414313 2.3578525 2.3509703e-38
-0.15939711 0.6231088 2.3613923 2.3509703e-38
-0.16341491 0.63575923 2.3656042 2.3509703e-38
-0.16458306 0.64065289 2.3673589 2.3509703e-38
-0.15690559 0.65940714 2.3780208 2.3509705e-38
-0.16457199 0.70351827 2.3947642 2.3509705e-38
-0.16581352 0.71098417 2.3976159 2.3509705e-38
-0.16282797 0.74908745 2.4151917 2.3509705e-38
-0.16335689 0.75290251 2.4166832 2.3509706e-38
-0.1631372 0.75565296 2.417953 2.3509706e-38
-0.16139609 0.76767373 2.4237568 2.3509706e-38
-0.19786596 0.82831806 2.4383752 2.3509706e-38
-0.21205235 0.83149189 2.435163 2.3509706e-38
-0.22065316 0.83185428 2.4325345 2.3509708e-38
-0.24614069 0.82255518 2.4202242 2.3509708e-38
-0.25090331 0.82088757 2.4179549 2.3509708e-38
-0.26325995 0.82411128 2.4153569 2.3509708e-38
-0.26770356 0.82520539 2.4143941 2.3509709e-38
-0.30254209 0.83409739 2.4069839 2.3509709e-38
-0.30662978 0.83379787 2.405529 2.3509709e-38
-0.3107107 0.83428204 2.404418 2.3509709e-38
-0.33976084 0.84146094 2.3981361 2.350971e-38
-0.34250766 0.84167516 2.3973396 2.350971e-38
-0.36237124 0.84031457 2.3903115 2.350971e-38
-0.36642298 0.8407954 2.3892081 2.350971e-38
-0.37452692 0.841757 2.3870022 2.3509712e-38
-0.37857893 0.84223771 2.3858993 2.3509712e-38
-0.3810702 0.84294528 2.3854005 2.3509712e-38
-0.39356464 0.8481167 2.3836071 2.3509712e-38
-0.44746116 0.85041147 2.3671467 2.3509713e-38
-0.46108362 0.84875983 2.3620141 2.3509713e-38
-0.46510831 0.84923744 2.3609183 2.3509713e-38
-0.46913293 0.84971493 2.3598228 2.3509713e-38
-0.47315767 0.85019249 2.3587272 2.3509715e-38
-0.49993736 0.86096948 2.3547487 2.3509715e-38
-0.52606058 0.85687053 2.3444991 2.3509715e-38
-0.5434826 0.85873407 2.3396673 2.3509715e-38
-0.54736686 0.85919964 2.3386121 2.3509715e-38
-0.55125093 0.8596651 2.3375566 2.3509716e-38
-0.55513507 0.86013055 2.3365014 2.3509716e-38
-0.55901921 0.86059606 2.3354461 2.3509716e-38
-0.56290323 0.86106163 2.3343906 2.3509716e-38
-0.58449811 0.86746156 2.3301845 2.3509717e-38
-0.61340088 0.87241656 2.3229809 2.3509717e-38
-0.64424396 0.86709058 2.3106678 2.3509717e-38
-0.67329895 0.87623626 2.3052413 2.3509717e-38
-0.69178331 0.87321413 2.2979357 2.3509719e-38
-0.69567358 0.87367564 2.2968769 2.3509719e-38
-0.73103571 0.88104814 2.2886345 2.3509719e-38
-0.75112814 0.88546538 2.2840507 2.3509719e-38
-0.76981789 0.89115673 2.2804766 2.350972e-38
-0.80309266 0.88718116 2.2679644 2.350972e-38
-0.82491529 0.88348651 2.2592843 2.350972e-38
-0.8596642 0.89010119 2.2509103 2.350972e-38
-0.88307214 0.89756227 2.2465792 2.3509722e-38
-0.93472791 0.8903923 2.2267196 2.3509722e-38
-0.93980891 0.88705814 2.2236204 2.3509722e-38
-0.94408017 0.88879603 2.2229939 2.3509722e-38
-0.95385873 0.89538878 2.2226999 2.3509723e-38
-0.95676988 0.89722586 2.2225575 2.3509723e-38
-0.96701586 0.90297073 2.2217422 2.3509723e-38
-0.99566722 0.91610086 2.2181835 2.3509723e-38
-1.055729 0.88821208 2.1865702 2.3509723e-38
-1.0486268 0.85106426 2.1726792 2.3509724e-38
-1.0430554 0.8315022 2.1659575 2.3509724e-38
-1.0453534 0.80345279 2.152987 2.3509724e-38
-1.0380645 0.78428662 2.1469939 2.3509724e-38
-1.0399528 0.75571537 2.133929 2.3509726e-38
-1.0359238 0.71789449 2.1187489 2.3509726e-38
-1.0371908 0.71224076 2.1158743 2.3509726e-38
-1.0371033 0.69304776 2.1075368 2.3509726e-38
-1.0348959 0.67779887 2.1016052 2.3509727e-38
-1.0392238 0.65275717 2.0892885 2.3509727e-38
-1.038321 0.64338082 2.0854936 2.3509727e-38
-1.0366329 0.62343121 2.0773451 2.3509727e-38
-1.0342788 0.61111772 2.0727408 2.3509729e-38
-1.0347093 0.57746959 2.0579348 2.3509729e-38
-1.0325038 0.57081991 2.0557508 2.3509729e-38
-1.0361863 0.55269784 2.046659 2.3509729e-38
-1.0340489 0.5379132 2.0409071 2.350973e-38
-1.0328152 0.5321061 2.0387757 2.350973e-38
-1.0321988 0.52517718 2.035955 2.350973e-38
-1.0256974 0.50154597 2.0277612 2.350973e-38
-1.0296049 0.47997841 2.0170946 2.3509731e-38
-1.0292958 0.46729302 2.0116653 2.3509731e-38
-1.0288852 0.45002466 2.0042713 2.3509731e-38
-1.0293903 0.44066802 2.0000296 2.3509731e-38
-1.0309864 0.43444949 1.9968019 2.3509731e-38
-1.0289658 0.4035269 1.9839783 2.3509733e-38
-1.023524 0.38712651 1.9785925 2.3509733e-38
-1.0283859 0.37950936 1.9736973 2.3509733e-38
-1.0334331 0.36173365 1.9643145 2.3509733e-38
-1.03413 0.32034254 1.9460473 2.3509734e-38
-1.0328791 0.31276849 1.9431514 2.3509734e-38
-1.032304 0.29880717 1.9372523 2.3509734e-38
-1.0336887 0.27378505 1.9258971 2.3509734e-38
-1.0334662 0.26418179 1.9217832 2.3509736e-38
-1.0354993 0.24273781 1.9117779 2.3509736e-38
-1.0279151 0.20967424 1.8998232 2.3509736e-38
-1.0281776 0.20488127 1.8976489 2.3509736e-38
-1.0271 0.19222014 1.8924795 2.3509737e-38
-1.0402434 0.16413561 1.8759803 2.3509737e-38
-1.0353845 0.12432429 1.8602016 2.3509737e-38
-1.0324786 0.11380236 1.8565567 2.3509737e-38
-1.0341121 0.091998205 1.8465236 2.3509738e-38
-1.0372722 0.079214349 1.8399277 2.3509738e-38
-1.040229 0.060190327 1.8306779 2.3509738e-38
-1.0407356 0.037105843 1.8204517 2.3509738e-38
-1.0345577 0.020348072 1.8151487 2.350974e-38
-1.0320834 0.013375105 1.8129109 2.350974e-38
-1.0324931 0.0058275983 1.8094885 2.350974e-38
-1.0322431 0.0014806036 1.8076748 2.350974e-38
-1.0338078 -0.016510472 1.7993261 2.350974e-38
-1.0327514 -0.023161067 1.7967694 2.3509741e-38
-1.0291586 -0.034735158 1.7928886 2.3509741e-38
-1.0239451 -0.053887054 1.7862296 2.3509741e-38
-1.0864524 -0.061311863 1.7627436 2.3509741e-38
-1.0943148 -0.11027218 1.738856 2.3509743e-38
-1.0945548 -0.11720779 1.7357552 2.3509743e-38
-1.0956298 -0.12313132 1.7328248 2.3509743e-38
-1.0973543 -0.13796015 1.7258029 2.3509743e-38
-1.0984262 -0.14387375 1.722878 2.3509744e-38
-1.1009654 -0.15249364 1.7182983 2.3509744e-38
-1.1020308 -0.1583738 1.71539 2.3509744e-38
-1.1021951 -0.17218326 1.7093177 2.3509744e-38
-1.1032578 -0.17803888 1.7064211 2.3509745e-38
-1.1043206 -0.18389413 1.7035245 2.3509745e-38
-1.1056925 -0.20322701 1.6946535 2.3509745e-38
-1.1217649 -0.24676295 1.6704706 2.3509745e-38
-1.1177393 -0.25794405 1.666901 2.3509747e-38
-1.1187862 -0.26371229 1.6640476 2.3509747e-38
-1.1199772 -0.2759901 1.6583102 2.3509747e-38
-1.1191158 -0.28326017 1.6554204 2.3509747e-38
-1.1201572 -0.28899667 1.6525826 2.3509748e-38
-1.121199 -0.29473308 1.6497449 2.3509748e-38
-1.1222408 -0.30046928 1.646907 2.3509748e-38
-1.1321653 -0.33406705 1.6290475 2.3509748e-38
-1.1333959 -0.36612397 1.6146761 2.3509748e-38
-1.1345005 -0.37798342 1.609149 2.350975e-38
-1.1355217 -0.38362044 1.6063612 2.350975e-38
-1.1365427 -0.38925722 1.6035733 2.350975e-38
-1.1375639 -0.39489421 1.6007855 2.350975e-38
-1.1429026 -0.41242793 1.5914136 2.3509751e-38
-1.1429052 -0.41854465 1.5887465 2.3509751e-38
-1.1433558 -0.43254203 1.5824996 2.3509751e-38
-1.1542113 -0.45393437 1.5696585 2.3509751e-38
-1.1571147 -0.4901742 1.5529218 2.3509752e-38
-1.1584009 -0.50850248 1.5445164 2.3509752e-38
-1.1585348 -0.52592611 1.5368783 2.3509752e-38
-1.1640861 -0.54431421 1.527065 2.3509752e-38
-1.1650729 -0.54979044 1.5243587 2.3509754e-38
-1.1660596 -0.55526668 1.521652 2.3509754e-38
-1.1670464 -0.56074291 1.5189455 2.3509754e-38
-1.1744164 -0.56558794 1.5144458 2.3509754e-38
-1.1808839 -0.57064658 1.5101457 2.3509755e-38
-1.1873472 -0.57570404 1.5058475 2.3509755e-38
-1.2013239 -0.57993388 1.499476 2.3509755e-38
-1.2093459 -0.58490294 1.4947112 2.3509755e-38
-1.2256287 -0.58881336 1.4877319 2.3509757e-38
-1.2365248 -0.5936448 1.4820961 2.3509757e-38
-1.2420241 -0.59321457 1.4805019 2.3509757e-38
-1.2487274 -0.5925892 1.4786031 2.3509757e-38
-1.2554539 -0.59196162 1.4766976 2.3509757e-38
-1.263751 -0.59124041 1.474324 2.3509758e-38
-1.2692748 -0.59080881 1.4727225 2.3509758e-38
-1.277058 -0.59004098 1.4705359 2.3509758e-38
-1.2825848 -0.58961028 1.4689332 2.3509758e-38
-1.2989867 -0.58808887 1.4642829 2.3509759e-38
-1.3082041 -0.5871073 1.4617245 2.3509759e-38
-1.315147 -0.58646184 1.4597567 2.3509759e-38
-1.3207245 -0.5860287 1.4581386 2.3509759e-38
-1.3288844 -0.58522123 1.4558471 2.3509761e-38
-1.334465 -0.58478898 1.4542277 2.3509761e-38
-1.3449044 -0.58377343 1.4512885 2.3509761e-38
-1.3543673 -0.58277434 1.4486582 2.3509761e-38
-1.3616498 -0.58208936 1.4465977 2.3509762e-38
-1.3672932 -0.5816527 1.4449598 2.3509762e-38
-1.3729314 -0.58121681 1.4433231 2.3509762e-38
-1.3785639 -0.58078182 1.4416882 2.3509762e-38
-1.3841909 -0.58034754 1.4400545 2.3509764e-38
-1.3898126 -0.57991391 1.4384221 2.3509764e-38
-1.3970126 -0.57924688 1.4363805 2.3509764e-38
-1.4073029 -0.57830608 1.4334569 2.3509764e-38
-1.4129434 -0.57787263 1.4318186 2.3509765e-38
-1.4204124 -0.5771721 1.4297043 2.3509765e-38
-1.4279138 -0.57646877 1.4275808 2.3509765e-38
-1.4354475 -0.57576221 1.4254481 2.3509765e-38
-1.4430138 -0.57505298 1.423306 2.3509767e-38
-1.4732125 -0.57243979 1.414662 2.3509767e-38
-1.4857608 -0.5710507 1.4112024 2.3509767e-38
-1.4915034 -0.57061183 1.4095333 2.3509767e-38
-1.5003616 -0.56975305 1.4070377 2.3509767e-38
-1.5061059 -0.56931531 1.4053679 2.3509768e-38
-1.5139301 -0.56858611 1.4031508 2.3509768e-38
-1.5196831 -0.5681482 1.4014782 2.3509768e-38
-1.5254307 -0.5677107 1.3998065 2.3509768e-38
-1.5311729 -0.56727421 1.3981369 2.3509769e-38
-1.5392931 -0.56650841 1.39584 2.3509769e-38
-1.5479836 -0.56568277 1.3933845 2.3509769e-38
-1.5583794 -0.5646075 1.3904854 2.3509769e-38
-1.5641761 -0.56416744 1.3887993 2.3509771e-38
-1.5747182 -0.56324255 1.3857872 2.3509771e-38
-1.5805345 -0.56280154 1.3840952 2.3509771e-38
-1.5833664 -0.56275088 1.3831999 2.3509771e-38
-1.6009865 -0.56092411 1.3782879 2.3509772e-38
-1.628423 -0.55224305 1.3731835 2.3509772e-38
-1.6342913 -0.55180055 1.3714753 2.3509772e-38
-1.6461747 -0.55053574 1.3681768 2.3509772e-38
-1.6493398 -0.55047125 1.3671798 2.3509774e-38
-1.6579528 -0.54964978 1.3647475 2.3509774e-38
-1.6666093 -0.54882437 1.362303 2.3509774e-38
-1.6725096 -0.54838091 1.3605847 2.3509774e-38
-1.6845679 -0.5471046 1.3572346 2.3509775e-38
-1.6904929 -0.54666018 1.3555089 2.3509775e-38
-1.6964129 -0.54621643 1.3537846 2.3509775e-38
-1.7088771 -0.54489434 1.3503228 2.3509775e-38
-1.7148224 -0.54444951 1.3485907 2.3509775e-38
-1.7271146 -0.54315734 1.3451718 2.3509776e-38
-1.7363254 -0.54227239 1.3425735 2.3509776e-38
-1.7460207 -0.5413394 1.3398395 2.3509776e-38
-1.7553124 -0.54044819 1.3372177 2.3509776e-38
-1.7675828 -0.53934574 1.3337229 2.3509778e-38
-1.8118777 -0.53539497 1.3210956 2.3509778e-38
-1.8413237 -0.53259075 1.3127787 2.3509778e-38
-1.8513631 -0.53162265 1.3099482 2.3509778e-38
-1.8535764 -0.53168201 1.3092052 2.3509779e-38
-1.8596958 -0.53122884 1.3074205 2.3509779e-38
-1.8733351 -0.52980655 1.3036216 2.3509779e-38
-1.8835189 -0.52882689 1.3007495 2.3509779e-38
-1.889693 -0.52837032 1.2989485 2.3509781e-38
-1.9041092 -0.52685809 1.2949374 2.3509781e-38
-1.9103141 -0.52639991 1.2931271 2.3509781e-38
-1.9165138 -0.52594262 1.2913181 2.3509781e-38
-1.9227091 -0.52548605 1.28951 2.3509782e-38
-1.9376855 -0.52390206 1.2853485 2.3509782e-38
-1.9485295 -0.5228526 1.282293 2.3509782e-38
-1.9548137 -0.52238888 1.2804593 2.3509782e-38
-1.9649595 -0.52144295 1.2775848 2.3509783e-38
-1.9759367 -0.52038282 1.2744906 2.3509783e-38
-1.9861225 -0.51943606 1.2716037 2.3509783e-38
-1.9924335 -0.51897264 1.2697613 2.3509783e-38
-1.99874 -0.51850986 1.2679197 2.3509783e-38
-2.0147221 -0.5168255 1.2634765 2.3509785e-38
-2.0263159 -0.51569927 1.2602112 2.3509785e-38
-2.0327206 -0.51522881 1.2583418 2.3509785e-38
-2.0391207 -0.51475888 1.2564731 2.3509785e-38
-2.0455167 -0.51428986 1.2546057 2.3509786e-38
-2.0646424 -0.5123713 1.249246 2.3509786e-38
-2.0877976 -0.51048672 1.242566 2.3509786e-38
-2.1039796 -0.50881618 1.2380519 2.3509786e-38
-2.1160176 -0.50765455 1.2346585 2.3509788e-38
-2.1281316 -0.50648624 1.2312431 2.3509788e-38
-2.1346478 -0.50601137 1.2293391 2.3509788e-38
-2.1453907 -0.50502443 1.2262892 2.3509788e-38
-2.151901 -0.50455159 1.2243863 2.3509789e-38
-2.1645889 -0.50332123 1.2208121 2.3509789e-38
-2.1711345 -0.50284594 1.2188989 2.3509789e-38
-2.1839452 -0.50160527 1.2152895 2.3509789e-38
-2.1978014 -0.5003674 1.21134 2.350979e-38
-2.2107399 -0.49911645 1.2076941 2.350979e-38
-2.2308426 -0.50015384 1.2007293 2.350979e-38
-2.2691247 -0.49629763 1.1900082 2.350979e-38
-2.2866404 -0.49470946 1.1850262 2.3509792e-38
-2.3148496 -0.4920696 1.1770383 2.3509792e-38
-2.3216369 -0.49156806 1.175058 2.3509792e-38
-2.3329439 -0.49055097 1.1718385 2.3509792e-38
-2.3397229 -0.49005166 1.16986 2.3509792e-38
-2.3543243 -0.48861998 1.1657536 2.3509793e-38
-2.3783729 -0.48647279 1.1588988 2.3509793e-38
-2.3852232 -0.48596904 1.1568992 2.3509793e-38
-2.3920698 -0.48546597 1.1549004 2.3509793e-38
-2.414397 -0.48324585 1.1486351 2.3509795e-38
-2.4253082 -0.48248482 1.1454321 2.3509795e-38
-2.4412715 -0.47078267 1.1453612 2.3509795e-38
-2.4389777 -0.46339604 1.1493239 2.3509795e-38
-2.4373515 -0.4478322 1.1566347 2.3509796e-38
-2.4402668 -0.42352298 1.1662859 2.3509796e-38
-2.4423885 -0.41668189 1.1685805 2.3509796e-38
-2.5351157 -0.41503209 1.1392601 2.3509796e-38
-2.452009 -0.38366535 1.1798551 2.3509797e-38
-2.4435081 -0.36956531 1.1887547 2.3509797e-38
-2.4411771 -0.36206105 1.192781 2.3509797e-38
-2.4388447 -0.35380024 1.1971372 2.3509797e-38
-2.4365072 -0.34627312 1.2011752 2.3509799e-38
-2.4304404 -0.31791532 1.215501 2.3509799e-38
-2.4295781 -0.31019491 1.2191455 2.3509799e-38
-2.4287345 -0.30245999 1.2227902 2.3509799e-38
-2.4374306 -0.26979399 1.2342113 2.35098e-38
-2.4485466 -0.24131984 1.2430214 2.35098e-38
-2.4399381 -0.21840289 1.2557993 2.35098e-38
-2.4370608 -0.20376186 1.2631129 2.35098e-38
-2.4376178 -0.18720317 1.2701501 2.35098e-38
-2.4327548 -0.17006548 1.2791954 2.3509802e-38
-2.4312348 -0.14687444 1.2897961 2.3509802e-38
-2.4336679 -0.11766147 1.301741 2.3509802e-38
-2.4370766 -0.090555817 1.3124514 2.3509802e-38
-2.4428172 -0.054375075 1.326362 2.3509803e-38
-2.4460716 -0.035654273 1.3334677 2.3509803e-38
-2.4457817 -0.015230924 1.3424636 2.3509803e-38
-2.488524 0.03664659 1.3512292 2.3509803e-38
-2.5447822 -0.014969362 1.3105056 2.3509804e-38
-2.5471032 -0.035265051 1.3009073 2.3509804e-38
-2.5495102 -0.06118387 1.2888302 2.3509804e-38
-2.5483952 -0.072246283 1.2843697 2.3509804e-38
-2.548883 -0.087391339 1.2776102 2.3509806e-38
-2.5410299 -0.13468789 1.2595389 2.3509806e-38
-2.5545399 -0.16588403 1.2415646 2.3509806e-38
-2.5693083 -0.18900895 1.2267008 2.3509806e-38
-2.5714531 -0.19689821 1.2225673 2.3509807e-38
-2.5735972 -0.20478749 1.2184339 2.3509807e-38
-2.5747476 -0.2216236 1.2107228 2.3509807e-38
-2.5519631 -0.26089409 1.200987 2.3509807e-38
-2.5488245 -0.26517543 1.2001377 2.3509809e-38
-2.5391357 -0.28402615 1.1950599 2.3509809e-38
-2.5360198 -0.30920175 1.1850958 2.3509809e-38
-2.5384455 -0.31696928 1.1809243 2.3509809e-38
-2.5518329 -0.32361424 1.1736909 2.3509809e-38
-2.567745 -0.3456521 1.1589304 2.350981e-38
-1.1557633 0.93625116 2.1751022 2.350981e-38
-1.1563337 0.9153735 2.1658173 2.350981e-38
-1.1465559 0.89101273 2.1583664 2.350981e-38
-1.1442162 0.87297219 2.1512611 2.3509811e-38
-1.125963 0.82668895 2.1370008 2.3509811e-38
-1.1177148 0.8028518 2.1292827 2.3509811e-38
-1.1215317 0.77083147 2.1140895 2.3509811e-38
-1.1291702 0.74189764 2.0990036 2.3509813e-38
-1.1202099 0.7188403 2.091856 2.3509813e-38
-1.1117531 0.69430071 2.0838995 2.3509813e-38
-1.1121649 0.68211645 2.0784554 2.3509813e-38
-1.1152259 0.66711885 2.0709269 2.3509814e-38
-1.1159314 0.66341949 2.0690856 2.3509814e-38
-1.1161779 0.65753907 2.066443 2.3509814e-38
-1.1149334 0.6244306 2.0524147 2.3509814e-38
-1.1154175 0.574063 2.030304 2.3509816e-38
-1.1149449 0.56826371 2.0279293 2.3509816e-38
-1.1087927 0.55283868 2.0231988 2.3509816e-38
-1.1077031 0.52402031 2.0109909 2.3509816e-38
-1.1174514 0.48781872 1.9920534 2.3509817e-38
-1.1384103 0.46863413 1.9769014 2.3509817e-38
-1.1637018 0.43631643 1.9546216 2.3509817e-38
-1.1756583 0.43306902 1.9493326 2.3509817e-38
-1.2024997 0.43696055 1.9423332 2.3509817e-38
-1.2104702 0.43998009 1.9410675 2.3509818e-38
-1.2208556 0.4382678 1.9369568 2.3509818e-38
-1.2317739 0.43747213 1.9330729 2.3509818e-38
-1.2428863 0.43830121 1.9298342 2.3509818e-38
-1.2496043 0.43881074 1.9278802 2.350982e-38
-1.268625 0.44041827 1.9224186 2.350982e-38
-1.2805398 0.44401738 1.9201276 2.350982e-38
-1.3138696 0.46704125 1.9193656 2.350982e-38
-1.326776 0.47379512 1.9181285 2.3509821e-38
-1.3343951 0.47152424 1.9146702 2.3509821e-38
-1.3602844 0.47222832 1.9065902 2.3509821e-38
-1.3999348 0.46942973 1.8925254 2.3509821e-38
-1.4353563 0.47862238 1.8850571 2.3509823e-38
-1.4658844 0.48107147 1.8762344 2.3509823e-38
-1.4951208 0.4804199 1.8664795 2.3509823e-38
-1.52323 0.48210067 1.8581059 2.3509823e-38
-1.5483134 0.49267474 1.8545887 2.3509824e-38
-1.5625458 0.49372548 1.8504362 2.3509824e-38
-1.5842401 0.49485785 1.8439015 2.3509824e-38
-1.6214858 0.50274247 1.8352724 2.3509824e-38
-1.6479193 0.50085562 1.8258864 2.3509825e-38
-1.67908 0.49202594 1.8119432 2.3509825e-38
-1.7042416 0.47144601 1.7948214 2.3509825e-38
-1.7067287 0.4559902 1.787279 2.3509825e-38
-1.7068641 0.41106737 1.7676544 2.3509825e-38
-1.699187 0.3884111 1.7602661 2.3509827e-38
-1.7010051 0.3662158 1.7500027 2.3509827e-38
-1.7069103 0.33689886 1.7353113 2.3509827e-38
-1.6960853 0.29061586 1.7186445 2.3509827e-38
-1.6980711 0.27955943 1.713182 2.3509828e-38
-1.7241457 0.25278494 1.6930647 2.3509828e-38
-1.7292811 0.24869603 1.6896186 2.3509828e-38
-1.7656677 0.24170201 1.6747824 2.3509828e-38
-1.7913868 0.22145367 1.6576247 2.350983e-38
-1.8264512 0.2224739 1.6467102 2.350983e-38
-1.8806989 0.23452368 1.6343883 2.350983e-38
-1.8775829 0.19817866 1.619556 2.350983e-38
-1.8756326 0.17762841 1.6112305 2.3509831e-38
-1.8626235 0.15629894 1.6061479 2.3509831e-38
-1.8602718 0.14869493 1.6035954 2.3509831e-38
-1.8006696 0.12324911 1.6118127 2.3509831e-38
-1.7928414 0.093546271 1.601402 2.3509832e-38
-1.7751403 0.089861192 1.6055303 2.3509832e-38
-1.7367862 0.054168455 1.6023977 2.3509832e-38
-1.7430329 0.0010032784 1.5772007 2.3509832e-38
-1.7716824 -0.037854481 1.5509825 2.3509834e-38
-1.7941985 -0.039397076 1.5430158 2.3509834e-38
-1.8274069 -0.03473191 1.534291 2.3509834e-38
-1.8571497 -0.035956614 1.5241218 2.3509834e-38
-1.9123515 -0.023998652 1.5114509 2.3509834e-38
-1.9150965 -0.02556102 1.5098807 2.3509835e-38
-1.9296771 -0.030109957 1.5031745 2.3509835e-38
-1.9650989 -0.027300643 1.4929237 2.3509835e-38
-1.9921328 -0.011826184 1.4909106 2.3509835e-38
-2.0096438 -0.015441913 1.483662 2.3509837e-38
-2.0224428 -0.017323297 1.4786955 2.3509837e-38
-2.0566077 -0.0084326863 1.4715028 2.3509837e-38
-2.0708592 -0.01459988 1.4641978 2.3509837e-38
-2.0805278 -0.020614987 1.4584438 2.3509838e-38
-2.1168518 -0.021436891 1.446318 2.3509838e-38
-2.1256115 -0.019888498 1.4441553 2.3509838e-38
-2.1645534 -0.0011736993 1.4396969 2.3509838e-38
-2.1919043 -0.00045368448 1.4311503 2.3509839e-38
-2.2107134 0.0051436611 1.4274966 2.3509839e-38
-2.2602155 0.027516639 1.4212117 2.3509839e-38
-2.2923231 0.04381261 1.4179133 2.3509839e-38
-2.3121603 0.067431353 1.4217815 2.3509841e-38
-2.3163424 0.082591087 1.4270345 2.3509841e-38
-2.3212218 0.12003178 1.4417733 2.3509841e-38
-2.2657697 0.17549229 1.4839113 2.3509841e-38
-2.2345092 0.18026572 1.4961189 2.3509842e-38
-2.2069135 0.18187271 1.5057595 2.3509842e-38
-2.1754808 0.17847131 1.5144596 2.3509842e-38
-2.1605179 0.17187078 1.51643 2.3509842e-38
-2.1405666 0.17158163 1.5227673 2.3509842e-38
-2.0988526 0.16827974 1.5348417 2.3509844e-38
-2.080404 0.16914895 1.5411971 2.3509844e-38
-2.0334589 0.16675875 1.5553634 2.3509844e-38
-2.0190365 0.16407895 1.5588677 2.3509844e-38
-2.013983 0.18385565 1.5691248 2.3509845e-38
-2.0252748 0.21987455 1.5811667 2.3509845e-38
-2.0380232 0.24178761 1.586588 2.3509845e-38
-2.054924 0.24617051 1.5830233 2.3509845e-38
-2.0671449 0.25077444 1.5810709 2.3509846e-38
-2.087678 0.25739849 1.5773064 2.3509846e-38
-2.0998142 0.26140288 1.5751201 2.3509846e-38
-2.1324708 0.27397433 1.5700203 2.3509846e-38
-2.1550219 0.27948511 1.5651168 2.3509848e-38
-2.1756558 0.29517716 1.5652721 2.3509848e-38
-2.1930282 0.29815716 1.560943 2.3509848e-38
-2.250196 0.33152753 1.5569683 2.3509848e-38
-2.2553649 0.34189337 1.5598119 2.3509849e-38
-2.2663143 0.34539297 1.5577902 2.3509849e-38
-2.2978909 0.35094446 1.5499806 2.3509849e-38
-2.31552 0.35506257 1.5460645 2.3509849e-38
-2.3431456 0.36875615 1.5430837 2.3509851e-38
-2.3548336 0.38239655 1.5452429 2.3509851e-38
-2.3799241 0.40750855 1.5480601 2.3509851e-38
-2.4027126 0.41278812 1.5429786 2.3509851e-38
-2.4088078 0.41308439 1.5411333 2.3509851e-38
-2.456929 0.43227378 1.5339081 2.3509852e-38
-2.4496458 0.41482419 1.5286618 2.3509852e-38
-2.4440472 0.38093445 1.5157039 2.3509852e-38
-2.4393044 0.35486811 1.5058786 2.3509852e-38
-2.4452474 0.32963148 1.4929534 2.3509853e-38
-2.447371 0.31892717 1.4875998 2.3509853e-38
-2.4457893 0.29322422 1.4769089 2.3509853e-38
-2.4428389 0.27321661 1.4691439 2.3509853e-38
-2.4420161 0.25632435 1.4620475 2.3509855e-38
-2.4532194 0.22767225 1.4459294 2.3509855e-38
-2.4449706 0.18888167 1.4316939 2.3509855e-38
-2.4433472 0.1789555 1.4278933 2.3509855e-38
-2.4433305 0.16979226 1.4239047 2.3509856e-38
-2.4382694 0.1472037 1.4156984 2.3509856e-38
-2.4374809 0.13897076 1.4123652 2.3509856e-38
-2.4403682 0.11994915 1.4031389 2.3509856e-38
-2.4428949 0.11184863 1.3987895 2.3509858e-38
-2.4454212 0.10374811 1.3944404 2.3509858e-38
-2.4450395 0.076808169 1.3828216 2.3509858e-38
-2.4859948 0.044745523 1.3555785 2.3509858e-38
-2.5448496 0.10593804 1.3631841 2.3509859e-38
-2.5583093 0.14071304 1.3739815 2.3509859e-38
-2.5578876 0.14819045 1.3773772 2.3509859e-38
-2.556253 0.15829983 1.3823131 2.3509859e-38
-2.557909 0.16829914 1.3861352 2.3509859e-38
-2.5467374 0.20227832 1.4045649 2.350986e-38
-2.5481091 0.22228661 1.4128417 2.350986e-38
-2.5595262 0.2626707 1.4267453 2.350986e-38
-2.5719643 0.30412656 1.4407855 2.350986e-38
-2.5652931 0.34185997 1.4593937 2.3509862e-38
-2.5814407 0.36787036 1.4654999 2.3509862e-38
-2.5927546 0.40206277 1.4767382 2.3509862e-38
-2.6127334 0.41928381 1.4777721 2.3509862e-38
-2.6524026 0.42911813 1.4692074 2.3509863e-38
-2.6586268 0.42079189 1.4635619 2.3509863e-38
-2.6504314 0.39482361 1.454898 2.3509863e-38
-2.6525455 0.37716681 1.4465169 2.3509863e-38
-2.6562006 0.36269036 1.4390228 2.3509865e-38
-2.6563439 0.36026508 1.4379195 2.3509865e-38
-2.6583695 0.34884101 1.4322839 2.3509865e-38
-2.6597888 0.3424584 1.4290419 2.3509865e-38
-2.6625812 0.33357131 1.4242636 2.3509866e-38
-2.6653738 0.32468438 1.4194856 2.3509866e-38
-2.6666627 0.31223032 1.4136395 2.3509866e-38
-2.6685414 0.30341166 1.409187 2.3509866e-38
-2.6722252 0.29452407 1.4041198 2.3509867e-38
-2.6680074 0.27221394 1.3957617 2.3509867e-38
-2.6615458 0.23744041 1.3826981 2.3509867e-38
-2.6642947 0.2287122 1.3780032 2.3509867e-38
-2.665071 0.211596 1.3702912 2.3509867e-38
-2.7324867 0.18494987 1.3368371 2.3509869e-38
-2.7686822 0.19301853 1.3286281 2.3509869e-38
-2.8053005 0.19244704 1.3165162 2.3509869e-38
-2.8385818 0.18098341 1.3007377 2.3509869e-38
-2.8543789 0.12490226 1.2711757 2.350987e-38
-2.8613157 0.11614467 1.2651113 2.350987e-38
-2.8706021 0.10745027 1.2583131 2.350987e-38
-2.8814597 0.094414055 1.2491136 2.350987e-38
-2.8836207 0.067024477 1.2364752 2.3509872e-38
-2.8769271 0.054827712 1.2333274 2.3509872e-38
-2.8735521 0.042737525 1.2291509 2.3509872e-38
-2.8956654 -0.010372655 1.1988378 2.3509872e-38
-2.8772314 -0.054619446 1.1855235 2.3509873e-38
-2.8892345 -0.099776596 1.1619523 2.3509873e-38
-2.8737772 -0.11340665 1.1610188 2.3509873e-38
-2.8544159 -0.15474553 1.1492724 2.3509873e-38
-2.8544481 -0.17218313 1.1416614 2.3509874e-38
-2.8574231 -0.18253243 1.1361867 2.3509874e-38
-2.8601532 -0.19114445 1.1315484 2.3509874e-38
-2.8695967 -0.23646265 1.1087359 2.3509874e-38
-2.862175 -0.25537899 1.1028953 2.3509876e-38
-2.8580885 -0.26412374 1.1004075 2.3509876e-38
-2.8572469 -0.30940992 1.0809411 2.3509876e-38
