# .PCD v0.7 - Point Cloud Data file format
VERSION 0.7
FIELDS x y z rgb
SIZE 4 4 4 4
TYPE F F F F
COUNT 1 1 1 1
WIDTH 49
HEIGHT 1
VIEWPOINT 0 0 0 1 0 0 0
POINTS 49
DATA ascii
1.2955744 1.6449406 -1.5097272 2.3509528e-38
1.2665566 1.7147695 -1.7294596 2.3509535e-38
1.2542082 1.7180009 -1.7332164 2.3509542e-38
0.93075335 1.7767677 -1.7439294 2.3509549e-38
0.80040193 1.7882985 -1.7070651 2.3509556e-38
0.76805896 1.7949679 -1.7108237 2.3509565e-38
0.62041211 1.8872771 -1.9376276 2.3509572e-38
0.56578451 1.9145814 -1.9983325 2.3509579e-38
0.52068275 1.9286338 -2.0196786 2.3509586e-38
0.36021674 1.9647715 -2.0486591 2.3509593e-38
0.27892607 1.9886951 -2.0823734 2.3509601e-38
0.13099442 2.0172675 -2.0930183 2.3509608e-38
0.069086462 2.0325246 -2.1086555 2.3509615e-38
0.022274826 2.0466824 -2.1293626 2.3509622e-38
-0.0016341433 2.0521958 -2.1341174 2.3509629e-38
0.0093029579 2.0404358 -2.1006365 2.3509638e-38
0.019259173 2.0230751 -2.0476043 2.3509645e-38
0.023897406 2.0147479 -2.0220873 2.3509652e-38
0.029258542 1.9961724 -1.9622619 2.3509659e-38
0.0038129585 1.9682224 -1.8527198 2.3509666e-38
0.011531698 1.9583485 -1.8237559 2.3509674e-38
0.021883812 1.9485149 -1.7964624 2.3509681e-38
0.1039366 1.8951308 -1.663355 2.3509688e-38
0.10600034 1.8477242 -1.5039046 2.3509695e-38
0.14350583 1.8390355 -1.4963101 2.3509702e-38
0.22004947 1.821384 -1.4810851 2.350971e-38
0.28267121 1.8066283 -1.4675624 2.3509717e-38
0.33569068 1.7937238 -1.4547195 2.3509724e-38
0.40029275 1.7757187 -1.431339 2.3509731e-38
0.43522725 1.7645111 -1.4137108 2.3509738e-38
0.44903201 1.764264 -1.4209156 2.3509747e-38
0.48502713 1.7635288 -1.4393941 2.3509754e-38
0.68524981 1.7268569 -1.4317652 2.3509761e-38
0.72653574 1.7140559 -1.4124371 2.3509768e-38
0.79523534 1.6948394 -1.3873384 2.3509775e-38
0.89715677 1.6720459 -1.3694727 2.3509783e-38
0.94104379 1.6600825 -1.354498 2.350979e-38
0.9561944 1.65617 -1.3500661 2.3509797e-38
0.98729086 1.6477613 -1.3396868 2.3509804e-38
1.0249662 1.6385459 -1.3304058 2.3509811e-38
1.0394646 1.6349442 -1.3266467 2.350982e-38
1.1060514 1.6146657 -1.2967187 2.3509827e-38
1.1124798 1.6123992 -1.2927829 2.3509834e-38
1.1658311 1.5956627 -1.2671472 2.3509841e-38
1.1898645 1.590202 -1.2626427 2.3509848e-38
1.2115027 1.5873145 -1.2654636 2.3509856e-38
1.22559 1.5913404 -1.2873141 2.3509863e-38
1.2383358 1.5995576 -1.3225862 2.350987e-38
1.2689005 1.6166459 -1.3983017 2.3509877e-38
