# .PCD v0.7 - Point Cloud Data file format
VERSION 0.7
FIELDS x y z rgb
SIZE 4 4 4 4
TYPE F F F F
COUNT 1 1 1 1
WIDTH 334
HEIGHT 1
VIEWPOINT 0 0 0 1 0 0 0
POINTS 334
DATA ascii
-1.3037153 2.3743801 -1.1934398 2.3509528e-38
-1.2892842 2.3951595 -1.2388873 2.3509528e-38
-1.2707992 2.4023314 -1.2549698 2.350953e-38
-1.2485803 2.4124329 -1.2775102 2.3509531e-38
-1.236927 2.4035027 -1.2585034 2.3509532e-38
-1.2216339 2.3932335 -1.2367014 2.3509532e-38
-1.2181833 2.3912733 -1.2325556 2.3509534e-38
-1.1901726 2.3804822 -1.2099968 2.3509535e-38
-1.1630573 2.3759522 -1.2009778 2.3509537e-38
-1.1259468 2.3717706 -1.1930072 2.3509537e-38
-1.0747265 2.375144 -1.2018209 2.3509538e-38
-1.0613436 2.3812695 -1.2154864 2.3509539e-38
-1.0510533 2.3829727 -1.2194796 2.3509541e-38
-1.0236051 2.3853912 -1.2255255 2.3509541e-38
-1.0016551 2.3883924 -1.2326733 2.3509542e-38
-0.92654288 2.4039974 -1.2686917 2.3509544e-38
-0.92903519 2.4154654 -1.2934666 2.3509545e-38
-0.9379636 2.4232903 -1.3101588 2.3509545e-38
-0.9575932 2.4324391 -1.329405 2.3509547e-38
-0.97599298 2.4401605 -1.3455951 2.3509548e-38
-1.000811 2.4495282 -1.3651637 2.3509549e-38
-1.0095187 2.4570911 -1.3812945 2.3509551e-38
-1.0357957 2.4696095 -1.4076468 2.3509551e-38
-1.0458205 2.4723203 -1.4132267 2.3509552e-38
-1.0550228 2.4754429 -1.419722 2.3509554e-38
-1.065145 2.4870706 -1.4446188 2.3509555e-38
-1.0525595 2.4970522 -1.4666163 2.3509555e-38
-1.0388939 2.4938169 -1.4600078 2.3509556e-38
-1.0201398 2.489701 -1.4516404 2.3509558e-38
-1.0083033 2.485425 -1.4427228 2.3509559e-38
-0.94787568 2.4796915 -1.4320742 2.3509559e-38
-0.92651439 2.4829562 -1.4397757 2.3509561e-38
-0.90678197 2.4867768 -1.4486337 2.3509562e-38
-0.8562755 2.4930711 -1.4637552 2.3509563e-38
-0.84275401 2.4895995 -1.45663 2.3509563e-38
-0.7819888 2.470809 -1.4177011 2.3509565e-38
-0.74925095 2.4628901 -1.4015039 2.3509566e-38
-0.74385041 2.4582355 -1.3915776 2.3509568e-38
-0.73577356 2.4467249 -1.3668745 2.3509569e-38
-0.73153359 2.4426777 -1.3582295 2.3509569e-38
-0.69117123 2.4232535 -1.3173277 2.350957e-38
-0.65737945 2.4039865 -1.2765734 2.3509572e-38
-0.63932729 2.3981183 -1.2643886 2.3509573e-38
-0.63023138 2.3964052 -1.2609444 2.3509573e-38
-0.61269957 2.3871953 -1.2415038 2.3509575e-38
-0.60820687 2.3825188 -1.2315022 2.3509576e-38
-0.59563529 2.3673155 -1.1989299 2.3509577e-38
-0.58101183 2.3607955 -1.1852326 2.3509577e-38
-0.49308103 2.3709249 -1.2097631 2.3509579e-38
-0.55171973 2.3493276 -1.1612449 2.350958e-38
-0.57151842 2.3384533 -1.1371013 2.3509582e-38
-0.58659679 2.3351202 -1.1294371 2.3509582e-38
-0.59392834 2.3333318 -1.1253464 2.3509583e-38
-0.60179979 2.3319018 -1.1220162 2.3509584e-38
-0.62689668 2.327785 -1.1123595 2.3509586e-38
-0.63994879 2.3300157 -1.1168092 2.3509586e-38
-0.69262671 2.3247342 -1.1038188 2.3509587e-38
-0.71469069 2.3182442 -1.089108 2.3509589e-38
-0.72577411 2.2818565 -1.0099398 2.350959e-38
-0.76137805 2.2649882 -0.97234476 2.3509591e-38
-0.78712481 2.2556012 -0.9512493 2.3509591e-38
-0.84872591 2.2527213 -0.94320005 2.3509593e-38
-0.86022717 2.2469542 -0.93036622 2.3509594e-38
-0.8669886 2.244791 -0.9254809 2.3509596e-38
-0.8888706 2.2398393 -0.91410929 2.3509596e-38
-0.90785372 2.2394392 -0.91268462 2.3509597e-38
-0.94166726 2.2356963 -0.90358162 2.3509598e-38
-0.94899637 2.2340174 -0.8997286 2.35096e-38
-0.95738941 2.2327754 -0.89679104 2.35096e-38
-0.96471113 2.2310896 -0.89292288 2.3509601e-38
-0.97202933 2.2294006 -0.88904822 2.3509603e-38
-0.97934383 2.2277086 -0.88516748 2.3509604e-38
-0.9918102 2.2226601 -0.87386256 2.3509604e-38
-0.9990989 2.2209675 -0.86998117 2.3509605e-38
-1.0136664 2.2175734 -0.86219883 2.3509607e-38
-1.0402113 2.212404 -0.85021859 2.3509608e-38
-1.0672553 2.2102356 -0.84472573 2.350961e-38
-1.0818149 2.2067847 -0.83682132 2.350961e-38
-1.110266 2.2146797 -0.85309184 2.3509611e-38
-1.1225529 2.2217386 -0.86802554 2.3509612e-38
-1.1288338 2.2253971 -0.8757683 2.3509614e-38
-1.1341255 2.228441 -0.88220847 2.3509614e-38
-1.156445 2.2449806 -0.91738975 2.3509615e-38
-1.1679732 2.2609541 -0.95166212 2.3509617e-38
-1.1735659 2.2642205 -0.95857489 2.3509618e-38
-1.2030876 2.2721601 -0.9749108 2.3509618e-38
-1.2059544 2.279964 -0.99173564 2.3509619e-38
-1.216717 2.2933586 -1.0204425 2.3509621e-38
-1.245519 2.3075025 -1.0502428 2.3509622e-38
-1.2579297 2.3147445 -1.0655695 2.3509622e-38
-1.2597387 2.3157897 -1.067781 2.3509624e-38
-1.2672504 2.3209515 -1.078745 2.3509625e-38
-1.283474 2.3297791 -1.0973958 2.3509626e-38
-1.2957531 2.3370166 -1.1127168 2.3509628e-38
-1.3069916 2.3476484 -1.1354231 2.3509628e-38
-1.3115702 2.3573985 -1.1564145 2.3509629e-38
-1.3064431 2.3687446 -1.1811492 2.3509631e-38
1.5769166 2.4393754 -1.4188759 2.3509632e-38
1.5928422 2.4235785 -1.3851156 2.3509632e-38
1.5764476 2.4126685 -1.3609951 2.3509633e-38
1.5782207 2.3880999 -1.3078135 2.3509635e-38
1.5524573 2.3802023 -1.2899444 2.3509636e-38
1.5195016 2.376014 -1.2799023 2.3509636e-38
1.5041884 2.3482091 -1.2192059 2.3509638e-38
1.5001513 2.3480096 -1.2186549 2.3509639e-38
1.4748638 2.3453379 -1.2121235 2.350964e-38
1.4386252 2.3317165 -1.1815451 2.350964e-38
1.4224466 2.3195009 -1.1546017 2.3509642e-38
1.4200344 2.3129003 -1.1402293 2.3509643e-38
1.4187239 2.3073952 -1.1282628 2.3509645e-38
1.3891842 2.2912145 -1.092335 2.3509645e-38
1.3802921 2.2844872 -1.0774977 2.3509646e-38
1.3742173 2.2808256 -1.069386 2.3509647e-38
1.3438429 2.2692707 -1.0434568 2.3509649e-38
1.3360333 2.2559783 -1.0144265 2.350965e-38
1.3256482 2.2470086 -0.99468619 2.350965e-38
1.3370519 2.2210906 -0.93886304 2.3509652e-38
1.3441206 2.1932354 -0.87871575 2.3509653e-38
1.3590893 2.1753347 -0.84036893 2.3509654e-38
1.3579903 2.1684177 -0.82534939 2.3509654e-38
1.3765111 2.1497707 -0.78549021 2.3509656e-38
1.3769369 2.1456494 -0.776573 2.3509657e-38
1.3653927 2.1199284 -0.72050303 2.3509659e-38
1.3695602 2.116796 -0.71383822 2.3509659e-38
1.373728 2.1136634 -0.70717329 2.350966e-38
1.3626403 2.1034589 -0.68473691 2.3509661e-38
1.3611809 2.102366 -0.68232614 2.3509663e-38
1.3465992 2.0907767 -0.65678674 2.3509663e-38
1.3542824 2.103987 -0.68563581 2.3509664e-38
1.3573219 2.1075957 -0.69354415 2.3509666e-38
1.3528898 2.1293259 -0.74049747 2.3509667e-38
1.3450161 2.1517756 -0.78890949 2.3509668e-38
1.2968942 2.1673582 -0.82125932 2.3509668e-38
1.269267 2.1728625 -0.83237469 2.350967e-38
1.2314672 2.1823096 -0.85173327 2.3509671e-38
1.2041119 2.1852014 -0.85719609 2.3509673e-38
1.1794949 2.1925092 -0.8723073 2.3509673e-38
1.1248878 2.2042122 -0.89606029 2.3509674e-38
1.1129175 2.203306 -0.8937456 2.3509675e-38
1.1055863 2.2052219 -0.89768165 2.3509677e-38
1.0982515 2.207135 -0.90161109 2.3509677e-38
1.0825152 2.2103741 -0.90816748 2.3509678e-38
1.045593 2.2129238 -0.91260791 2.350968e-38
1.0350453 2.2124901 -0.911358 2.3509681e-38
1.0277742 2.2143717 -0.91522086 2.3509681e-38
1.0123997 2.2176945 -0.92196959 2.3509682e-38
1.000788 2.2237279 -0.9347012 2.3509684e-38
0.98661298 2.2280319 -0.94361043 2.3509685e-38
0.96937388 2.2371981 -0.96296519 2.3509685e-38
0.96252805 2.2396812 -0.96814418 2.3509687e-38
0.9551661 2.2415526 -0.97198248 2.3509688e-38
0.93901598 2.2442396 -0.97733015 2.3509689e-38
0.93215078 2.2467129 -0.98248816 2.3509691e-38
0.92477095 2.2485723 -0.98630041 2.3509691e-38
0.91738683 2.2504292 -0.99010646 2.3509692e-38
0.87894088 2.2622056 -1.0144938 2.3509694e-38
0.85736918 2.2689395 -1.0284506 2.3509695e-38
0.8430782 2.2725573 -1.0358701 2.3509695e-38
0.82016969 2.277487 -1.0458784 2.3509696e-38
0.77974236 2.2893775 -1.0704552 2.3509698e-38
0.7530399 2.3087049 -1.1115477 2.3509699e-38
0.72087848 2.311259 -1.1161376 2.3509699e-38
0.70841444 2.3111124 -1.115454 2.3509701e-38
0.69565004 2.3169615 -1.1277529 2.3509702e-38
0.649261 2.3217077 -1.1366735 2.3509703e-38
0.61251336 2.3208258 -1.1336838 2.3509703e-38
0.60436529 2.3221476 -1.1363082 2.3509705e-38
0.59592825 2.3229511 -1.1378011 2.3509706e-38
0.57611865 2.3264441 -1.1447883 2.3509708e-38
0.53843808 2.3235481 -1.1374065 2.3509709e-38
0.53002125 2.3243275 -1.1388481 2.3509709e-38
0.51266569 2.3252482 -1.1403335 2.350971e-38
0.50424683 2.3260171 -1.1417518 2.3509712e-38
0.47848257 2.3275833 -1.1443888 2.3509713e-38
0.45196024 2.3271797 -1.1427348 2.3509713e-38
0.44236442 2.3257792 -1.1394187 2.3509715e-38
0.42390886 2.3235283 -1.1339997 2.3509716e-38
0.41454756 2.3214736 -1.1292732 2.3509717e-38
0.39850646 2.3252029 -1.1368824 2.3509717e-38
0.37335154 2.3279512 -1.1420978 2.3509719e-38
0.36500925 2.328671 -1.1434122 2.350972e-38
0.34931216 2.3328495 -1.1520056 2.3509722e-38
0.31505501 2.3336318 -1.1526946 2.3509722e-38
0.27783889 2.3376586 -1.1603264 2.3509723e-38
0.25710756 2.3426447 -1.1705209 2.3509724e-38
0.22832617 2.3463213 -1.1776419 2.3509726e-38
0.21992715 2.3470101 -1.1788878 2.3509727e-38
0.18640767 2.3510034 -1.1865554 2.3509727e-38
0.16954789 2.3530271 -1.1904454 2.3509729e-38
0.14128548 2.3653684 -1.2163556 2.350973e-38
0.095134191 2.3642404 -1.2125558 2.3509731e-38
0.045891032 2.3729157 -1.2299072 2.3509731e-38
0.0090238405 2.3667555 -1.2154762 2.3509733e-38
0.00049618783 2.3663409 -1.2143273 2.3509734e-38
-0.025454171 2.3676045 -1.2163033 2.3509736e-38
-0.059071638 2.3620353 -1.2032486 2.3509736e-38
-0.095015533 2.3503933 -1.176968 2.3509737e-38
-0.10343489 2.3499446 -1.1757482 2.3509738e-38
-0.16129953 2.3424845 -1.1578847 2.350974e-38
-0.21144846 2.3390818 -1.1490393 2.350974e-38
-0.22604476 2.3320332 -1.1333371 2.3509741e-38
-0.25209844 2.3327734 -1.1341766 2.3509743e-38
-0.26042619 2.3322806 -1.1328642 2.3509744e-38
-0.26875246 2.3317845 -1.1315447 2.3509744e-38
-0.28599104 2.3313639 -1.1301265 2.3509745e-38
-0.31224132 2.3325853 -1.1320022 2.3509747e-38
-0.3211987 2.3326685 -1.1319195 2.3509748e-38
-0.33848804 2.3327305 -1.1315458 2.350975e-38
-0.34684002 2.3322082 -1.130169 2.350975e-38
-0.37037751 2.3274703 -1.1192118 2.3509751e-38
-0.38617116 2.324554 -1.112429 2.3509752e-38
-0.40168205 2.3297715 -1.1232786 2.3509754e-38
-0.40437478 2.3341551 -1.1326977 2.3509754e-38
-0.39816624 2.3383811 -1.1420363 2.3509755e-38
-0.46925652 2.3664677 -1.2008055 2.3509757e-38
1.5550576 2.423924 -1.3847547 2.3509758e-38
1.5055172 2.4146156 -1.3631312 2.3509758e-38
1.4791442 2.4158664 -1.3650664 2.3509759e-38
1.4363195 2.4493797 -1.4364235 2.3509761e-38
1.4008363 2.4750407 -1.4909818 2.3509762e-38
1.3860071 2.474479 -1.4893293 2.3509762e-38
1.3368912 2.4868155 -1.5146171 2.3509764e-38
1.3228766 2.491039 -1.5233572 2.3509765e-38
1.3122426 2.4956195 -1.5329688 2.3509767e-38
1.2423131 2.4996397 -1.5396258 2.3509768e-38
1.2299013 2.5251641 -1.5945667 2.3509768e-38
1.2221155 2.5281875 -1.6008888 2.3509769e-38
1.1981367 2.5380075 -1.6214617 2.3509771e-38
1.1740862 2.5478284 -1.6420344 2.3509772e-38
1.1687012 2.554636 -1.6566269 2.3509772e-38
1.1577477 2.5566721 -1.6607169 2.3509774e-38
1.1270573 2.5685756 -1.6856073 2.3509775e-38
1.1075481 2.5601642 -1.6668087 2.3509776e-38
1.0967456 2.5549943 -1.6552894 2.3509776e-38
1.0816722 2.5508165 -1.645795 2.3509778e-38
1.0472571 2.5343022 -1.6090016 2.3509779e-38
1.0334606 2.5325804 -1.6048659 2.3509781e-38
1.0162348 2.5316284 -1.6022975 2.3509781e-38
0.94524693 2.5409007 -1.620303 2.3509782e-38
0.93852407 2.5630488 -1.668095 2.3509783e-38
0.95026553 2.5773838 -1.6995001 2.3509785e-38
0.94459099 2.5843558 -1.7144396 2.3509785e-38
0.94406515 2.6032934 -1.7554572 2.3509786e-38
0.94522876 2.6045549 -1.7582244 2.3509788e-38
0.93831116 2.6105545 -1.7710214 2.3509789e-38
0.91447365 2.6087778 -1.7664713 2.350979e-38
0.85205609 2.6002724 -1.7462095 2.350979e-38
0.8415615 2.6022234 -1.7501279 2.3509792e-38
0.8336693 2.6032431 -1.7521054 2.3509793e-38
0.77206784 2.6082792 -1.7612085 2.3509795e-38
0.72975689 2.6164691 -1.777711 2.3509795e-38
0.72993314 2.6103973 -1.76456 2.3509796e-38
0.73018527 2.5999575 -1.7419469 2.3509797e-38
0.72703624 2.5885336 -1.7171021 2.3509799e-38
0.71659982 2.5643654 -1.6644293 2.3509799e-38
0.71063209 2.5558646 -1.645835 2.35098e-38
0.69904882 2.5491538 -1.630954 2.3509802e-38
0.68770087 2.5322757 -1.5940502 2.3509803e-38
0.68649399 2.5298953 -1.5888572 2.3509803e-38
0.67597252 2.5186899 -1.5642688 2.3509804e-38
0.67375845 2.5105603 -1.5465885 2.3509806e-38
0.6609121 2.4973021 -1.5174841 2.3509807e-38
0.61341643 2.4821188 -1.4831915 2.3509809e-38
0.60776514 2.4732382 -1.4637833 2.3509809e-38
0.59922957 2.463788 -1.4430566 2.350981e-38
0.59587955 2.4583132 -1.4310956 2.3509811e-38
0.58819085 2.4453001 -1.4026731 2.3509813e-38
0.58477849 2.4321325 -1.3740424 2.3509813e-38
0.56995314 2.4226763 -1.3531176 2.3509814e-38
0.56798965 2.4192429 -1.3456203 2.3509816e-38
0.56701684 2.4127367 -1.3314947 2.3509817e-38
0.56577677 2.4105666 -1.3267562 2.3509817e-38
0.52795267 2.3961222 -1.294348 2.3509818e-38
0.4412387 2.4081917 -1.3179526 2.350982e-38
0.44702631 2.42257 -1.3492769 2.3509821e-38
0.46345174 2.4386284 -1.384554 2.3509821e-38
0.46834263 2.4481306 -1.4052864 2.3509823e-38
0.46685234 2.4585207 -1.427755 2.3509824e-38
0.46884426 2.46348 -1.4385593 2.3509825e-38
0.48396859 2.4759409 -1.4660028 2.3509827e-38
0.47545484 2.4821746 -1.4792595 2.3509827e-38
0.47090679 2.4933209 -1.5032778 2.3509828e-38
0.45900637 2.507328 -1.5332775 2.350983e-38
0.40657932 2.5013411 -1.5187659 2.3509831e-38
0.39111775 2.5028648 -1.5216134 2.3509831e-38
0.34029916 2.5077357 -1.5306748 2.3509832e-38
0.32178402 2.5140266 -1.5437617 2.3509834e-38
0.30291024 2.5178659 -1.5515262 2.3509835e-38
0.26094389 2.5261631 -1.5682712 2.3509835e-38
0.21196282 2.5152717 -1.5432338 2.3509837e-38
0.17989364 2.5215631 -1.5559238 2.3509838e-38
0.13068761 2.5302451 -1.5732901 2.3509839e-38
0.089127965 2.5385399 -1.5900422 2.3509839e-38
0.07747253 2.5492532 -1.6129127 2.3509841e-38
-0.0047561172 2.5575907 -1.6285632 2.3509842e-38
-0.016137574 2.5686293 -1.6521465 2.3509844e-38
-0.005738311 2.584779 -1.6874444 2.3509844e-38
-0.015782407 2.5903354 -1.6991887 2.3509845e-38
-0.020611448 2.6185346 -1.7601473 2.3509846e-38
-0.020609735 2.6285541 -1.7818567 2.3509848e-38
-0.020987926 2.639683 -1.8059591 2.3509849e-38
-0.026679736 2.6454225 -1.8182281 2.3509849e-38
-0.036981713 2.646822 -1.8209578 2.3509851e-38
-0.079078928 2.6563392 -1.840343 2.3509852e-38
-0.094033107 2.6564536 -1.8401512 2.3509853e-38
-0.10343124 2.6524415 -1.831182 2.3509853e-38
-0.15406056 2.6470051 -1.8179159 2.3509855e-38
-0.21009964 2.6494286 -1.8215208 2.3509856e-38
-0.23989862 2.6429434 -1.8065941 2.3509858e-38
-0.26093253 2.643306 -1.806762 2.3509858e-38
-0.27057105 2.6416805 -1.8029571 2.3509859e-38
-0.28358376 2.6381025 -1.7948227 2.350986e-38
-0.30206898 2.6312883 -1.7795146 2.3509862e-38
-0.29401496 2.623466 -1.7628026 2.3509862e-38
-0.3016341 2.6073806 -1.7277255 2.3509863e-38
-0.2886484 2.5821543 -1.6734476 2.3509865e-38
-0.2998091 2.5718572 -1.6508088 2.3509866e-38
-0.31499192 2.5535877 -1.6107774 2.3509867e-38
-0.3218171 2.5466721 -1.5955925 2.3509867e-38
-0.32700303 2.5346091 -1.5693029 2.3509869e-38
-0.33475834 2.5174053 -1.5317987 2.350987e-38
-0.32903287 2.4992332 -1.4925927 2.3509872e-38
-0.40529463 2.4891686 -1.4685454 2.3509872e-38
-0.4121201 2.4789548 -1.446214 2.3509873e-38
-0.42379981 2.4714329 -1.4295733 2.3509874e-38
-0.44275156 2.4502969 -1.3832201 2.3509876e-38
-0.48455113 2.4392207 -1.3579935 2.3509876e-38
-0.49197438 2.4334295 -1.3452272 2.3509877e-38
-0.50506318 2.4253886 -1.3274199 2.3509879e-38
-0.51184785 2.4212298 -1.3182098 2.350988e-38
-0.50929105 2.4171836 -1.3095176 2.350988e-38
-0.5091989 2.405879 -1.2850262 2.3509881e-38
-0.49897739 2.3914578 -1.254079 2.3509883e-38
-0.49094135 2.3805447 -1.2306695 2.3509884e-38
