# .PCD v0.7 - Point Cloud Data file format
VERSION 0.7
FIELDS x y z rgb
SIZE 4 4 4 4
TYPE F F F F
COUNT 1 1 1 1
WIDTH 175
HEIGHT 1
VIEWPOINT 0 0 0 1 0 0 0
POINTS 175
DATA ascii
-1.1399522 0.74087363 2.6142962 2.3509528e-38
-1.1357514 0.74836564 2.5974247 2.350953e-38
-1.1355144 0.74876344 2.5964625 2.3509531e-38
-1.1352773 0.74916124 2.5955002 2.3509534e-38
-1.1350403 0.74955899 2.594538 2.3509535e-38
-1.1315254 0.70840311 2.5608168 2.3509538e-38
-1.1275882 0.66468883 2.5240295 2.3509539e-38
-1.1241637 0.655487 2.5039475 2.3509542e-38
-1.1207805 0.65078175 2.48592 2.3509544e-38
-1.1181494 0.63701063 2.4677198 2.3509547e-38
-1.1151067 0.62848955 2.4497342 2.3509548e-38
-1.1120794 0.61942589 2.431597 2.3509551e-38
-1.1096148 0.60622436 2.4144239 2.3509552e-38
-1.1077226 0.588377 2.398051 2.3509554e-38
-1.1052268 0.57546973 2.3808513 2.3509556e-38
-1.1023427 0.56761819 2.3638964 2.3509558e-38
-1.0996683 0.55946577 2.3478131 2.3509561e-38
-1.0950053 0.53483224 2.315464 2.3509562e-38
-1.0926547 0.52269942 2.2992747 2.3509565e-38
-1.0874232 0.5078916 2.2682855 2.3509566e-38
-1.0829688 0.45217729 2.2240794 2.3509569e-38
-1.0795929 0.42225042 2.1956608 2.350957e-38
-1.0775474 0.41154045 2.18151 2.3509573e-38
-1.0758232 0.39694804 2.1672809 2.3509575e-38
-1.0737532 0.3864783 2.1531138 2.3509576e-38
-1.0722103 0.3723262 2.1399288 2.3509579e-38
-1.0704424 0.35817856 2.1256766 2.350958e-38
-1.0712003 0.32033679 2.1136353 2.3509583e-38
-1.0708874 0.29131407 2.1001506 2.3509584e-38
-1.069775 0.2738376 2.0876379 2.3509587e-38
-1.0701295 0.24137582 2.0759039 2.3509589e-38
-1.0690964 0.22090517 2.0625303 2.3509591e-38
-1.0682583 0.20074902 2.0502141 2.3509593e-38
-1.0671815 0.18075503 2.0368299 2.3509596e-38
-1.0674938 0.17700446 2.0367641 2.3509597e-38
-1.0693679 0.15450069 2.03637 2.35096e-38
-1.069281 0.12718932 2.0246663 2.3509601e-38
-1.0695915 0.12346072 2.024601 2.3509603e-38
-1.0699019 0.11973223 2.0245357 2.3509605e-38
-1.0702125 0.11600363 2.0244703 2.3509607e-38
-1.070523 0.11227503 2.024405 2.350961e-38
-1.0752362 0.089803182 2.0375197 2.3509611e-38
-1.0786721 0.048546419 2.0367968 2.3509614e-38
-1.0789844 0.044795863 2.036731 2.3509615e-38
-1.0836545 0.025549578 2.0509741 2.3509618e-38
-1.0930921 -0.02064383 2.07674 2.3509619e-38
-1.0934103 -0.024464304 2.076673 2.3509622e-38
-1.0965809 -0.032283153 2.0885124 2.3509624e-38
-1.1008197 -0.048286285 2.1020465 2.3509625e-38
-1.1047505 -0.060590249 2.1156452 2.3509628e-38
-1.1138612 -0.097513676 2.1436894 2.3509629e-38
-1.1173074 -0.1060311 2.1565502 2.3509632e-38
-1.1278216 -0.16332269 2.1828454 2.3509633e-38
-1.1272383 -0.19384591 2.1674547 2.3509636e-38
-1.1266171 -0.21894097 2.1541276 2.3509638e-38
-1.1258004 -0.22852805 2.1462817 2.350964e-38
-1.1264583 -0.23677413 2.1460004 2.3509642e-38
-1.1278106 -0.25336197 2.1455717 2.3509645e-38
-1.1285486 -0.27947736 2.138284 2.3509646e-38
-1.1311138 -0.30678439 2.1391888 2.3509647e-38
-1.1279036 -0.34284106 2.1090236 2.350965e-38
-1.129144 -0.37068871 2.1034079 2.3509652e-38
-1.1232787 -0.41009632 2.0592365 2.3509654e-38
-1.1248485 -0.42643556 2.0599437 2.3509656e-38
-1.1259283 -0.43849695 2.060091 2.3509659e-38
-1.1270223 -0.48337251 2.0467401 2.350966e-38
-1.1260166 -0.50396931 2.0334446 2.3509663e-38
-1.1250116 -0.50987577 2.0262256 2.3509664e-38
-1.1265551 -0.54193795 2.0203087 2.3509667e-38
-1.1264729 -0.5593437 2.0127227 2.3509668e-38
-1.1269714 -0.58095586 2.0061574 2.3509671e-38
-1.1268604 -0.59481698 1.9999001 2.3509673e-38
-1.1271349 -0.61231691 1.9939706 2.3509674e-38
-1.1253687 -0.64247555 1.9731072 2.3509677e-38
-1.1301595 -0.67946458 1.9805895 2.3509678e-38
-1.1305717 -0.68702853 1.9794222 2.3509681e-38
-1.1308178 -0.70059615 1.9749833 2.3509682e-38
-1.1315782 -0.71010977 1.974665 2.3509685e-38
-1.1319761 -0.73082954 1.9679909 2.3509687e-38
-1.1328182 -0.74044025 1.9680208 2.3509689e-38
-1.1334261 -0.74805295 1.9677638 2.3509691e-38
-1.1347948 -0.77824509 1.9617887 2.3509694e-38
-1.1354806 -0.78596556 1.9618574 2.3509695e-38
-1.1360868 -0.79355401 1.9616019 2.3509696e-38
-1.1365783 -0.76631743 1.9751972 2.3509699e-38
-1.136898 -0.76044989 1.9791428 2.3509701e-38
-1.1347518 -0.73530418 1.9793351 2.3509703e-38
-1.1341597 -0.69881815 1.9916036 2.3509705e-38
-1.1330684 -0.65512305 2.0044801 2.3509708e-38
-1.1307031 -0.60671675 2.0132473 2.3509709e-38
-1.130796 -0.59281373 2.0194356 2.3509712e-38
-1.1307346 -0.57701004 2.025677 2.3509713e-38
-1.1309385 -0.56307018 2.032409 2.3509716e-38
-1.130549 -0.54117012 2.0396111 2.3509717e-38
-1.1301241 -0.53467041 2.040278 2.3509719e-38
-1.1297574 -0.51158327 2.048079 2.3509722e-38
-1.1295793 -0.47887567 2.0607536 2.3509723e-38
-1.1309025 -0.45830271 2.0755482 2.3509726e-38
-1.1310482 -0.44177288 2.0830736 2.3509727e-38
-1.1320503 -0.42041898 2.0966649 2.350973e-38
-1.1328166 -0.41166142 2.1039279 2.3509731e-38
-1.1320653 -0.4033986 2.1037729 2.3509734e-38
-1.1314914 -0.3955768 2.1042783 2.3509736e-38
-1.1306672 -0.38705087 2.1038847 2.3509738e-38
-1.1298484 -0.36361802 2.109679 2.350974e-38
-1.1320684 -0.33297631 2.132899 2.3509743e-38
-1.1329823 -0.3258591 2.1401856 2.3509744e-38
-1.1341375 -0.31896836 2.1485255 2.3509745e-38
-1.1333041 -0.29285133 2.1553607 2.3509748e-38
-1.1322582 -0.26613164 2.1614342 2.350975e-38
-1.130718 -0.20743102 2.1783795 2.3509752e-38
-1.1338397 -0.19053541 2.2002029 2.3509754e-38
-1.1328136 -0.17600758 2.2013311 2.3509757e-38
-1.1327448 -0.15722397 2.2087691 2.3509758e-38
-1.1328493 -0.13856682 2.2169788 2.3509761e-38
-1.1334556 -0.11839306 2.2282007 2.3509762e-38
-1.1339741 -0.11396105 2.2324967 2.3509765e-38
-1.1333642 -0.10548119 2.233104 2.3509767e-38
-1.1326809 -0.096936911 2.2333879 2.3509768e-38
-1.1336581 -0.059540715 2.2534914 2.3509771e-38
-1.1337242 -0.056083821 2.2552352 2.3509772e-38
-1.1335846 -0.052281525 2.2561436 2.3509775e-38
-1.1332392 -0.04813379 2.2562163 2.3509776e-38
-1.1334411 -0.014715605 2.2709908 2.3509779e-38
-1.1332704 -0.0088210162 2.2726159 2.3509781e-38
-1.1330422 0.023705905 2.2849779 2.3509783e-38
-1.1346328 0.044658691 2.3012006 2.3509785e-38
-1.1355768 0.05203123 2.3087358 2.3509788e-38
-1.134656 0.076186046 2.3143437 2.3509789e-38
-1.1342258 0.087901488 2.3171422 2.350979e-38
-1.1340876 0.090425931 2.3175282 2.3509793e-38
-1.13384 0.12423533 2.3303277 2.3509795e-38
-1.1341212 0.12745292 2.3329952 2.3509797e-38
-1.1338325 0.13531722 2.3348737 2.3509799e-38
-1.1334752 0.13960645 2.3349488 2.3509802e-38
-1.133118 0.14389582 2.3350239 2.3509803e-38
-1.1327492 0.14934792 2.3355248 2.3509806e-38
-1.1324558 0.17030691 2.3427944 2.3509807e-38
-1.1346147 0.18911597 2.360832 2.350981e-38
-1.1352377 0.20542294 2.3705349 2.3509811e-38
-1.1370414 0.22740853 2.3881977 2.3509814e-38
-1.1365165 0.23405629 2.3884499 2.3509816e-38
-1.1356614 0.24335594 2.3882301 2.3509817e-38
-1.1348851 0.27351576 2.3970077 2.350982e-38
-1.1348666 0.27464142 2.3973849 2.3509821e-38
-1.1341344 0.28377661 2.3976812 2.3509824e-38
-1.1357534 0.33100468 2.4249008 2.3509825e-38
-1.1369611 0.3431063 2.4356441 2.3509828e-38
-1.138732 0.35634908 2.4495363 2.350983e-38
-1.1383568 0.36085343 2.4496152 2.3509832e-38
-1.1373298 0.38565984 2.4549882 2.3509834e-38
-1.1365819 0.39499912 2.4552934 2.3509837e-38
-1.1358712 0.42454737 2.4641299 2.3509838e-38
-1.1355402 0.4526872 2.4741898 2.3509839e-38
-1.1362802 0.46617958 2.4832854 2.3509842e-38
-1.1358061 0.47079641 2.4829402 2.3509844e-38
-1.1358261 0.52234864 2.5043464 2.3509846e-38
-1.1366974 0.53353804 2.5131135 2.3509848e-38
-1.1377841 0.53988165 2.5209022 2.3509851e-38
-1.1400473 0.54680318 2.5345213 2.3509852e-38
-1.1419847 0.57296562 2.5545456 2.3509855e-38
-1.1427342 0.57622492 2.5594561 2.3509856e-38
-1.1423422 0.58093154 2.5595386 2.3509859e-38
-1.1419502 0.58563823 2.5596211 2.350986e-38
-1.140956 0.61427474 2.5667329 2.3509862e-38
-1.1403948 0.62135905 2.5669944 2.3509865e-38
-1.1390194 0.66623825 2.5790083 2.3509866e-38
-1.1404403 0.69940704 2.5994747 2.3509869e-38
-1.1410898 0.71306324 2.6082075 2.350987e-38
-1.1415472 0.73405617 2.6190603 2.3509873e-38
-1.1411464 0.73886937 2.6191447 2.3509874e-38
-1.1409075 0.73927021 2.6181748 2.3509877e-38
-1.1406687 0.73967105 2.6172054 2.3509879e-38
-1.1404299 0.74007195 2.6162355 2.3509881e-38
-1.140191 0.74047279 2.6152658 2.3509883e-38
