# .PCD v0.7 - Point Cloud Data file format
VERSION 0.7
FIELDS x y z rgb
SIZE 4 4 4 4
TYPE F F F F
COUNT 1 1 1 1
WIDTH 85
HEIGHT 1
VIEWPOINT 0 0 0 1 0 0 0
POINTS 85
DATA ascii
-1.1376029 0.79741591 1.1029772 2.3509528e-38
-1.1256455 0.79867822 1.1020635 2.3509532e-38
-1.0922298 0.83218783 1.0186954 2.3509537e-38
-1.0618067 0.83098197 1.0282784 2.3509541e-38
-1.0544536 0.83081681 1.0302541 2.3509545e-38
-1.0085969 0.82859766 1.0457807 2.3509549e-38
-0.99890846 0.82822448 1.0488032 2.3509554e-38
-0.98742324 0.82968092 1.0472682 2.3509558e-38
-0.98200792 0.83148932 1.0435208 2.3509562e-38
-0.97812223 0.83273828 1.0409631 2.3509566e-38
-0.97944492 0.83476132 1.0352348 2.350957e-38
-0.98583359 0.83755916 1.0263636 2.3509575e-38
-0.99436879 0.83948779 1.0193883 2.3509579e-38
-1.0059123 0.84295553 1.0076386 2.3509583e-38
-1.0093193 0.84422141 1.0035174 2.3509587e-38
-1.0248598 0.84745985 0.99155343 2.3509591e-38
-1.04368 0.85101318 0.97805816 2.3509596e-38
-1.0608603 0.85515541 0.96331692 2.35096e-38
-1.0771692 0.86270988 0.93955964 2.3509604e-38
-1.0833995 0.8706966 0.91673481 2.3509608e-38
-1.087517 0.87837011 0.89519417 2.3509612e-38
-1.0869524 0.88073593 0.88893479 2.3509617e-38
-1.0869197 0.88725507 0.87136948 2.3509621e-38
-1.0909405 0.89479858 0.8501994 2.3509625e-38
-1.091023 0.89693868 0.84441376 2.3509629e-38
-1.0896914 0.90031594 0.83558768 2.3509633e-38
-1.0897269 0.90244895 0.82983077 2.3509638e-38
-1.0916044 0.90410072 0.82498771 2.3509642e-38
-1.0939481 0.90983224 0.8090508 2.3509646e-38
-1.0953072 0.91784853 0.78716052 2.350965e-38
-1.0971428 0.91949213 0.78234822 2.3509654e-38
-1.0994346 0.92514539 0.76663291 2.3509659e-38
-1.0991555 0.92726088 0.76098877 2.3509663e-38
-1.0960294 0.932064 0.74869287 2.3509667e-38
-1.0944408 0.93646419 0.73716319 2.3509671e-38
-1.1043369 0.9444741 0.71351296 2.3509675e-38
-1.1060876 0.94610351 0.70875657 2.350968e-38
-1.1196339 0.9534893 0.68602878 2.3509684e-38
-1.1213725 0.95512652 0.68125385 2.3509688e-38
-1.1299334 0.95949388 0.66769987 2.3509692e-38
-1.1333832 0.96278352 0.65811491 2.3509696e-38
-1.141968 0.96718568 0.64446205 2.3509701e-38
-1.1509659 0.97154444 0.6308403 2.3509705e-38
-1.1538943 0.97387975 0.62393606 2.3509709e-38
-1.1555908 0.97553855 0.61911184 2.3509713e-38
-1.1646159 0.97992939 0.60539788 2.3509717e-38
-1.1692786 0.98312485 0.59581411 2.3509722e-38
-1.1709563 0.98479426 0.59096503 2.3509726e-38
-1.1726296 0.98646474 0.58611411 2.350973e-38
-1.1840991 0.99053901 0.57274467 2.3509734e-38
-1.1902426 0.99347824 0.56354344 2.3509738e-38
-1.2024777 0.99642491 0.55305409 2.3509743e-38
-1.2204616 0.99178922 0.56180596 2.3509747e-38
-1.2277322 0.98058748 0.59048635 2.3509751e-38
-1.2482073 0.96728295 0.62208629 2.3509755e-38
-1.2557859 0.96238804 0.6337027 2.3509759e-38
-1.2682358 0.95190692 0.65936267 2.3509764e-38
-1.2736069 0.94736713 0.6704815 2.3509768e-38
-1.2902123 0.94003326 0.68679327 2.3509772e-38
-1.2952516 0.93600148 0.69661182 2.3509776e-38
-1.3088398 0.92137253 0.73321509 2.3509781e-38
-1.3100328 0.90995085 0.76375324 2.3509785e-38
-1.313629 0.90503174 0.77626401 2.3509789e-38
-1.3165106 0.89718515 0.79681432 2.3509793e-38
-1.3168585 0.89484781 0.80304211 2.3509797e-38
-1.3205864 0.8873384 0.82250732 2.3509802e-38
-1.3298156 0.88067079 0.83855861 2.3509806e-38
-1.3954567 0.86593652 0.86461103 2.350981e-38
-1.3966804 0.86502618 0.86681002 2.3509814e-38
-1.4013886 0.8620314 0.87390244 2.3509818e-38
-1.4030418 0.8586821 0.88258612 2.3509823e-38
-1.4026933 0.85746753 0.88593251 2.3509827e-38
-1.4031416 0.84930921 0.90782952 2.3509831e-38
-1.3967907 0.85104537 0.90447176 2.3509835e-38
-1.3115274 0.86506057 0.88444191 2.3509839e-38
-1.2877024 0.8541289 0.91886693 2.3509844e-38
-1.2824204 0.84447575 0.94598591 2.3509848e-38
-1.2659183 0.84357029 0.9518615 2.3509852e-38
-1.2427617 0.83802873 0.97161841 2.3509856e-38
-1.2249023 0.80687755 1.0593024 2.350986e-38
-1.2109601 0.80716437 1.0614315 2.3509865e-38
-1.135272 0.80093896 1.093966 2.3509869e-38
-1.1252933 0.83417988 1.0064439 2.3509873e-38
-1.1382987 0.8355152 1.0001374 2.3509877e-38
-1.1590703 0.83512682 0.9968608 2.3509881e-38
