# .PCD v0.7 - Point Cloud Data file format
VERSION 0.7
FIELDS x y z rgb
SIZE 4 4 4 4
TYPE F F F F
COUNT 1 1 1 1
WIDTH 660
HEIGHT 1
VIEWPOINT 0 0 0 1 0 0 0
POINTS 660
DATA ascii
-2.147743 1.2478895 0.80683553 2.3509528e-38
-2.137764 1.2526357 0.77496678 2.3509528e-38
-2.1301734 1.2725406 0.75678676 2.3509528e-38
-2.1192431 1.2887455 0.72597265 2.350953e-38
-2.1142085 1.2932121 0.71066475 2.350953e-38
-2.1080844 1.2942837 0.6904223 2.350953e-38
-2.1057067 1.2981925 0.68386257 2.3509531e-38
-2.0927219 1.3046623 0.64250433 2.3509531e-38
-2.0839081 1.3176997 0.61764634 2.3509532e-38
-2.0705347 1.3294175 0.57692921 2.3509532e-38
-2.0663958 1.3439368 0.56837898 2.3509532e-38
-2.046926 1.3588582 0.5083068 2.3509534e-38
-2.0395892 1.3741345 0.48925912 2.3509534e-38
-2.0279069 1.39823 0.45884693 2.3509535e-38
-2.0202286 1.4101762 0.43741015 2.3509535e-38
-2.0104916 1.4078077 0.40371054 2.3509535e-38
-2.0015187 1.4348981 0.38354301 2.3509537e-38
-1.9929131 1.4464458 0.35883325 2.3509537e-38
-1.9832361 1.4625883 0.33222082 2.3509537e-38
-1.9768744 1.4682112 0.31286985 2.3509538e-38
-1.9717795 1.4760242 0.29860383 2.3509538e-38
-1.9692259 1.4790792 0.29113325 2.3509539e-38
-1.9641827 1.4854519 0.27650544 2.3509539e-38
-1.9585608 1.4885473 0.25870851 2.3509539e-38
-1.9525387 1.4905719 0.23916386 2.3509541e-38
-1.9433349 1.50099 0.21201776 2.3509541e-38
-1.9400638 1.5069662 0.20321469 2.3509542e-38
-1.9338156 1.5182168 0.18633959 2.3509542e-38
-1.9313688 1.5209794 0.17912 2.3509542e-38
-1.9288883 1.524105 0.17192256 2.3509544e-38
-1.9191236 1.5228014 0.13852616 2.3509544e-38
-1.9022235 1.5409082 0.088299014 2.3509544e-38
-1.8996243 1.5468349 0.081743143 2.3509545e-38
-1.8884178 1.5679209 0.051813815 2.3509545e-38
-1.8835382 1.5802532 0.039954491 2.3509547e-38
-1.8818839 1.6105491 0.045645069 2.3509547e-38
-1.8814597 1.6218747 0.048427928 2.3509547e-38
-1.8808044 1.6416775 0.053584184 2.3509548e-38
-1.8809571 1.6552266 0.059137914 2.3509548e-38
-1.8809628 1.665139 0.062843956 2.3509549e-38
-1.881372 1.6840117 0.071241759 2.3509549e-38
-1.8786991 1.7115195 0.072463222 2.3509549e-38
-1.8805002 1.7320212 0.08615832 2.3509551e-38
-1.8812046 1.7542571 0.096802473 2.3509551e-38
-1.8828149 1.7880795 0.11480918 2.3509552e-38
-1.882827 1.7984872 0.11872072 2.3509552e-38
-1.893454 1.8010969 0.15550919 2.3509552e-38
-1.9000356 1.7864071 0.17222865 2.3509554e-38
-1.9091297 1.7790465 0.20014222 2.3509554e-38
-1.9239156 1.7654101 0.24490641 2.3509554e-38
-1.9356023 1.7468199 0.2773819 2.3509555e-38
-1.9405489 1.7445461 0.29320794 2.3509555e-38
-1.9442477 1.7424307 0.30488813 2.3509556e-38
-1.954936 1.726456 0.33497146 2.3509556e-38
-1.9575634 1.7235144 0.34273294 2.3509556e-38
-1.9621035 1.7200317 0.35674033 2.3509558e-38
-1.9681661 1.7145303 0.37512824 2.3509558e-38
-1.9771247 1.7089038 0.40322927 2.3509559e-38
-1.9836892 1.7062731 0.42437646 2.3509559e-38
-1.9946872 1.696491 0.45780745 2.3509559e-38
-2.0132411 1.6650877 0.50866318 2.3509561e-38
-2.0168691 1.6644063 0.52063733 2.3509561e-38
-2.0323346 1.6356612 0.56207287 2.3509561e-38
-2.0372114 1.6363544 0.5787676 2.3509562e-38
-2.048841 1.6187406 0.61141419 2.3509562e-38
-2.053416 1.6171879 0.62625611 2.3509563e-38
-2.0573485 1.6064081 0.63550216 2.3509563e-38
-2.064404 1.5931429 0.65434879 2.3509563e-38
-2.0740623 1.5699871 0.67828876 2.3509565e-38
-2.0805225 1.5646472 0.69807738 2.3509565e-38
-2.0857656 1.5588167 0.71358043 2.3509566e-38
-2.0964584 1.5457265 0.74475241 2.3509566e-38
-2.1016619 1.5380825 0.75944692 2.3509566e-38
-2.1148896 1.5186321 0.79679608 2.3509568e-38
-2.1225994 1.5153972 0.82157916 2.3509568e-38
-2.1283057 1.5078427 0.8380028 2.3509568e-38
-2.130574 1.5052997 0.84470218 2.3509569e-38
-2.1441264 1.4746119 0.87896651 2.3509569e-38
-2.1464226 1.4720484 0.88575238 2.350957e-38
-2.1487157 1.4694996 0.89253324 2.350957e-38
-2.1572828 1.4679817 0.92084354 2.350957e-38
-2.1518705 1.4369848 0.89107317 2.3509572e-38
-2.1509414 1.4240752 0.8831408 2.3509572e-38
-2.149806 1.3962547 0.86896729 2.3509573e-38
-2.1491227 1.3528416 0.8505187 2.3509573e-38
-2.1454751 1.3427149 0.83445889 2.3509573e-38
-2.1422393 1.3142691 0.81297362 2.3509575e-38
-2.1448691 1.2600712 0.80167991 2.3509575e-38
-1.7171367 0.380023 -0.96727383 2.3509576e-38
-1.7211152 0.36834079 -0.95820916 2.3509576e-38
-1.723062 0.3661564 -0.95245963 2.3509576e-38
-1.7258341 0.3630369 -0.94427717 2.3509577e-38
-1.7319107 0.35624969 -0.92631996 2.3509577e-38
-1.7338564 0.35406622 -0.92057413 2.3509577e-38
-1.7358019 0.35188293 -0.91482925 2.3509579e-38
-1.7375295 0.34991154 -0.90973932 2.3509579e-38
-1.7394781 0.34772441 -0.9039855 2.350958e-38
-1.7414262 0.34553748 -0.89823252 2.350958e-38
-1.7433742 0.34335074 -0.89248019 2.350958e-38
-1.745548 0.34093532 -0.88605183 2.3509582e-38
-1.74729 0.3389461 -0.88092023 2.3509582e-38
-1.7553183 0.32995152 -0.85720676 2.3509583e-38
-1.7572534 0.32777753 -0.85149264 2.3509583e-38
-1.7591885 0.32560357 -0.84577894 2.3509583e-38
-1.7620219 0.32241157 -0.83741689 2.3509584e-38
-1.7639604 0.32023355 -0.83169317 2.3509584e-38
-1.7658988 0.31805545 -0.82596964 2.3509584e-38
-1.7678372 0.31587726 -0.82024628 2.3509586e-38
-1.7697756 0.31369901 -0.81452316 2.3509586e-38
-1.7717149 0.3115074 -0.80880207 2.3509587e-38
-1.7737955 0.30920464 -0.80264586 2.3509587e-38
-1.775728 0.30703241 -0.79694003 2.3509587e-38
-1.7775286 0.30498558 -0.79163271 2.3509589e-38
-1.7815259 0.30051515 -0.77982271 2.3509589e-38
-1.7834584 0.29834253 -0.77411717 2.350959e-38
-1.7852808 0.2962712 -0.7687453 2.350959e-38
-1.7873235 0.29399708 -0.76270628 2.350959e-38
-1.7892559 0.29182416 -0.75700104 2.3509591e-38
-1.7912929 0.2895582 -0.75097793 2.3509591e-38
-1.7932196 0.28739154 -0.7452904 2.3509591e-38
-1.8028258 0.27655298 -0.71694386 2.3509593e-38
-1.8048236 0.27434337 -0.71103197 2.3509593e-38
-1.8066783 0.27221787 -0.70557147 2.3509594e-38
-1.8086047 0.27004993 -0.69988453 2.3509594e-38
-1.8105315 0.2678816 -0.69419724 2.3509594e-38
-1.8163453 0.26431176 -0.67592925 2.3509596e-38
-1.8182628 0.26216373 -0.67026561 2.3509596e-38
-1.820148 0.26002714 -0.66470623 2.3509597e-38
-1.8220708 0.25787255 -0.65902656 2.3509597e-38
-1.8239939 0.25571764 -0.65334624 2.3509597e-38
-1.8259174 0.25356248 -0.64766532 2.3509598e-38
-1.8278407 0.25140688 -0.64198393 2.3509598e-38
-1.829731 0.24924225 -0.63641834 2.35096e-38
-1.831565 0.24715465 -0.63101327 2.35096e-38
-1.8334043 0.24506207 -0.62559211 2.35096e-38
-1.8355763 0.24261314 -0.61918259 2.3509601e-38
-1.8374265 0.24053152 -0.61372036 2.3509601e-38
-1.8396088 0.2380702 -0.60728067 2.3509601e-38
-1.8414345 0.23603041 -0.6018858 2.3509603e-38
-1.8432804 0.23395272 -0.59643632 2.3509603e-38
-1.8461745 0.23066199 -0.58790636 2.3509604e-38
-1.8480227 0.22858113 -0.58245105 2.3509604e-38
-1.8498113 0.22679356 -0.5770871 2.3509604e-38
-1.8517317 0.22463977 -0.57141548 2.3509605e-38
-1.853719 0.22238116 -0.56555784 2.3509605e-38
-1.8555812 0.22031021 -0.5600518 2.3509607e-38
-1.8576229 0.2177528 -0.55412114 2.3509607e-38
-1.8594691 0.21567254 -0.54867202 2.3509607e-38
-1.8670129 0.20155534 -0.52849627 2.3509608e-38
-1.8695428 0.19863446 -0.5210557 2.3509608e-38
-1.8813177 0.1851906 -0.48636881 2.3509608e-38
-1.8833184 0.18287501 -0.48048648 2.350961e-38
-1.8852412 0.18066281 -0.47482863 2.350961e-38
-1.8878013 0.17773905 -0.46728766 2.3509611e-38
-1.8895618 0.17575637 -0.46209115 2.3509611e-38
-1.8915906 0.17340936 -0.4561258 2.3509611e-38
-1.8937594 0.17085735 -0.44976571 2.3509612e-38
-1.8952911 0.16921255 -0.44521469 2.3509612e-38
-1.9010742 0.16257674 -0.42819086 2.3509614e-38
-1.9039503 0.15921885 -0.41974556 2.3509614e-38
-1.905813 0.15710552 -0.41425365 2.3509614e-38
-1.9076743 0.15499349 -0.40876538 2.3509615e-38
-1.9095346 0.15288286 -0.40328097 2.3509615e-38
-1.9219248 0.14094499 -0.36595938 2.3509615e-38
-1.9239199 0.13638388 -0.3609319 2.3509617e-38
-1.9257892 0.13426119 -0.35542044 2.3509617e-38
-1.9276576 0.13213973 -0.34991226 2.3509618e-38
-1.929732 0.129738 -0.34381354 2.3509618e-38
-1.9316028 0.12761334 -0.33829832 2.3509618e-38
-1.9346877 0.12402089 -0.32923681 2.3509619e-38
-1.9377037 0.12061 -0.32034069 2.3509619e-38
-1.9409074 0.11684728 -0.31094223 2.3509621e-38
-1.9424435 0.11516293 -0.30639073 2.3509621e-38
-1.9446731 0.11258171 -0.29983667 2.3509621e-38
-1.9465541 0.1104508 -0.2942889 2.3509622e-38
-1.948434 0.10832111 -0.28874457 2.3509622e-38
-1.9505825 0.10582361 -0.28243247 2.3509624e-38
-1.9542236 0.10168692 -0.27169836 2.3509624e-38
-1.9561075 0.099545792 -0.26614502 2.3509624e-38
-1.9579904 0.097405739 -0.26059467 2.3509625e-38
-1.9605433 0.09441454 -0.25310293 2.3509625e-38
-1.9624358 0.092260376 -0.24752516 2.3509625e-38
-1.9643257 0.090112232 -0.24195459 2.3509626e-38
-1.9673223 0.086649112 -0.23314223 2.3509626e-38
-1.9695297 0.084091812 -0.22665334 2.3509628e-38
-1.9714264 0.081941374 -0.22106038 2.3509628e-38
-1.9736917 0.079299062 -0.2144081 2.3509628e-38
-1.9751776 0.07765276 -0.21001177 2.3509629e-38
-1.977077 0.075492695 -0.20441413 2.3509629e-38
-1.9797406 0.072372392 -0.19659682 2.3509631e-38
-1.9816442 0.070213318 -0.19098377 2.3509631e-38
-1.9839073 0.067578755 -0.18433604 2.3509631e-38
-1.9858147 0.06541495 -0.17871174 2.3509632e-38
-1.9916236 0.058812905 -0.16158867 2.3509632e-38
-1.9935297 0.056644548 -0.15597083 2.3509632e-38
-1.9958204 0.053985871 -0.14923865 2.3509633e-38
-2.0022354 0.04946804 -0.12929739 2.3509633e-38
-2.0041599 0.047278933 -0.1236253 2.3509635e-38
-2.0060778 0.045106575 -0.11796886 2.3509635e-38
-2.0079949 0.042935081 -0.11231489 2.3509635e-38
-2.0127869 0.037421446 -0.098214075 2.3509636e-38
-2.0147197 0.035224155 -0.092517287 2.3509636e-38
-2.0166471 0.0330403 -0.086833201 2.3509638e-38
-2.0306625 0.017109681 -0.045519058 2.3509638e-38
-2.033143 0.014250049 -0.038222577 2.3509638e-38
-2.035078 0.012056575 -0.032516692 2.3509639e-38
-2.0381417 0.0081334719 -0.023649327 2.3509639e-38
-2.0408497 0.0049910443 -0.015691178 2.3509639e-38
-2.0424838 0.0031529134 -0.010867124 2.350964e-38
-2.0442982 0.0010905891 -0.0055185477 2.350964e-38
-2.0458267 -0.00063084124 -0.0010070851 2.3509642e-38
-2.0490305 -0.0043687127 0.0084016453 2.3509642e-38
-2.0549977 -0.017080655 0.023785919 2.3509642e-38
-2.0570819 -0.019453811 0.029927762 2.3509643e-38
-2.0590115 -0.02127669 0.035752971 2.3509643e-38
-2.0612605 -0.024261989 0.042223372 2.3509645e-38
-2.0626025 -0.0257944 0.046176445 2.3509645e-38
-2.0668838 -0.030771367 0.05875577 2.3509645e-38
-2.0691736 -0.032853242 0.065698862 2.3509646e-38
-2.0718579 -0.036066443 0.073550761 2.3509646e-38
-2.0731392 -0.037975974 0.077159546 2.3509647e-38
-2.0752473 -0.040378954 0.083371155 2.3509647e-38
-2.0773418 -0.042798392 0.089531139 2.3509647e-38
-2.0788648 -0.044496074 0.094032452 2.3509649e-38
-2.0814114 -0.047465753 0.10151152 2.3509649e-38
-2.0884242 -0.062002271 0.11974125 2.3509649e-38
-2.0935955 -0.06812831 0.13489237 2.350965e-38
-2.0979819 -0.073204309 0.14778873 2.350965e-38
-2.102885 -0.078977369 0.16216734 2.3509652e-38
-2.1050971 -0.081569836 0.1686589 2.3509652e-38
-2.1073167 -0.084171824 0.17517297 2.3509652e-38
-2.111798 -0.089398585 0.18833268 2.3509653e-38
-2.1182678 -0.097063556 0.20728794 2.3509653e-38
-2.1199985 -0.099039853 0.21238662 2.3509654e-38
-2.121727 -0.10101361 0.21747875 2.3509654e-38
-2.1274114 -0.10789847 0.23407687 2.3509654e-38
-2.1285586 -0.1091492 0.23747848 2.3509656e-38
-2.1309247 -0.11192988 0.24441908 2.3509656e-38
-2.132673 -0.11392714 0.24956878 2.3509656e-38
-2.1361258 -0.11805493 0.25967085 2.3509657e-38
-2.1378796 -0.1200586 0.26483697 2.3509657e-38
-2.143373 -0.12541971 0.28135809 2.3509659e-38
-2.1453745 -0.12768941 0.28725988 2.3509659e-38
-2.1484535 -0.13247794 0.29585692 2.3509659e-38
-2.1509628 -0.1354347 0.30321497 2.350966e-38
-2.1538298 -0.13881323 0.31162193 2.350966e-38
-2.1588302 -0.14469984 0.32628569 2.3509661e-38
-2.1606116 -0.14673658 0.33153263 2.3509661e-38
-2.1635008 -0.15013941 0.34000495 2.3509661e-38
-2.1690605 -0.15669353 0.35630584 2.3509663e-38
-2.172204 -0.16037387 0.36553237 2.3509663e-38
-2.1748085 -0.16344403 0.37316927 2.3509663e-38
-2.1804295 -0.17006986 0.38964984 2.3509664e-38
-2.1822343 -0.17213392 0.39496553 2.3509664e-38
-2.1861033 -0.17675646 0.40628698 2.3509666e-38
-2.1879146 -0.17882776 0.41162115 2.3509666e-38
-2.1897237 -0.18089661 0.41694918 2.3509666e-38
-2.195833 -0.18808529 0.43486676 2.3509667e-38
-2.1999357 -0.19286977 0.44691566 2.3509667e-38
-2.2066495 -0.1986317 0.46740103 2.3509668e-38
-2.2097037 -0.20143089 0.47665408 2.3509668e-38
-2.2140326 -0.20655245 0.48933974 2.3509668e-38
-2.2158902 -0.20868517 0.49480736 2.350967e-38
-2.2177343 -0.21078354 0.50024265 2.350967e-38
-2.2217691 -0.21622708 0.51181644 2.3509671e-38
-2.2262683 -0.22157705 0.52499181 2.3509671e-38
-2.2283821 -0.22397391 0.53122419 2.3509671e-38
-2.2307439 -0.22607771 0.53840232 2.3509673e-38
-2.2351472 -0.23133287 0.55128968 2.3509673e-38
-2.235862 -0.23203336 0.55343789 2.3509673e-38
-2.2377324 -0.23416221 0.55894977 2.3509674e-38
-2.2407811 -0.23773867 0.56789535 2.3509674e-38
-2.2414668 -0.23841318 0.56995618 2.3509675e-38
-2.2445302 -0.24200711 0.5789445 2.3509675e-38
-2.2490604 -0.24737616 0.59221673 2.3509675e-38
-2.2521524 -0.25100297 0.6012888 2.3509677e-38
-2.2575314 -0.25781068 0.61688644 2.3509677e-38
-2.2596996 -0.26029336 0.62327141 2.3509678e-38
-2.262274 -0.26275179 0.63103426 2.3509678e-38
-2.2655585 -0.26659885 0.64067352 2.3509678e-38
-2.2739141 -0.27692255 0.66499662 2.350968e-38
-2.2756107 -0.2784771 0.67013633 2.350968e-38
-2.2808821 -0.28462201 0.68561828 2.350968e-38
-2.2828133 -0.2868219 0.69130874 2.3509681e-38
-2.2875748 -0.29247001 0.70525646 2.3509681e-38
-2.2930448 -0.29859963 0.72141385 2.3509682e-38
-2.2943649 -0.2500703 0.74391133 2.3509682e-38
-2.2991478 -0.24089502 0.76344454 2.3509682e-38
-2.2986257 -0.23303635 0.76460737 2.3509684e-38
-2.3009193 -0.19126587 0.7878722 2.3509684e-38
-2.3038971 -0.16495818 0.80769378 2.3509685e-38
-2.3006248 -0.13828027 0.80658615 2.3509685e-38
-2.303921 -0.10383402 0.83050632 2.3509685e-38
-2.3046696 -0.097130001 0.83552349 2.3509687e-38
-2.3003833 -0.06111148 0.83447212 2.3509687e-38
-2.3002467 -0.05349306 0.8368448 2.3509687e-38
-2.3030138 -0.011145759 0.86192113 2.3509688e-38
-2.3048356 0.029167386 0.88305408 2.3509688e-38
-2.30651 0.041907709 0.89343554 2.3509689e-38
-2.3073704 0.051496629 0.89990228 2.3509689e-38
-2.308346 0.059180476 0.90604794 2.3509689e-38
-2.3066044 0.084236085 0.90949631 2.3509691e-38
-2.3053017 0.11857961 0.91787809 2.3509691e-38
-2.3086686 0.16853543 0.94780582 2.3509692e-38
-2.3075745 0.21103971 0.95992529 2.3509692e-38
-2.3050208 0.25923806 0.96924376 2.3509692e-38
-2.3054664 0.28254563 0.97941434 2.3509694e-38
-2.3064733 0.2912612 0.98604882 2.3509694e-38
-2.3072307 0.31486407 0.9973799 2.3509695e-38
-2.3058286 0.34492001 1.0038328 2.3509695e-38
-2.3061879 0.35281563 1.0079801 2.3509695e-38
-2.3066583 0.38720414 1.022355 2.3509696e-38
-2.3060756 0.39598542 1.0236567 2.3509696e-38
-2.3018715 0.40205395 1.0117444 2.3509696e-38
-2.2931521 0.41912925 0.98870546 2.3509698e-38
-2.2875369 0.43099618 0.97419357 2.3509698e-38
-2.2804267 0.45249754 0.9582262 2.3509699e-38
-2.2712734 0.4763664 0.93625212 2.3509699e-38
-2.261385 0.48642075 0.90666276 2.3509699e-38
-2.2480621 0.49214917 0.86388958 2.3509701e-38
-2.2449238 0.49522296 0.85445464 2.3509701e-38
-2.2381289 0.49851903 0.83277875 2.3509702e-38
-2.2317472 0.50620812 0.81412917 2.3509702e-38
-2.2280529 0.50797606 0.8023349 2.3509702e-38
-2.2159247 0.52309918 0.76708198 2.3509703e-38
-2.2124071 0.53281689 0.75883991 2.3509703e-38
-2.2078285 0.54064536 0.74631965 2.3509703e-38
-2.2 0.55211383 0.724199 2.3509705e-38
-2.1932354 0.57507956 0.70994037 2.3509705e-38
-2.1916218 0.58370602 0.70771044 2.3509706e-38
-2.1795862 0.60949147 0.67673546 2.3509706e-38
-2.1735291 0.61202002 0.65726048 2.3509706e-38
-2.1673172 0.61793774 0.63852382 2.3509708e-38
-2.160121 0.62844414 0.61817622 2.3509708e-38
-2.1577692 0.63111472 0.61124384 2.3509709e-38
-2.1465945 0.65239197 0.58149278 2.3509709e-38
-2.1382897 0.66903651 0.55969208 2.3509709e-38
-2.1277051 0.68257248 0.52905113 2.350971e-38
-2.122539 0.68361092 0.51202607 2.350971e-38
-2.1200156 0.68617231 0.50447267 2.350971e-38
-2.1138792 0.69219691 0.48603114 2.3509712e-38
-2.1092622 0.69823253 0.47271454 2.3509712e-38
-2.1075687 0.68408924 0.46174634 2.3509713e-38
-2.0778816 0.71237832 0.37220848 2.3509713e-38
-2.0783737 0.7400189 0.38414648 2.3509713e-38
-2.0750132 0.74828541 0.37589452 2.3509715e-38
-2.0693951 0.75908518 0.36097592 2.3509715e-38
-2.0661199 0.76322937 0.35147801 2.3509716e-38
-2.0645237 0.76396674 0.34637281 2.3509716e-38
-2.0547476 0.77314162 0.31683502 2.3509716e-38
-2.0486956 0.77453846 0.29695579 2.3509717e-38
-2.0466669 0.77660602 0.29088753 2.3509717e-38
-2.0358152 0.78761905 0.25840801 2.3509719e-38
-2.0189793 0.8148517 0.21179143 2.3509719e-38
-2.014236 0.82712764 0.20036994 2.3509719e-38
-2.0121093 0.82085979 0.19087085 2.350972e-38
-1.9876175 0.85342884 0.12043516 2.350972e-38
-1.9766184 0.86548126 0.087845534 2.350972e-38
-1.9716316 0.87663811 0.075187378 2.3509722e-38
-1.963641 0.88592708 0.051710293 2.3509722e-38
-1.959034 0.88115627 0.03440737 2.3509723e-38
-1.9425442 0.90329343 -0.012937326 2.3509723e-38
-1.9360905 0.9063077 -0.033568013 2.3509723e-38
-1.923905 0.92488658 -0.067729011 2.3509724e-38
-1.917617 0.92327601 -0.089521721 2.3509724e-38
-1.9070877 0.93853724 -0.11933461 2.3509726e-38
-1.9005359 0.94613212 -0.13859199 2.3509726e-38
-1.8754225 0.97474939 -0.21259287 2.3509726e-38
-1.8726559 0.98353451 -0.21865007 2.3509727e-38
-1.8696207 0.98826027 -0.22712295 2.3509727e-38
-1.8677547 0.99015737 -0.23270647 2.3509727e-38
-1.8609216 0.99033237 -0.25567198 2.3509729e-38
-1.8563986 0.9952246 -0.26909763 2.3509729e-38
-1.8519278 1.0012443 -0.28192726 2.350973e-38
-1.8451073 1.0147356 -0.29989755 2.350973e-38
-1.8307208 1.0394143 -0.33920875 2.350973e-38
-1.8282539 1.0503834 -0.3434442 2.3509731e-38
-1.8228525 1.1005108 -0.3430064 2.3509731e-38
-1.8227015 1.1208589 -0.33594745 2.3509733e-38
-1.8212616 1.1436639 -0.33231875 2.3509733e-38
-1.8208476 1.1531525 -0.33018571 2.3509733e-38
-1.8172114 1.2021663 -0.32421228 2.3509734e-38
-1.8198947 1.2163857 -0.30988014 2.3509734e-38
-1.8165181 1.2467848 -0.30995464 2.3509734e-38
-1.8166506 1.2704281 -0.3007153 2.3509736e-38
-1.8192587 1.2952303 -0.28270042 2.3509736e-38
-1.8184828 1.3053783 -0.28154171 2.3509737e-38
-1.818374 1.3187428 -0.27693731 2.3509737e-38
-1.8107873 1.3471463 -0.29194486 2.3509737e-38
-1.8063765 1.3690197 -0.29867649 2.3509738e-38
-1.8019084 1.3881732 -0.30661294 2.3509738e-38
-1.7925627 1.4099884 -0.3299984 2.350974e-38
-1.7903584 1.4194502 -0.33390877 2.350974e-38
-1.7968742 1.4929116 -0.2846266 2.350974e-38
-1.8087717 1.4826028 -0.24836071 2.3509741e-38
-1.8110596 1.4800448 -0.24160074 2.3509741e-38
-1.8112892 1.4875551 -0.23803365 2.3509743e-38
-1.8151404 1.5374621 -0.20649281 2.3509743e-38
-1.8139871 1.5665565 -0.19955881 2.3509743e-38
-1.8130341 1.5895739 -0.19421072 2.3509744e-38
-1.8146836 1.6163816 -0.17868122 2.3509744e-38
-1.8293028 1.6403069 -0.12050986 2.3509744e-38
-1.8315737 1.6428868 -0.11189607 2.3509745e-38
-1.8393298 1.6436664 -0.085464694 2.3509745e-38
-1.841808 1.6475592 -0.075664699 2.3509747e-38
-1.841321 1.6613481 -0.072177313 2.3509747e-38
-1.8411293 1.6720688 -0.068836257 2.3509747e-38
-1.8421674 1.6902004 -0.058594685 2.3509748e-38
-1.8422554 1.7009606 -0.054295845 2.3509748e-38
-1.8413415 1.7398852 -0.042899743 2.350975e-38
-1.8441858 1.7704712 -0.021937514 2.350975e-38
-1.8442614 1.7798334 -0.018201288 2.350975e-38
-1.8407545 1.8225089 -0.014149383 2.3509751e-38
-1.8398051 1.8594068 -0.0036266034 2.3509751e-38
-1.8346192 1.8788701 -0.013866473 2.3509751e-38
-1.831866 1.8782403 -0.02338008 2.3509752e-38
-1.8212545 1.8802936 -0.058382597 2.3509752e-38
-1.8131679 1.864614 -0.091469444 2.3509754e-38
-1.8065403 1.8643835 -0.11389334 2.3509754e-38
-1.7952025 1.8844098 -0.14465891 2.3509754e-38
-1.789362 1.9050618 -0.15666346 2.3509755e-38
-1.7810135 1.9215111 -0.17868429 2.3509755e-38
-1.7799919 1.9245294 -0.18100452 2.3509757e-38
-1.7732307 1.9457413 -0.19590415 2.3509757e-38
-1.7614902 1.9573362 -0.23116271 2.3509757e-38
-1.7611377 1.950101 -0.23504153 2.3509758e-38
-1.7607064 1.9160794 -0.24914798 2.3509758e-38
-1.7607937 1.9054625 -0.25280234 2.3509758e-38
-1.7570881 1.8684 -0.27907652 2.3509759e-38
-1.7553535 1.851864 -0.29107279 2.3509759e-38
-1.7554963 1.8383821 -0.29560521 2.3509761e-38
-1.7553339 1.8312093 -0.29882029 2.3509761e-38
-1.7512277 1.784531 -0.33001998 2.3509761e-38
-1.7504334 1.7712837 -0.33762389 2.3509762e-38
-1.7503487 1.7550904 -0.34393215 2.3509762e-38
-1.7500778 1.7507513 -0.34645844 2.3509764e-38
-1.7483013 1.716879 -0.36504358 2.3509764e-38
-1.7479603 1.7099099 -0.36878467 2.3509764e-38
-1.7476193 1.7029414 -0.37252599 2.3509765e-38
-1.7480001 1.690918 -0.37571359 2.3509765e-38
-1.7475139 1.6472877 -0.39357936 2.3509767e-38
-1.749594 1.6164448 -0.39803946 2.3509767e-38
-1.7494377 1.606406 -0.40229967 2.3509767e-38
-1.7491046 1.5995893 -0.40595746 2.3509768e-38
-1.7472421 1.5764264 -0.42084944 2.3509768e-38
-1.7460368 1.5439602 -0.43698627 2.3509768e-38
-1.7485831 1.5042881 -0.44315869 2.3509769e-38
-1.7484003 1.4974332 -0.44632429 2.3509769e-38
-1.7479956 1.4897332 -0.45055217 2.3509771e-38
-1.7452552 1.46586 -0.46866718 2.3509771e-38
-1.7431821 1.4367424 -0.48648396 2.3509771e-38
-1.7450645 1.3924633 -0.49660718 2.3509772e-38
-1.7425336 1.368536 -0.514036 2.3509772e-38
-1.7441536 1.3504237 -0.51531202 2.3509774e-38
-1.7442437 1.3340492 -0.52109814 2.3509774e-38
-1.7442523 1.3214002 -0.52577335 2.3509774e-38
-1.7442133 1.31344 -0.52886522 2.3509775e-38
-1.7439474 1.3043859 -0.53312927 2.3509775e-38
-1.7436321 1.2979511 -0.53658473 2.3509775e-38
-1.743317 1.2915165 -0.54004049 2.3509776e-38
-1.7427138 1.2838992 -0.5449065 2.3509776e-38
-1.7431084 1.2714311 -0.54821336 2.3509778e-38
-1.743374 1.2592529 -0.55184686 2.3509778e-38
-1.7403638 1.236165 -0.57057941 2.3509778e-38
-1.7401252 1.2239683 -0.57591969 2.3509779e-38
-1.7418997 1.1887459 -0.58303833 2.3509779e-38
-1.7415894 1.1824166 -0.5864383 2.3509781e-38
-1.7412518 1.1685082 -0.59274924 2.3509781e-38
-1.740379 1.1552455 -0.60062307 2.3509781e-38
-1.7401205 1.1474215 -0.60440385 2.3509782e-38
-1.7404262 1.1100121 -0.61728674 2.3509782e-38
-1.7305236 1.0896901 -0.65822154 2.3509782e-38
-1.7270557 1.0840602 -0.67200321 2.3509783e-38
-1.7272755 1.0693012 -0.67675102 2.3509783e-38
-1.7265497 1.0557426 -0.68424022 2.3509785e-38
-1.7265815 1.0479103 -0.68704611 2.3509785e-38
-1.7264035 1.0416572 -0.68997198 2.3509785e-38
-1.7262255 1.0354041 -0.69289762 2.3509786e-38
-1.7267503 1.01938 -0.6970883 2.3509786e-38
-1.7265738 1.0131503 -0.69999933 2.3509788e-38
-1.7265476 1.0057799 -0.70282888 2.3509788e-38
-1.7254586 0.99314541 -0.71119857 2.3509788e-38
-1.7257103 0.9770661 -0.71633041 2.3509789e-38
-1.7262564 0.96498358 -0.71898311 2.3509789e-38
-1.7263304 0.95646369 -0.72190249 2.350979e-38
-1.7263362 0.94435257 -0.72638655 2.350979e-38
-1.7260492 0.92134279 -0.73591208 2.350979e-38
-1.7260152 0.91431713 -0.73863947 2.3509792e-38
-1.7258434 0.90822214 -0.74148536 2.3509792e-38
-1.725293 0.90091836 -0.74605644 2.3509792e-38
-1.7253683 0.89330333 -0.74863499 2.3509793e-38
-1.725197 0.88724273 -0.75146681 2.3509793e-38
-1.7249101 0.87971896 -0.75523138 2.3509795e-38
-1.7252641 0.87286842 -0.75658685 2.3509795e-38
-1.7254786 0.86584914 -0.75847375 2.3509795e-38
-1.7254028 0.85961652 -0.76104707 2.3509796e-38
-1.7245526 0.84618825 -0.76890689 2.3509796e-38
-1.7246985 0.83089989 -0.77410096 2.3509797e-38
-1.7230583 0.80551696 -0.78906971 2.3509797e-38
-1.7236198 0.78706521 -0.79403949 2.3509797e-38
-1.7228315 0.77545732 -0.80101317 2.3509799e-38
-1.7226083 0.76239955 -0.80662239 2.3509799e-38
-1.7216207 0.74966431 -0.81468731 2.3509799e-38
-1.7221956 0.72382694 -0.82235837 2.35098e-38
-1.721913 0.71806061 -0.82545596 2.35098e-38
-1.7215471 0.7056632 -0.8312993 2.3509802e-38
-1.7216307 0.69792902 -0.83389425 2.3509802e-38
-1.7216949 0.69055897 -0.83641905 2.3509802e-38
-1.7214594 0.6835537 -0.83981788 2.3509803e-38
-1.7216209 0.67706501 -0.84168702 2.3509803e-38
-1.7215631 0.67046493 -0.84433639 2.3509804e-38
-1.7212064 0.65827858 -0.85007077 2.3509804e-38
-1.7209548 0.65298855 -0.85288608 2.3509804e-38
-1.7206236 0.64721447 -0.85615039 2.3509806e-38
-1.7210374 0.63468379 -0.85941535 2.3509806e-38
-1.7206125 0.62190509 -0.86559993 2.3509806e-38
-1.7205415 0.61006129 -0.87024468 2.3509807e-38
-1.7203988 0.60447776 -0.87280208 2.3509807e-38
-1.7205948 0.59333849 -0.87628412 2.3509809e-38
-1.720543 0.58834076 -0.87831682 2.3509809e-38
-1.7184168 0.56535429 -0.89403254 2.3509809e-38
-1.7202088 0.5397746 -0.89750618 2.350981e-38
-1.7198784 0.52768862 -0.90311402 2.350981e-38
-1.7181261 0.51547182 -0.91356462 2.3509811e-38
-1.7179521 0.50355875 -0.91858089 2.3509811e-38
-1.7177577 0.48568693 -0.92588317 2.3509811e-38
-1.7171781 0.44914949 -0.94142497 2.3509813e-38
-1.7172648 0.42440224 -0.95033693 2.3509813e-38
-1.7172174 0.41979465 -0.95221001 2.3509814e-38
-1.7169702 0.41456977 -0.95498675 2.3509814e-38
-1.7167228 0.40934488 -0.95776349 2.3509814e-38
-1.7169185 0.39732572 -0.96157396 2.3509816e-38
-1.7172079 0.38562423 -0.96495104 2.3509816e-38
-2.0993407 0.25846991 0.27572238 2.3509816e-38
-2.1028788 0.25364742 0.28585389 2.3509817e-38
-2.1061819 0.24831299 0.29500219 2.3509817e-38
-2.1153758 0.23400584 0.32066905 2.3509818e-38
-2.1173146 0.23180345 0.32638511 2.3509818e-38
-2.1236365 0.22849324 0.34646127 2.3509818e-38
-2.1267967 0.22562827 0.356047 2.350982e-38
-2.1424656 0.20488878 0.40114507 2.350982e-38
-2.1444366 0.20266044 0.40696001 2.3509821e-38
-2.1464329 0.20044343 0.41286385 2.3509821e-38
-2.1554279 0.18253861 0.43652231 2.3509821e-38
-2.1580844 0.18057133 0.44474387 2.3509823e-38
-2.1667945 0.18012874 0.4739365 2.3509823e-38
-2.1882501 0.18932451 0.54967088 2.3509823e-38
-2.1909935 0.1973184 0.56189138 2.3509824e-38
-2.193697 0.22364259 0.5807932 2.3509824e-38
-2.1966498 0.2473305 0.59955597 2.3509825e-38
-2.1968949 0.25607538 0.60363388 2.3509825e-38
-2.1972184 0.26235646 0.60706025 2.3509825e-38
-2.1973989 0.27596146 0.6127283 2.3509827e-38
-2.1990547 0.30909312 0.6306318 2.3509827e-38
-2.195617 0.34409401 0.63206184 2.3509828e-38
-2.1942868 0.35529622 0.63174522 2.3509828e-38
-2.1997964 0.38135019 0.66000432 2.3509828e-38
-2.2004087 0.40330467 0.67023259 2.350983e-38
-2.1999936 0.41091326 0.67166394 2.350983e-38
-2.1986308 0.44442293 0.67953295 2.350983e-38
-2.1989908 0.47310925 0.69141555 2.3509831e-38
-2.1815469 0.53191549 0.65449178 2.3509831e-38
-2.1794307 0.53294075 0.64774084 2.3509832e-38
-2.1767497 0.53402108 0.63910592 2.3509832e-38
-2.1655984 0.55115402 0.60789299 2.3509832e-38
-2.1612935 0.55426937 0.59454268 2.3509834e-38
-2.1593394 0.55897564 0.5897066 2.3509834e-38
-2.1459475 0.57632649 0.55102235 2.3509835e-38
-2.13118 0.59303808 0.50746441 2.3509835e-38
-2.1226356 0.60552406 0.48330903 2.3509835e-38
-2.1190751 0.61008984 0.47300667 2.3509837e-38
-2.1123643 0.61264914 0.4513405 2.3509837e-38
-2.1101341 0.62003613 0.44657144 2.3509838e-38
-2.1078355 0.63941264 0.44602969 2.3509838e-38
-2.0802236 0.66997874 0.36433277 2.3509838e-38
-2.0710492 0.66476017 0.33147082 2.3509839e-38
-2.0657051 0.66806012 0.31468579 2.3509839e-38
-2.0613286 0.67207474 0.3014282 2.3509839e-38
-2.0522158 0.68209404 0.27444002 2.3509841e-38
-2.0502162 0.68437815 0.26854923 2.3509841e-38
-2.0476291 0.6867702 0.26071972 2.3509842e-38
-2.0451992 0.6886723 0.25323698 2.3509842e-38
-2.0401881 0.7004714 0.24073565 2.3509842e-38
-2.030596 0.71360213 0.21328914 2.3509844e-38
-2.0256798 0.7180773 0.19838403 2.3509844e-38
-2.0190475 0.7195583 0.17658126 2.3509845e-38
-2.0054114 0.6859473 0.11812037 2.3509845e-38
-2.00547 0.67450494 0.11406252 2.3509845e-38
-2.0049553 0.65132099 0.10370509 2.3509846e-38
-2.0058937 0.6386435 0.10215282 2.3509846e-38
-2.0054314 0.62139505 0.094180062 2.3509846e-38
-2.0042334 0.60899824 0.085531704 2.3509848e-38
-2.0041199 0.59423649 0.079658955 2.3509848e-38
-2.0021484 0.57523543 0.065948196 2.3509849e-38
-2.0030086 0.55186397 0.060155012 2.3509849e-38
-2.0032291 0.54508835 0.058378283 2.3509849e-38
-2.0034499 0.53831184 0.056602277 2.3509851e-38
-2.0033677 0.52399486 0.051000737 2.3509851e-38
-2.0032389 0.51309574 0.046513218 2.3509852e-38
-2.0037558 0.48294207 0.037041046 2.3509852e-38
-2.003969 0.47627816 0.035280868 2.3509852e-38
-2.0031846 0.45683002 0.025404323 2.3509853e-38
-2.0028367 0.43585393 0.016430384 2.3509853e-38
-2.0020254 0.42818931 0.010844763 2.3509853e-38
-2.0165973 0.34667638 0.029644178 2.3509855e-38
-2.0186512 0.34434706 0.035700023 2.3509855e-38
-2.0212777 0.34229651 0.043789458 2.3509856e-38
-2.0305536 0.33651739 0.072904684 2.3509856e-38
-2.0326376 0.3341715 0.079056323 2.3509856e-38
-2.035253 0.33202559 0.087073401 2.3509858e-38
-2.0409184 0.32448012 0.10336218 2.3509858e-38
-2.0529299 0.30737707 0.13748495 2.3509859e-38
-2.0558627 0.30322367 0.14582595 2.3509859e-38
-2.0619752 0.29890314 0.16482103 2.3509859e-38
-2.067977 0.29143727 0.18227287 2.350986e-38
-2.070471 0.28934211 0.18990006 2.350986e-38
-2.0747867 0.28270015 0.20197563 2.3509862e-38
-2.0842559 0.27550858 0.23121673 2.3509862e-38
-2.0871978 0.27078509 0.23937465 2.3509862e-38
-2.090472 0.26676235 0.24891427 2.3509863e-38
-2.0935602 0.26325366 0.25801802 2.3509863e-38
-2.1074438 0.030281801 0.21816717 2.3509863e-38
-2.096483 0.05323682 0.18976219 2.3509865e-38
-2.0927966 0.059972834 0.17984235 2.3509865e-38
-2.0801585 0.087790571 0.14759144 2.3509866e-38
-2.0779731 0.090267226 0.14114743 2.3509866e-38
-2.0757995 0.092587978 0.13468425 2.3509866e-38
-2.0736625 0.094883725 0.1283353 2.3509867e-38
-2.0709746 0.097550631 0.12026777 2.3509867e-38
-2.0696001 0.09933985 0.11630034 2.3509869e-38
-2.0669627 0.10210688 0.10844042 2.3509869e-38
-2.062362 0.1047634 0.093921751 2.3509869e-38
-2.0555468 0.11396699 0.074374042 2.350987e-38
-2.0525579 0.11452376 0.064507738 2.350987e-38
-2.0420942 0.11170425 0.028191064 2.350987e-38
-2.0260398 0.16797683 -0.0049908897 2.3509872e-38
-2.0243826 0.17631181 -0.0074768341 2.3509872e-38
-2.0106606 0.24062341 -0.029808156 2.3509873e-38
-2.0115247 0.25966564 -0.019813126 2.3509873e-38
-2.0139005 0.27665535 -0.005487306 2.3509873e-38
-2.0193157 0.29045159 0.017895909 2.3509874e-38
-2.0253091 0.29716915 0.040594485 2.3509874e-38
-2.0323739 0.29240587 0.0626342 2.3509876e-38
-2.0410094 0.27826434 0.086481296 2.3509876e-38
-2.0529847 0.25311717 0.1174904 2.3509876e-38
-2.0605631 0.23874548 0.13768813 2.3509877e-38
-2.0710394 0.22160336 0.16662304 2.3509877e-38
-2.0773633 0.20706832 0.18253133 2.3509877e-38
-2.0828159 0.1955047 0.19660851 2.3509879e-38
-2.0844276 0.19328906 0.20121685 2.3509879e-38
-2.0880427 0.18902707 0.21181673 2.350988e-38
-2.090203 0.18658817 0.21819055 2.350988e-38
-2.0993423 0.16458373 0.24080975 2.350988e-38
-2.110523 0.14846335 0.27249888 2.3509881e-38
-2.1124039 0.14487892 0.27750531 2.3509881e-38
-2.131712 0.083862446 0.31988931 2.3509883e-38
-2.1320457 0.077098548 0.31849885 2.3509883e-38
-2.1296659 0.046894267 0.29924458 2.3509883e-38
-2.1282227 0.042241082 0.29265004 2.3509884e-38
-2.1256273 0.031994112 0.2800909 2.3509884e-38
