# .PCD v0.7 - Point Cloud Data file format
VERSION 0.7
FIELDS x y z rgb
SIZE 4 4 4 4
TYPE F F F F
COUNT 1 1 1 1
WIDTH 351
HEIGHT 1
VIEWPOINT 0 0 0 1 0 0 0
POINTS 351
DATA ascii
-1.0519603 0.95958871 -0.12791353 2.3509528e-38
-1.0621825 0.96255749 -0.13606291 2.3509528e-38
-1.0659754 0.96289712 -0.1372406 2.350953e-38
-1.086762 0.96509558 -0.14451124 2.3509531e-38
-1.1044428 0.96584034 -0.14796945 2.3509531e-38
-1.1126125 0.96665257 -0.15070149 2.3509532e-38
-1.1287959 0.96820569 -0.15597822 2.3509534e-38
-1.1657743 0.97035837 -0.16465254 2.3509535e-38
-1.1803567 0.9681958 -0.16077641 2.3509535e-38
-1.207238 0.9555549 -0.13266142 2.3509537e-38
-1.2426753 0.9525969 -0.12880853 2.3509538e-38
-1.2602112 0.95246875 -0.13013808 2.3509538e-38
-1.2779807 0.95396239 -0.13541894 2.3509539e-38
-1.2860641 0.95230991 -0.13217105 2.3509541e-38
-1.3038558 0.95028603 -0.12893113 2.3509542e-38
-1.3189118 0.94695342 -0.12226416 2.3509542e-38
-1.3242089 0.94510025 -0.11826939 2.3509544e-38
-1.3439069 0.94029772 -0.10847506 2.3509545e-38
-1.3742076 0.93881279 -0.10771094 2.3509547e-38
-1.3924211 0.9400481 -0.11240733 2.3509547e-38
-1.4221497 0.96472579 -0.17498168 2.3509548e-38
-1.402918 0.97500098 -0.19807982 2.3509549e-38
-1.3893356 0.9785611 -0.20543562 2.3509549e-38
-1.3825394 0.98039818 -0.20925145 2.3509551e-38
-1.3737545 0.98466992 -0.21878032 2.3509552e-38
-1.3674732 0.98752171 -0.22510266 2.3509554e-38
-1.3748894 0.98946452 -0.23050362 2.3509554e-38
-1.3871455 0.99067897 -0.23459251 2.3509555e-38
-1.4189494 0.99627787 -0.25113299 2.3509556e-38
-1.4299823 0.99617648 -0.25191915 2.3509558e-38
-1.4594767 0.99907017 -0.26168907 2.3509558e-38
-1.4812503 0.99927336 -0.26421762 2.3509559e-38
-1.5029851 1.0009334 -0.27027276 2.3509561e-38
-1.5386385 1.0027699 -0.27805695 2.3509561e-38
-1.5737482 1.0062234 -0.28970832 2.3509562e-38
-1.5866083 1.0096836 -0.29929498 2.3509563e-38
-1.6086838 1.0094912 -0.30089337 2.3509565e-38
-1.6194738 1.0104222 -0.30415836 2.3509565e-38
-1.6411655 1.0128703 -0.31211865 2.3509566e-38
-1.6761477 1.014419 -0.31914282 2.3509568e-38
-1.6946018 1.0133517 -0.31828243 2.3509569e-38
-1.7298681 1.0171796 -0.33085573 2.3509569e-38
-1.7598015 1.0199778 -0.34043527 2.350957e-38
-1.7970603 1.0208251 -0.3459729 2.3509572e-38
-1.8021262 1.0176576 -0.33877203 2.3509572e-38
-1.8456565 1.0052232 -0.31271419 2.3509573e-38
-1.8120962 1.0099843 -0.32111171 2.3509575e-38
-1.772236 1.0093278 -0.31579304 2.3509576e-38
-1.744517 1.0092955 -0.31312248 2.3509576e-38
-1.7383943 1.0089009 -0.31159395 2.3509577e-38
-1.7196351 1.0068254 -0.30481058 2.3509579e-38
-1.7012318 1.0084546 -0.30703703 2.350958e-38
-1.6718768 0.97552246 -0.22449705 2.350958e-38
-1.7271154 0.95789653 -0.18695565 2.3509582e-38
-1.7554264 0.95553201 -0.18387412 2.3509583e-38
-1.8143181 0.94922155 -0.17409162 2.3509583e-38
-1.819626 0.92591929 -0.11812656 2.3509584e-38
-1.8721448 0.90825623 -0.080240764 2.3509586e-38
-1.8802689 0.90588665 -0.075259015 2.3509587e-38
-1.8864828 0.90343124 -0.069890633 2.3509587e-38
-1.9108853 0.89742196 -0.057612419 2.3509589e-38
-1.9215236 0.89177287 -0.044919543 2.350959e-38
-1.9508069 0.88616848 -0.034078933 2.3509591e-38
-1.9151633 0.90694028 -0.081075363 2.3509591e-38
-1.9117862 0.90930176 -0.086481452 2.3509593e-38
-1.9022292 0.92107588 -0.11411633 2.3509594e-38
-1.8861471 0.93167305 -0.13828918 2.3509594e-38
-1.8704221 0.94035476 -0.15785433 2.3509596e-38
-1.8716854 0.9587692 -0.20259058 2.3509597e-38
-1.8652782 0.96508175 -0.21728671 2.3509598e-38
-1.8724076 0.98028392 -0.25478828 2.3509598e-38
-1.8688048 0.99511611 -0.29038972 2.35096e-38
-1.858783 0.99987078 -0.30097288 2.3509601e-38
-1.8494403 0.97206551 -0.23272716 2.3509603e-38
-1.8112159 0.96162629 -0.20385805 2.3509603e-38
-1.7839057 0.95715916 -0.19048019 2.3509604e-38
-0.96083313 0.49723861 1.0008825 2.3509605e-38
-0.9568845 0.50167245 0.99050856 2.3509605e-38
-0.95882982 0.50344378 0.98603475 2.3509607e-38
-0.96098453 0.5060693 0.97947162 2.3509608e-38
-0.97056532 0.50928515 0.97078359 2.350961e-38
-0.98115724 0.50871527 0.97117388 2.350961e-38
-0.99577725 0.50881511 0.96956462 2.3509611e-38
-1.0109251 0.50925171 0.96709007 2.3509612e-38
-1.0172603 0.50896794 0.96718508 2.3509614e-38
-1.0290599 0.50885928 0.96634489 2.3509614e-38
-1.0432041 0.50933045 0.96388036 2.3509615e-38
-1.063552 0.50850475 0.96397811 2.3509617e-38
-1.0789725 0.50864923 0.96218586 2.3509617e-38
-1.0955502 0.50861484 0.96071893 2.3509618e-38
-1.103933 0.50867033 0.95980036 2.3509619e-38
-1.124635 0.51147085 0.95107859 2.3509621e-38
-1.1358118 0.51324201 0.94574177 2.3509621e-38
-1.1427859 0.51368916 0.94400615 2.3509622e-38
-1.150059 0.51419109 0.9421097 2.3509624e-38
-1.161888 0.51578003 0.9371534 2.3509625e-38
-1.1702518 0.5159927 0.93585604 2.3509625e-38
-1.1775953 0.51642621 0.93411875 2.3509626e-38
-1.1916192 0.51762164 0.92991072 2.3509628e-38
-1.2111392 0.5188148 0.92519408 2.3509628e-38
-1.2269708 0.52213347 0.9156723 2.3509629e-38
-1.244514 0.5250954 0.90685493 2.3509631e-38
-1.2648795 0.52810353 0.89766163 2.3509632e-38
-1.2702978 0.52939862 0.89401698 2.3509632e-38
-1.2832445 0.53115535 0.88854963 2.3509633e-38
-1.2974243 0.53454888 0.8790009 2.3509635e-38
-1.3080499 0.53591555 0.87469566 2.3509636e-38
-1.3209559 0.53780746 0.86890465 2.3509636e-38
-1.3324449 0.53756875 0.8684085 2.3509638e-38
-1.3352683 0.53760254 0.86806267 2.3509639e-38
-1.3437864 0.53800833 0.86628276 2.3509639e-38
-1.3905102 0.55436343 0.82228464 2.350964e-38
-1.3900305 0.56015164 0.80830479 2.3509642e-38
-1.3808827 0.56940079 0.78674954 2.3509643e-38
-1.3753204 0.57296288 0.77863884 2.3509643e-38
-1.3697854 0.57846767 0.76581842 2.3509645e-38
-1.358497 0.59447563 0.72808683 2.3509646e-38
-1.3546269 0.59761566 0.72084039 2.3509647e-38
-1.3477633 0.60587609 0.70146728 2.3509647e-38
-1.3432486 0.61637974 0.67643929 2.3509649e-38
-1.3359045 0.6220687 0.66334176 2.350965e-38
-1.327274 0.62679231 0.65270358 2.350965e-38
-1.3204679 0.6333226 0.63751727 2.3509652e-38
-1.3196266 0.63520437 0.63303643 2.3509653e-38
-1.3166591 0.6387918 0.62462163 2.3509654e-38
-1.3143401 0.64095259 0.6196028 2.3509654e-38
-1.3093597 0.64911753 0.60028511 2.3509656e-38
-1.3069566 0.65141243 0.59494931 2.3509657e-38
-1.3002465 0.65851396 0.5783698 2.3509657e-38
-1.2902138 0.6686179 0.55482632 2.3509659e-38
-1.2818602 0.67888778 0.53072351 2.350966e-38
-1.2659162 0.68980575 0.50576043 2.3509661e-38
-1.2630397 0.69783235 0.486581 2.3509661e-38
-1.260774 0.70511812 0.46913955 2.3509663e-38
-1.2573183 0.70914406 0.45970795 2.3509664e-38
-1.2548162 0.71273166 0.451249 2.3509666e-38
-1.2523606 0.71525079 0.445375 2.3509666e-38
-1.2504576 0.71722645 0.44076598 2.3509667e-38
-1.2404727 0.72381741 0.42572975 2.3509668e-38
-1.2272042 0.73608267 0.39725202 2.3509668e-38
-1.2237456 0.74575782 0.37413272 2.350967e-38
-1.2227104 0.74817055 0.36838344 2.3509671e-38
-1.2218304 0.7512933 0.36089927 2.3509673e-38
-1.2215589 0.7551983 0.35146287 2.3509673e-38
-1.2201821 0.75913966 0.34204182 2.3509674e-38
-1.21673 0.76322591 0.33246362 2.3509675e-38
-1.2118344 0.76768196 0.32212451 2.3509677e-38
-1.2039895 0.77294326 0.31011 2.3509677e-38
-1.2036978 0.77482349 0.30558136 2.3509678e-38
-1.2029887 0.77864099 0.29639795 2.350968e-38
-1.1931392 0.78852534 0.27336943 2.350968e-38
-1.1894979 0.79296207 0.26295966 2.3509681e-38
-1.18595 0.79926521 0.24801897 2.3509682e-38
-1.1808763 0.80509263 0.2343736 2.3509684e-38
-1.1713338 0.81354129 0.21479519 2.3509684e-38
-1.1623259 0.82282078 0.19315332 2.3509685e-38
-1.1607103 0.82428944 0.18974587 2.3509687e-38
-1.1482189 0.83403516 0.16730024 2.3509688e-38
-1.1480656 0.83959079 0.15385336 2.3509688e-38
-1.1424161 0.84615403 0.1384789 2.3509689e-38
-1.138158 0.8535288 0.12100815 2.3509691e-38
-1.1346277 0.85722274 0.11238782 2.3509691e-38
-1.1298112 0.86084098 0.10407133 2.3509692e-38
-1.1284567 0.86270803 0.09967415 2.3509694e-38
-1.1215167 0.86850947 0.086266294 2.3509695e-38
-1.1185986 0.87025255 0.082315639 2.3509695e-38
-1.1172789 0.87572318 0.069183789 2.3509696e-38
-1.1115652 0.88370544 0.050377186 2.3509698e-38
-1.0990777 0.89177364 0.031995818 2.3509699e-38
-1.0905166 0.90382975 0.0035844082 2.3509699e-38
-1.0895255 0.90619981 -0.0020654125 2.3509701e-38
-1.0871887 0.90952742 -0.0099096717 2.3509702e-38
-1.0833429 0.91503316 -0.022890573 2.3509702e-38
-1.0726758 0.9246133 -0.045105457 2.3509703e-38
-1.0680891 0.93197322 -0.062509693 2.3509705e-38
-1.0684767 0.93746752 -0.075858451 2.3509706e-38
-1.0646143 0.94315618 -0.089280941 2.3509706e-38
-1.0543846 0.9520697 -0.10992167 2.3509708e-38
-1.051585 0.9535346 -0.11320928 2.3509709e-38
-1.0492553 0.95545596 -0.11764695 2.350971e-38
-1.0499389 0.95749462 -0.12265047 2.350971e-38
-1.9783691 0.8495822 0.05199194 2.3509712e-38
-1.9886539 0.83762491 0.080002621 2.3509713e-38
-1.969883 0.82665199 0.10834546 2.3509713e-38
-1.9761952 0.79415786 0.18648829 2.3509715e-38
-2.0338314 0.79270464 0.18461922 2.3509716e-38
-2.0328395 0.77773619 0.22098042 2.3509717e-38
-2.0243955 0.77219737 0.23519075 2.3509717e-38
-2.0216825 0.76304412 0.25762296 2.3509719e-38
-2.0253685 0.75655031 0.27301252 2.350972e-38
-2.0361235 0.74748683 0.29396757 2.3509722e-38
-2.0526705 0.74115419 0.30776393 2.3509722e-38
-2.0652747 0.73715985 0.31626347 2.3509723e-38
-2.0747342 0.7350409 0.3205131 2.3509724e-38
-2.0842786 0.72552639 0.34267405 2.3509724e-38
-2.05953 0.71390188 0.37315488 2.3509726e-38
-1.9795798 0.71394002 0.38053948 2.3509727e-38
-1.9678866 0.70270419 0.40885752 2.3509729e-38
-1.9748878 0.68983436 0.43938634 2.3509729e-38
-1.9854994 0.68480349 0.4505837 2.350973e-38
-1.9946538 0.68183035 0.45693144 2.3509731e-38
-2.0473895 0.67414737 0.47061539 2.3509733e-38
-2.0778179 0.67869687 0.4567461 2.3509733e-38
-2.0970573 0.67722893 0.4585036 2.3509734e-38
-2.1085453 0.67312187 0.46738073 2.3509736e-38
-2.1037304 0.66376072 0.49051303 2.3509736e-38
-2.1075168 0.65587711 0.50926083 2.3509737e-38
-2.1277652 0.64219445 0.54052013 2.3509738e-38
-2.140353 0.62453735 0.5821262 2.350974e-38
-2.1438143 0.61702293 0.60000968 2.350974e-38
-2.1463137 0.6087566 0.61980546 2.3509741e-38
-2.1502619 0.59660959 0.64886832 2.3509743e-38
-2.1487715 0.59364372 0.65619403 2.3509744e-38
-2.1874986 0.56789321 0.71496546 2.3509744e-38
-2.1904824 0.55817491 0.73823392 2.3509745e-38
-2.197274 0.54998434 0.75744456 2.3509747e-38
-2.1922331 0.54742932 0.76410681 2.3509747e-38
-2.2196484 0.51582819 0.83811235 2.3509748e-38
-2.2395957 0.49866027 0.87784469 2.350975e-38
-2.2757256 0.48245254 0.91373694 2.3509751e-38
-2.2549703 0.46759516 0.9516775 2.3509751e-38
-2.2598617 0.44879118 0.99678206 2.3509752e-38
-2.274528 0.44252512 1.0105931 2.3509754e-38
-2.264581 0.42728895 1.0484406 2.3509755e-38
-2.2670338 0.42216381 1.0606294 2.3509755e-38
-2.228744 0.42485628 1.0576864 2.3509757e-38
-2.1745672 0.42343271 1.0662025 2.3509758e-38
-2.121186 0.4125447 1.0975765 2.3509758e-38
-2.0998955 0.40984586 1.1061069 2.3509759e-38
-2.0889969 0.41020727 1.1062505 2.3509761e-38
-2.0677681 0.41245857 1.1027809 2.3509762e-38
-2.0644679 0.41326731 1.10113 2.3509762e-38
-2.037786 0.41865611 1.0905683 2.3509764e-38
-2.0183892 0.42621207 1.0740743 2.3509765e-38
-1.9936503 0.43471465 1.0557863 2.3509767e-38
-1.9051841 0.44925556 1.0288272 2.3509767e-38
-1.8955054 0.44742951 1.0341569 2.3509768e-38
-1.8519193 0.41691303 1.1121745 2.3509769e-38
-1.8310189 0.41866425 1.1098861 2.3509769e-38
-1.8244615 0.42004144 1.1071624 2.3509771e-38
-1.8209473 0.42098194 1.1052121 2.3509772e-38
-1.797202 0.42504248 1.0975943 2.3509774e-38
-1.7539072 0.41975209 1.1144619 2.3509774e-38
-1.7390953 0.41932634 1.1168787 2.3509775e-38
-1.7132888 0.4196381 1.1185368 2.3509776e-38
-1.7019211 0.419388 1.120206 2.3509776e-38
-1.6848047 0.42614695 1.1054298 2.3509778e-38
-1.656634 0.43627787 1.0835172 2.3509779e-38
-1.6271523 0.44466138 1.0659611 2.3509781e-38
-1.6061726 0.44969398 1.0557293 2.3509781e-38
-1.5811105 0.46181813 1.0286963 2.3509782e-38
-1.5698206 0.4640722 1.0242906 2.3509783e-38
-1.5556517 0.46739817 1.0175569 2.3509785e-38
-1.5464015 0.47171253 1.0079683 2.3509785e-38
-1.5257646 0.47824878 0.99406099 2.3509786e-38
-1.5152904 0.48077646 0.98891598 2.3509788e-38
-1.4930444 0.4887183 0.97175342 2.3509788e-38
-1.4916416 0.48922008 0.97066879 2.3509789e-38
-1.4635477 0.49949834 0.94839197 2.350979e-38
-1.4500288 0.50269949 0.9418999 2.3509792e-38
-1.4259835 0.51073986 0.924667 2.3509792e-38
-1.4186468 0.51481318 0.91548342 2.3509793e-38
-1.411569 0.51848364 0.90725183 2.3509795e-38
-1.3264825 0.53192759 0.8826347 2.3509796e-38
-1.2931703 0.52936298 0.8919642 2.3509796e-38
-1.2719005 0.52641225 0.9011029 2.3509797e-38
-1.2599241 0.52436984 0.90717191 2.3509799e-38
-1.2469323 0.52273107 0.91235751 2.3509799e-38
-1.2324775 0.52004886 0.92020839 2.35098e-38
-1.2229902 0.51750892 0.92724985 2.3509802e-38
-1.218667 0.51618969 0.9308508 2.3509803e-38
-1.2018937 0.51566333 0.93369472 2.3509803e-38
-1.1858758 0.51510525 0.93654513 2.3509804e-38
-1.1668262 0.51444036 0.93993765 2.3509806e-38
-1.1488675 0.51121873 0.94942319 2.3509807e-38
-1.1452868 0.51002985 0.95263869 2.3509807e-38
-1.1359938 0.50770986 0.95912927 2.3509809e-38
-1.1271001 0.50784224 0.95964015 2.350981e-38
-1.1127745 0.50702965 0.96294892 2.350981e-38
-1.1058956 0.50609905 0.96584707 2.3509811e-38
-1.0843614 0.50518912 0.97006571 2.3509813e-38
-1.066245 0.50466567 0.9730283 2.3509814e-38
-1.0463661 0.50604063 0.97155595 2.3509814e-38
-1.0391375 0.50585967 0.97267044 2.3509816e-38
-1.0343381 0.5063895 0.97183555 2.3509817e-38
-1.0162672 0.50702286 0.97199088 2.3509818e-38
-0.97438091 0.48532709 1.0284771 2.3509818e-38
-0.97481096 0.48201075 1.0364723 2.350982e-38
-0.9700231 0.47815996 1.0462506 2.3509821e-38
-0.96762043 0.48724082 1.0244724 2.3509821e-38
-0.96190721 0.49462718 1.0071095 2.3509823e-38
-1.8250101 0.85309654 0.057819236 2.3509824e-38
-1.8587123 0.85038579 0.06123545 2.3509825e-38
-1.9270378 0.84762549 0.061533649 2.3509825e-38
-1.9668449 0.86226392 0.022341955 2.3509827e-38
-1.97458 0.85916919 0.029117122 2.3509828e-38
-1.9756761 0.85634089 0.035867531 2.350983e-38
-1.7719475 0.85201663 0.06539847 2.350983e-38
-1.7343867 0.86947376 0.026612604 2.3509831e-38
-1.765501 0.89344931 -0.03439007 2.3509832e-38
-1.7539761 0.89320332 -0.032716081 2.3509832e-38
-1.695671 0.91326714 -0.075877868 2.3509834e-38
-1.6791672 0.918854 -0.087871313 2.3509835e-38
-1.6687131 0.94142699 -0.14158802 2.3509837e-38
-1.7276603 0.95014817 -0.16823228 2.3509837e-38
-2.0630529 0.46424136 0.97775233 2.3509838e-38
-2.0890479 0.47668746 0.94516432 2.3509839e-38
-2.0526552 0.50335813 0.88394487 2.3509841e-38
-2.0135949 0.50633794 0.88037771 2.3509841e-38
-1.9904739 0.50724465 0.88034326 2.3509842e-38
-1.9687322 0.50779682 0.88103855 2.3509844e-38
-1.9537774 0.5071398 0.88402921 2.3509844e-38
-1.927546 0.50547457 0.89051735 2.3509845e-38
-1.9171003 0.50377238 0.89561868 2.3509846e-38
-1.9095538 0.50196493 0.90070385 2.3509848e-38
-1.8844488 0.48769 0.93763983 2.3509848e-38
-1.8982207 0.47181883 0.97480768 2.3509849e-38
-1.9063694 0.46697986 0.98577034 2.3509851e-38
-1.9120013 0.45943689 1.0035203 2.3509852e-38
-1.9179767 0.45496428 1.0137986 2.3509852e-38
-2.0035641 0.43963242 1.0429434 2.3509853e-38
-2.0537956 0.45402288 1.0033774 2.3509855e-38
-1.7169455 0.6358934 0.59420866 2.3509855e-38
-1.7450999 0.62656903 0.61416852 2.3509856e-38
-1.7493695 0.62330884 0.62166852 2.3509858e-38
-1.7523476 0.62050599 0.6281814 2.3509859e-38
-1.7851546 0.60738689 0.65690082 2.3509859e-38
-1.8009572 0.60526317 0.66056854 2.350986e-38
-1.8240467 0.60508072 0.65885133 2.3509862e-38
-1.825116 0.60510391 0.6586951 2.3509863e-38
-1.8499622 0.60138845 0.66537392 2.3509863e-38
-1.9218963 0.61431861 0.62731677 2.3509865e-38
-1.9236584 0.62194175 0.60868108 2.3509866e-38
-1.9169253 0.63026255 0.58914959 2.3509866e-38
-1.9003057 0.64095581 0.56479394 2.3509867e-38
-1.8968025 0.65009642 0.54297394 2.3509869e-38
-1.8791509 0.65941411 0.52204818 2.350987e-38
-1.8525681 0.66663271 0.50704342 2.350987e-38
-1.8195543 0.68331856 0.46970126 2.3509872e-38
-1.7603927 0.69397974 0.44940215 2.3509873e-38
-1.7444911 0.6920706 0.45551515 2.3509874e-38
-1.720643 0.67890543 0.48964477 2.3509874e-38
-1.7078791 0.67231727 0.50680149 2.3509876e-38
-1.7005306 0.64880586 0.56445694 2.3509877e-38
-1.7098058 0.63935399 0.58649129 2.3509877e-38
-1.7606153 0.69492441 0.44709241 2.3509879e-38
-1.7392457 0.69688362 0.44434381 2.350988e-38
-1.6843934 0.71997613 0.39352071 2.3509881e-38
-1.7117643 0.74099708 0.34002715 2.3509881e-38
-1.7442689 0.74194026 0.3347019 2.3509883e-38
-1.8103726 0.7179845 0.38656446 2.3509884e-38
