# .PCD v0.7 - Point Cloud Data file format
VERSION 0.7
FIELDS x y z rgb
SIZE 4 4 4 4
TYPE F F F F
COUNT 1 1 1 1
WIDTH 172
HEIGHT 1
VIEWPOINT 0 0 0 1 0 0 0
POINTS 172
DATA ascii
1.7936193 1.7787758 -1.8988979 2.3509528e-38
1.799306 1.8104243 -1.882206 2.350953e-38
1.8419275 1.8036888 -1.8660111 2.3509531e-38
1.8565614 1.7974206 -1.8622169 2.3509534e-38
1.861505 1.7901235 -1.8632475 2.3509535e-38
1.8602514 1.7660102 -1.874578 2.3509538e-38
1.8648599 1.7368375 -1.8855264 2.3509539e-38
1.8687267 1.7208811 -1.8909081 2.3509542e-38
1.8573077 1.7084699 -1.9015936 2.3509544e-38
1.9166118 1.6332552 -1.9084566 2.3509547e-38
1.9255317 1.6367744 -1.9028666 2.3509548e-38
1.9445382 1.6448287 -1.890708 2.3509551e-38
1.9470841 1.5897465 -1.914153 2.3509552e-38
1.9696319 1.5537927 -1.920047 2.3509555e-38
1.9705752 1.5444759 -1.9237815 2.3509556e-38
1.992981 1.5088607 -1.9295878 2.3509559e-38
2.0172212 1.4912298 -1.9265391 2.3509561e-38
2.0224288 1.4882419 -1.9255267 2.3509563e-38
2.0393803 1.4806957 -1.921259 2.3509565e-38
2.0527635 1.4714803 -1.9193438 2.3509568e-38
2.081424 1.4531013 -1.9146371 2.3509569e-38
2.0912764 1.4495366 -1.9117901 2.3509572e-38
2.0958798 1.4466314 -1.9110128 2.3509573e-38
2.105612 1.4359692 -1.9113885 2.3509576e-38
2.1250863 1.4146442 -1.9121357 2.3509577e-38
2.1481886 1.405907 -1.9056286 2.350958e-38
2.1802118 1.3978052 -1.8948183 2.3509582e-38
2.1933477 1.3956532 -1.8898611 2.3509584e-38
2.2409937 1.4034965 -1.8648938 2.3509586e-38
2.2436419 1.343405 -1.8905294 2.3509587e-38
2.2639327 1.3240494 -1.8900294 2.350959e-38
2.2738898 1.3132006 -1.8903873 2.3509591e-38
2.2791815 1.3030342 -1.8925424 2.3509594e-38
2.27614 1.2496839 -1.9177315 2.3509596e-38
2.2838202 1.2209491 -1.9271004 2.3509598e-38
2.2850633 1.2115958 -1.9307162 2.35096e-38
2.3445575 1.1491679 -1.9317845 2.3509603e-38
2.3798733 1.1814693 -1.9014528 2.3509604e-38
2.3847549 1.171465 -1.9037199 2.3509607e-38
2.4156756 1.129189 -1.9086641 2.3509608e-38
2.4204345 1.1192148 -1.9109731 2.3509611e-38
2.4352727 1.0990549 -1.9132891 2.3509612e-38
2.441606 1.0883576 -1.9152116 2.3509615e-38
2.4441502 1.0690969 -1.9226648 2.3509617e-38
2.4537513 1.0465876 -1.9283886 2.3509619e-38
2.4647143 1.0261415 -1.9325777 2.3509621e-38
2.4707389 1.0068115 -1.938494 2.3509624e-38
2.4721735 0.99741822 -1.9420413 2.3509625e-38
2.4811642 0.94099635 -1.963181 2.3509628e-38
2.4837377 0.90237767 -1.9792635 2.3509629e-38
2.4995451 0.88104582 -1.9816661 2.3509632e-38
2.5263176 0.85770661 -1.9800243 2.3509633e-38
2.5458179 0.84514707 -1.9768465 2.3509636e-38
2.5564005 0.83397377 -1.977067 2.3509638e-38
2.5580773 0.82418382 -1.9806827 2.350964e-38
2.5852168 0.77225679 -1.9916391 2.3509642e-38
2.5868979 0.76246601 -1.9952531 2.3509645e-38
2.5902596 0.74288476 -2.002481 2.3509646e-38
2.6025026 0.72192544 -2.0063226 2.3509647e-38
2.5818284 0.72183901 -2.0156755 2.350965e-38
2.5730233 0.72318798 -2.0190401 2.3509652e-38
2.5642123 0.72453839 -2.0224068 2.3509654e-38
2.5496857 0.72747946 -2.0276384 2.3509656e-38
2.5409167 0.72882193 -2.0309894 2.3509659e-38
2.5265396 0.73173404 -2.0361667 2.350966e-38
2.5178115 0.7330687 -2.0395029 2.3509663e-38
2.4885097 0.7438944 -2.0478709 2.3509664e-38
2.4516151 0.7510069 -2.061317 2.3509667e-38
2.4429905 0.75234586 -2.064605 2.3509668e-38
2.4143133 0.75686753 -2.075506 2.3509671e-38
2.4019961 0.75929934 -2.0799694 2.3509673e-38
2.3889024 0.7619521 -2.0846841 2.3509675e-38
2.376266 0.76471442 -2.0891438 2.3509677e-38
2.3678553 0.76557666 -2.0925481 2.350968e-38
2.3591597 0.76737267 -2.0956638 2.3509681e-38
2.3428094 0.77048784 -2.101639 2.3509684e-38
2.3312821 0.7715168 -2.1063728 2.3509685e-38
2.3227293 0.77284402 -2.1096339 2.3509688e-38
2.3141692 0.7741726 -2.1128972 2.3509689e-38
2.2877421 0.77961272 -2.1223743 2.3509692e-38
2.2792304 0.78093529 -2.1256187 2.3509694e-38
2.2707121 0.78225958 -2.1288652 2.3509696e-38
2.2397285 0.77928156 -2.1441534 2.3509698e-38
2.179858 0.7999441 -2.1619015 2.3509701e-38
2.1681507 0.79322988 -2.1701736 2.3509702e-38
2.139879 0.80708581 -2.1767244 2.3509705e-38
2.1206038 0.81020868 -2.1840141 2.3509706e-38
2.0878203 0.80736828 -2.200052 2.3509708e-38
2.0788388 0.80886036 -2.2034323 2.350971e-38
2.0538795 0.82135206 -2.2091 2.3509712e-38
2.0455413 0.82265246 -2.2122757 2.3509715e-38
2.0371957 0.82395488 -2.2154543 2.3509716e-38
2.0209 0.82740772 -2.2212543 2.3509719e-38
2.0060501 0.83092237 -2.2263753 2.350972e-38
1.9675978 0.82840115 -2.2448246 2.3509723e-38
1.9586923 0.82988036 -2.2481766 2.3509724e-38
1.9497868 0.83135957 -2.2515278 2.3509727e-38
1.9408817 0.83283931 -2.2548792 2.3509729e-38
1.931977 0.83431953 -2.2582302 2.3509731e-38
1.9085386 0.83936214 -2.2665384 2.3509733e-38
1.8997022 0.84083211 -2.2698631 2.3509736e-38
1.8908662 0.84230256 -2.2731876 2.3509737e-38
1.867561 0.85860491 -2.2764084 2.350974e-38
1.8419995 0.86227459 -2.2862864 2.3509741e-38
1.8221586 0.85445011 -2.2987185 2.3509744e-38
1.813359 0.85591584 -2.3020282 2.3509745e-38
1.7930694 0.85993487 -2.309375 2.3509748e-38
1.7843165 0.8613922 -2.3126678 2.350975e-38
1.7755635 0.86284995 -2.3159604 2.3509752e-38
1.7600758 0.86491877 -2.3220143 2.3509754e-38
1.7532974 0.86553353 -2.3247936 2.3509757e-38
1.7425252 0.86784136 -2.3286166 2.3509758e-38
1.7091517 0.87177688 -2.3418949 2.3509761e-38
1.7002844 0.87325048 -2.3452322 2.3509762e-38
1.6696657 0.87953871 -2.3562191 2.3509765e-38
1.6432557 0.88393366 -2.3661551 2.3509767e-38
1.6363393 0.8844831 -2.3690257 2.3509768e-38
1.637809 0.89621657 -2.3631251 2.3509771e-38
1.637368 0.90478539 -2.359498 2.3509772e-38
1.6383525 0.9211511 -2.3517478 2.3509775e-38
1.6379071 0.92975545 -2.3481069 2.3509776e-38
1.6358585 0.95509553 -2.3377166 2.3509779e-38
1.635411 0.96376717 -2.3340466 2.3509781e-38
1.6349635 0.97243893 -2.3303766 2.3509783e-38
1.6363386 0.98060018 -2.3261132 2.3509785e-38
1.6444495 0.99649638 -2.3153622 2.3509788e-38
1.6462775 1.0135516 -2.3069241 2.3509789e-38
1.6458268 1.0222244 -2.3032548 2.3509792e-38
1.6338763 1.0502561 -2.2961237 2.3509793e-38
1.6314548 1.0592945 -2.2931795 2.3509796e-38
1.6366905 1.0847502 -2.2794559 2.3509797e-38
1.6348701 1.1199918 -2.2645414 2.35098e-38
1.634415 1.1288024 -2.260813 2.3509802e-38
1.6381434 1.1456763 -2.2515993 2.3509804e-38
1.6355444 1.1656466 -2.2438545 2.3509806e-38
1.6350827 1.1745985 -2.2400656 2.3509809e-38
1.6346211 1.1835506 -2.2362769 2.350981e-38
1.6336981 1.2014546 -2.2286994 2.3509813e-38
1.6394187 1.2190173 -2.218281 2.3509814e-38
1.640455 1.2375222 -2.2095525 2.3509817e-38
1.6339835 1.2744262 -2.1959915 2.3509818e-38
1.6335185 1.2834524 -2.1921711 2.3509821e-38
1.6331238 1.2967714 -2.1864028 2.3509823e-38
1.6360269 1.3164732 -2.1762984 2.3509825e-38
1.6385249 1.3456862 -2.1621304 2.3509827e-38
1.6323245 1.3739632 -2.1522994 2.3509828e-38
1.6309246 1.3971936 -2.1425586 2.3509831e-38
1.6339718 1.4224902 -2.1298914 2.3509832e-38
1.6398371 1.4415555 -2.1187372 2.3509835e-38
1.644886 1.4795356 -2.0995057 2.3509837e-38
1.6439235 1.4982005 -2.0916061 2.3509839e-38
1.6434422 1.5075328 -2.0876563 2.3509841e-38
1.6429605 1.5168655 -2.0837069 2.3509844e-38
1.6444111 1.5416206 -2.072001 2.3509845e-38
1.6450782 1.5477419 -2.0689673 2.3509848e-38
1.6452217 1.5669868 -2.0603104 2.3509849e-38
1.6409982 1.598657 -2.0480738 2.3509852e-38
1.6401896 1.6079844 -2.0442739 2.3509853e-38
1.6332083 1.6323348 -2.0365477 2.3509856e-38
1.6325922 1.6414851 -2.0327399 2.3509858e-38
1.634638 1.6866384 -2.0116589 2.350986e-38
1.636856 1.6917028 -2.0083985 2.3509862e-38
1.6425123 1.7069849 -1.9990275 2.3509865e-38
1.6405135 1.7429708 -1.9838613 2.3509866e-38
1.653222 1.7274929 -1.9850463 2.3509869e-38
1.6511436 1.6960645 -2.0000143 2.350987e-38
1.6554337 1.6844486 -2.0032675 2.3509873e-38
1.7208973 1.6405154 -1.9933892 2.3509874e-38
1.755928 1.6651174 -1.9666231 2.3509877e-38
1.7632539 1.6816885 -1.9559243 2.3509879e-38
1.7733699 1.7086205 -1.9393425 2.3509881e-38
1.7831506 1.7585264 -1.9126549 2.3509883e-38
