# .PCD v0.7 - Point Cloud Data file format
VERSION 0.7
FIELDS x y z rgb
SIZE 4 4 4 4
TYPE F F F F
COUNT 1 1 1 1
WIDTH 198
HEIGHT 1
VIEWPOINT 0 0 0 1 0 0 0
POINTS 198
DATA ascii
-0.31865394 -0.88759446 2.18364 2.3509528e-38
-0.3120347 -0.90052098 2.1564276 2.350953e-38
-0.30715615 -0.89495683 2.1431248 2.3509531e-38
-0.29747343 -0.88394302 2.1167085 2.3509532e-38
-0.29707077 -0.88345701 2.1156225 2.3509535e-38
-0.29220736 -0.87791097 2.1023605 2.3509537e-38
-0.28988895 -0.87531102 2.0960188 2.3509538e-38
-0.28444836 -0.86910588 2.0811834 2.3509541e-38
-0.27387843 -0.8570348 2.0523682 2.3509542e-38
-0.27157459 -0.85444748 2.046068 2.3509544e-38
-0.26454243 -0.84638965 2.0269094 2.3509545e-38
-0.25808492 -0.83908576 2.0092735 2.3509548e-38
-0.24951185 -0.82933056 1.9858862 2.3509549e-38
-0.23981324 -0.81826216 1.9594431 2.3509551e-38
-0.23790859 -0.816118 1.9542369 2.3509554e-38
-0.23368157 -0.81129593 1.9427109 2.3509555e-38
-0.22744042 -0.80415106 1.9257045 2.3509556e-38
-0.22332451 -0.79945743 1.9144808 2.3509558e-38
-0.22170439 -0.79763716 1.9100506 2.3509561e-38
-0.21518476 -0.79020435 1.8922716 2.3509562e-38
-0.2019302 -0.77512527 1.8561116 2.3509563e-38
-0.20113379 -0.77421921 1.8539389 2.3509566e-38
-0.19363049 -0.76566154 1.8334789 2.3509568e-38
-0.19239017 -0.76426244 1.8300898 2.3509569e-38
-0.1895376 -0.76097083 1.8223286 2.350957e-38
-0.18697637 -0.75807154 1.8153348 2.3509573e-38
-0.18163659 -0.75198281 1.8007735 2.3509575e-38
-0.17698783 -0.74666375 1.7881048 2.3509576e-38
-0.17452742 -0.74104708 1.7826533 2.3509579e-38
-0.17420824 -0.72377664 1.7893487 2.350958e-38
-0.17303981 -0.70856625 1.7923728 2.3509582e-38
-0.17262776 -0.70530099 1.7925001 2.3509583e-38
-0.17349753 -0.68920088 1.8025204 2.3509586e-38
-0.17040184 -0.64861226 1.8106624 2.3509587e-38
-0.17357829 -0.62550735 1.8312846 2.3509589e-38
-0.17049903 -0.59302783 1.8358511 2.3509591e-38
-0.16952872 -0.58052099 1.8383068 2.3509593e-38
-0.16905725 -0.57660425 1.8385333 2.3509594e-38
-0.17118461 -0.54236454 1.8607421 2.3509596e-38
-0.17281461 -0.51278353 1.8792561 2.3509598e-38
-0.17157722 -0.49956828 1.8811643 2.35096e-38
-0.17114472 -0.49614105 1.8812979 2.3509601e-38
-0.17070489 -0.49287823 1.8813342 2.3509604e-38
-0.16948888 -0.48542681 1.8807322 2.3509605e-38
-0.16862386 -0.47857231 1.8809994 2.3509607e-38
-0.16939047 -0.4757666 1.8847367 2.3509608e-38
-0.17055456 -0.43535063 1.9065911 2.3509611e-38
-0.17001632 -0.41884738 1.9122338 2.3509612e-38
-0.16945158 -0.38648543 1.9248875 2.3509614e-38
-0.16900919 -0.38297993 1.9250243 2.3509617e-38
-0.17019193 -0.35708484 1.940441 2.3509618e-38
-0.17003417 -0.32657415 1.9535837 2.3509619e-38
-0.16988418 -0.31993887 1.9560674 2.3509621e-38
-0.16593742 -0.27389714 1.9638946 2.3509624e-38
-0.1669669 -0.25678629 1.9748844 2.3509625e-38
-0.16938399 -0.23734136 1.9914105 2.3509626e-38
-0.17009731 -0.22347412 1.9999253 2.3509629e-38
-0.1703603 -0.20555997 2.0087931 2.3509631e-38
-0.16981161 -0.18802482 2.0148637 2.3509632e-38
-0.17327817 -0.16386107 2.0368991 2.3509633e-38
-0.17252403 -0.14455731 2.0430961 2.3509636e-38
-0.16962978 -0.11085005 2.0488107 2.3509638e-38
-0.16888665 -0.073689736 2.0630343 2.3509639e-38
-0.1684124 -0.069931224 2.0631809 2.3509642e-38
-0.16931212 -0.04730479 2.0762188 2.3509643e-38
-0.16801342 -0.024669385 2.082144 2.3509645e-38
-0.16785705 -0.017224047 2.0849695 2.3509647e-38
-0.16780549 0.017868485 2.1005065 2.3509649e-38
-0.17054056 0.029942319 2.1147635 2.350965e-38
-0.16942029 0.065854944 2.1272078 2.3509652e-38
-0.16795328 0.077479854 2.127661 2.3509654e-38
-0.16356128 0.10084183 2.1238976 2.3509656e-38
-0.16761108 0.13043083 2.1502488 2.3509657e-38
-0.16769063 0.13857253 2.1541495 2.350966e-38
-0.16738641 0.15481991 2.1604354 2.3509661e-38
-0.16724858 0.16279249 2.1635571 2.3509663e-38
-0.16700226 0.16711318 2.1646931 2.3509664e-38
-0.1663717 0.17984796 2.1683505 2.3509667e-38
-0.16608532 0.18330362 2.1689699 2.3509668e-38
-0.16547887 0.19993173 2.1744478 2.350967e-38
-0.16821098 0.21751636 2.1911614 2.3509673e-38
-0.16283554 0.26745614 2.1961079 2.3509674e-38
-0.16221853 0.27150422 2.1959219 2.3509675e-38
-0.16411413 0.28094685 2.206284 2.3509677e-38
-0.16600136 0.29046765 2.2166538 2.350968e-38
-0.16862659 0.31365275 2.2355275 2.3509681e-38
-0.16823249 0.34849656 2.2498443 2.3509682e-38
-0.16725776 0.35649866 2.2502699 2.3509685e-38
-0.16667688 0.36139226 2.2505794 2.3509687e-38
-0.16654547 0.3705214 2.2542391 2.3509688e-38
-0.16701759 0.38041613 2.2601953 2.3509689e-38
-0.16694123 0.38913089 2.2638481 2.3509692e-38
-0.16580915 0.40587974 2.2676783 2.3509694e-38
-0.16534969 0.44180155 2.2822659 2.3509695e-38
-0.16475917 0.44677094 2.282578 2.3509698e-38
-0.1650192 0.45113143 2.2853711 2.3509699e-38
-0.16500901 0.4664329 2.2921855 2.3509701e-38
-0.16624917 0.50326037 2.3126805 2.3509702e-38
-0.16565172 0.5082944 2.312999 2.3509705e-38
-0.16535501 0.53650683 2.3246636 2.3509706e-38
-0.16661529 0.54284263 2.3315787 2.3509708e-38
-0.16692622 0.57690042 2.347826 2.350971e-38
-0.16581258 0.61019856 2.3591218 2.3509712e-38
-0.16446957 0.63288867 2.364928 2.3509713e-38
-0.16517225 0.65846294 2.3786471 2.3509715e-38
-0.16475292 0.66412091 2.3798215 2.3509717e-38
-0.16441059 0.69839716 2.394052 2.3509719e-38
-0.16449447 0.70801699 2.3986282 2.350972e-38
-0.16510212 0.73419636 2.4123106 2.3509723e-38
-0.16436237 0.74478072 2.4146523 2.3509724e-38
-0.1637125 0.75301713 2.4162345 2.3509726e-38
-0.15898636 0.78062052 2.4132874 2.3509727e-38
-0.16518597 0.81496775 2.4487269 2.350973e-38
-0.1708173 0.81541109 2.4671552 2.3509731e-38
-0.18004 0.79294378 2.4869571 2.3509733e-38
-0.19297051 0.78152388 2.5237052 2.3509736e-38
-0.19989374 0.7734006 2.5424821 2.3509737e-38
-0.20577538 0.77030861 2.5601382 2.3509738e-38
-0.22276038 0.78193545 2.6203251 2.350974e-38
-0.22336173 0.77717036 2.6201394 2.3509743e-38
-0.23465928 0.73584813 2.6382203 2.3509744e-38
-0.2535575 0.74221689 2.7022476 2.3509745e-38
-0.26099661 0.7338773 2.7225976 2.3509748e-38
-0.26151484 0.73325187 2.7239952 2.350975e-38
-0.26203305 0.73262644 2.7253928 2.3509751e-38
-0.26925629 0.72375131 2.7448044 2.3509752e-38
-0.28252107 0.67868191 2.7675765 2.3509755e-38
-0.29050454 0.66770041 2.7885065 2.3509757e-38
-0.29957977 0.65803838 2.8135612 2.3509758e-38
-0.30493519 0.6510489 2.82777 2.3509761e-38
-0.3069562 0.64907742 2.8334303 2.3509762e-38
-0.32556385 0.62327999 2.8821223 2.3509764e-38
-0.30915716 0.58573878 2.8122113 2.3509767e-38
-0.30567864 0.56015742 2.7895029 2.3509768e-38
-0.29614726 0.54762369 2.7530391 2.3509769e-38
-0.29266137 0.51080394 2.7252777 2.3509771e-38
-0.31427976 0.44823879 2.7672629 2.3509774e-38
-0.31618637 0.43313023 2.766674 2.3509775e-38
-0.31682199 0.42809394 2.7664778 2.3509776e-38
-0.30336511 0.38205439 2.7023127 2.3509779e-38
-0.30398554 0.37713823 2.702121 2.3509781e-38
-0.30460593 0.37222204 2.7019293 2.3509782e-38
-0.30494902 0.32435024 2.6816175 2.3509783e-38
-0.30618012 0.31459451 2.6812372 2.3509786e-38
-0.30679572 0.30971661 2.6810472 2.3509788e-38
-0.30741122 0.30483881 2.6808569 2.3509789e-38
-0.30802682 0.29996088 2.6806669 2.3509792e-38
-0.30864236 0.29508293 2.6804767 2.3509793e-38
-0.30925786 0.29020512 2.6802864 2.3509795e-38
-0.31356686 0.25606 2.6789556 2.3509796e-38
-0.31715465 0.23105519 2.6793802 2.3509799e-38
-0.31118864 0.18338302 2.6387339 2.35098e-38
-0.30912784 0.10808565 2.5983672 2.3509802e-38
-0.30008963 0.091658086 2.5617573 2.3509804e-38
-0.29924437 0.057579432 2.543771 2.3509806e-38
-0.29843009 0.01998271 2.5243106 2.3509807e-38
-0.30964965 -0.021626962 2.5420103 2.3509809e-38
-0.31023321 -0.026251845 2.5418298 2.3509811e-38
-0.31081685 -0.030876713 2.5416496 2.3509813e-38
-0.31305137 -0.045335006 2.542413 2.3509814e-38
-0.31586945 -0.06441813 2.5429959 2.3509817e-38
-0.31645307 -0.069043018 2.5428157 2.3509818e-38
-0.31703672 -0.073667876 2.5426354 2.350982e-38
-0.32053852 -0.10141711 2.5415537 2.3509821e-38
-0.32160571 -0.10662569 2.5426776 2.3509824e-38
-0.32218933 -0.11125057 2.5424974 2.3509825e-38
-0.32404035 -0.12916641 2.540472 2.3509827e-38
-0.31957293 -0.17881022 2.5037947 2.350983e-38
-0.31776962 -0.24501166 2.4683318 2.3509831e-38
-0.31833613 -0.24950188 2.4681566 2.3509832e-38
-0.31890279 -0.25399205 2.4679816 2.3509834e-38
-0.32050556 -0.26353905 2.4688978 2.3509837e-38
-0.32107222 -0.26802924 2.4687228 2.3509838e-38
-0.32333878 -0.28599 2.4680226 2.3509839e-38
-0.3245692 -0.2988939 2.4662313 2.3509842e-38
-0.32843846 -0.32640171 2.4664474 2.3509844e-38
-0.32900506 -0.33089188 2.4662721 2.3509845e-38
-0.33070502 -0.34436244 2.4657471 2.3509846e-38
-0.32057548 -0.34861344 2.4310536 2.3509849e-38
-0.31588775 -0.35098708 2.4148161 2.3509851e-38
-0.31174287 -0.35766336 2.3984108 2.3509852e-38
-0.31059179 -0.41921273 2.3671412 2.3509855e-38
-0.3116782 -0.42782184 2.3668056 2.3509856e-38
-0.31493738 -0.45364907 2.3657987 2.3509858e-38
-0.31548059 -0.4579536 2.3656309 2.3509859e-38
-0.31602386 -0.46225813 2.3654633 2.3509862e-38
-0.312812 -0.5082981 2.3344629 2.3509863e-38
-0.31968626 -0.55978954 2.333674 2.3509865e-38
-0.32343727 -0.58951366 2.3325152 2.3509867e-38
-0.31628215 -0.6073702 2.3013618 2.3509869e-38
-0.31868178 -0.65841252 2.2862887 2.350987e-38
-0.31960034 -0.70356154 2.2690582 2.3509872e-38
-0.32069349 -0.74140441 2.2556622 2.3509874e-38
-0.32282403 -0.79040927 2.2406297 2.3509876e-38
-0.32333884 -0.79448807 2.2404709 2.3509877e-38
-0.32163972 -0.84587413 2.2119753 2.350988e-38
-0.32418001 -0.86600441 2.2111905 2.3509881e-38
-0.32468805 -0.87003046 2.2110336 2.3509883e-38
