# .PCD v0.7 - Point Cloud Data file format
VERSION 0.7
FIELDS x y z rgb
SIZE 4 4 4 4
TYPE F F F F
COUNT 1 1 1 1
WIDTH 156
HEIGHT 1
VIEWPOINT 0 0 0 1 0 0 0
POINTS 156
DATA ascii
-1.9179344 0.69641095 0.460244 2.3509528e-38
-1.9124476 0.70302528 0.43762854 2.350953e-38
-1.9136662 0.69971007 0.44165257 2.3509532e-38
-1.921645 0.68598932 0.4723202 2.3509534e-38
-1.9246703 0.68428868 0.48584372 2.3509537e-38
-1.9323289 0.67025155 0.51481074 2.3509539e-38
-1.9465855 0.65330166 0.57370323 2.3509541e-38
-1.9319043 0.67706168 0.51646996 2.3509544e-38
-1.930029 0.67807615 0.5080654 2.3509547e-38
-1.9790474 0.35624814 0.56792402 2.3509548e-38
-1.9783716 0.36282212 0.56825501 2.3509551e-38
-1.9764894 0.39501825 0.57669359 2.3509552e-38
-1.9763122 0.41233915 0.58522081 2.3509555e-38
-1.9762433 0.41742811 0.58764631 2.3509558e-38
-1.9768488 0.43130556 0.59804839 2.3509559e-38
-1.9757446 0.46987763 0.61365092 2.3509562e-38
-1.9722463 0.47333542 0.59882009 2.3509565e-38
-1.9623386 0.48821753 0.55957162 2.3509566e-38
-1.9540011 0.49606723 0.52401423 2.3509569e-38
-1.9491584 0.50549704 0.50599712 2.3509572e-38
-1.9456004 0.51613933 0.49476919 2.3509573e-38
-1.9406089 0.52221644 0.47422716 2.3509576e-38
-1.9355649 0.53100789 0.45490357 2.3509577e-38
-1.9296395 0.5461005 0.43478155 2.350958e-38
-1.9205023 0.5455361 0.39085254 2.3509583e-38
-1.9110813 0.56322002 0.35544434 2.3509584e-38
-1.9093878 0.56662768 0.34920329 2.3509587e-38
-1.902066 0.59387302 0.32899123 2.350959e-38
-1.9006591 0.59435123 0.3225323 2.3509591e-38
-1.89186 0.60705173 0.28739735 2.3509594e-38
-1.8875643 0.6148054 0.27108389 2.3509597e-38
-1.8859169 0.61695194 0.2643806 2.3509598e-38
-1.8791151 0.61377263 0.23018597 2.3509601e-38
-1.8772858 0.6163314 0.22283673 2.3509603e-38
-1.8656245 0.63671774 0.17819542 2.3509605e-38
-1.861935 0.65317696 0.16948828 2.3509608e-38
-1.8569705 0.66896296 0.1543296 2.350961e-38
-1.8464916 0.72474694 0.13448942 2.3509612e-38
-1.8489461 0.76292813 0.16687085 2.3509615e-38
-1.8586757 0.79987949 0.23332143 2.3509617e-38
-1.8604281 0.79726964 0.24027552 2.3509619e-38
-1.8566805 0.80488211 0.22650266 2.3509622e-38
-1.8520018 0.81476212 0.2095124 2.3509624e-38
-1.8496687 0.81810677 0.20018324 2.3509626e-38
-1.8467031 0.81763715 0.18577011 2.3509628e-38
-1.8332227 0.83401513 0.13027461 2.3509631e-38
-1.8300056 0.84597611 0.12138872 2.3509633e-38
-1.8267831 0.85793418 0.1124744 2.3509635e-38
-1.8283949 0.8481586 0.11487879 2.3509638e-38
-1.8335214 0.7992382 0.11287948 2.350964e-38
-1.8341185 0.78570819 0.10840742 2.3509642e-38
-1.8344443 0.77920514 0.10644342 2.3509645e-38
-1.8350003 0.76344585 0.10056945 2.3509647e-38
-1.8358095 0.75646371 0.10065401 2.3509649e-38
-1.8364906 0.75168169 0.10131843 2.3509652e-38
-1.8384953 0.73229986 0.10039973 2.3509653e-38
-1.8519177 0.65460938 0.1224372 2.3509656e-38
-1.8524522 0.62682992 0.10995504 2.3509659e-38
-1.8531609 0.61710328 0.1080745 2.350966e-38
-1.8525451 0.58874965 0.089790404 2.3509663e-38
-1.8533313 0.58038968 0.089019194 2.3509666e-38
-1.8541778 0.57154763 0.088275857 2.3509667e-38
-1.854908 0.55932939 0.085149288 2.350967e-38
-1.8544108 0.53550094 0.069879442 2.3509671e-38
-1.854512 0.52839345 0.066516332 2.3509674e-38
-1.8542341 0.5016498 0.050715882 2.3509677e-38
-1.8545482 0.49542585 0.048848119 2.3509678e-38
-1.8551873 0.48298341 0.045164738 2.3509681e-38
-1.8555009 0.47675988 0.043294806 2.3509684e-38
-1.8566151 0.45524466 0.03697018 2.3509685e-38
-1.8567076 0.44854417 0.033785582 2.3509688e-38
-1.8570182 0.44238731 0.031936284 2.3509691e-38
-1.8573289 0.43623039 0.030087123 2.3509692e-38
-1.8576394 0.4300735 0.028237905 2.3509695e-38
-1.8576359 0.4122242 0.018561322 2.3509696e-38
-1.8575118 0.40525728 0.01419847 2.3509699e-38
-1.8576082 0.39875346 0.011138073 2.3509702e-38
-1.8579152 0.39266351 0.0093083419 2.3509703e-38
-1.8578074 0.36842352 -0.0043239635 2.3509706e-38
-1.8586314 0.35662496 -0.0067756688 2.3509709e-38
-1.8598938 0.35413527 -0.0020964877 2.350971e-38
-1.8661054 0.3392776 0.019519474 2.3509713e-38
-1.8772733 0.26730222 0.033886462 2.3509716e-38
-1.8774275 0.24939327 0.024929829 2.3509717e-38
-1.8770795 0.24374615 0.02021182 2.350972e-38
-1.8765005 0.22784911 0.0088443942 2.3509722e-38
-1.8765322 0.22194424 0.005800047 2.3509724e-38
-1.879163 0.21325369 0.013657626 2.3509727e-38
-1.882336 0.20219487 0.022820601 2.3509729e-38
-1.8841311 0.19420476 0.02706795 2.3509731e-38
-1.8958827 0.12256847 0.044404339 2.3509734e-38
-1.9001311 0.12751138 0.067362532 2.3509736e-38
-1.9085131 0.15699741 0.12333861 2.3509738e-38
-1.90715 0.17525998 0.12671451 2.3509741e-38
-1.9033653 0.19758397 0.12072591 2.3509743e-38
-1.8987011 0.22798683 0.1149113 2.3509745e-38
-1.9108866 0.26553985 0.19341329 2.3509747e-38
-1.9179094 0.25536305 0.22143389 2.350975e-38
-1.9250623 0.24632911 0.25069544 2.3509752e-38
-1.9269503 0.24310544 0.25796431 2.3509754e-38
-1.9281396 0.24054231 0.2622551 2.3509757e-38
-1.9328095 0.2289533 0.2782793 2.3509759e-38
-1.9345831 0.2258801 0.28508389 2.3509761e-38
-1.9410182 0.2184643 0.31179377 2.3509764e-38
-1.9457929 0.2087632 0.32933939 2.3509767e-38
-1.9487592 0.20437697 0.3411276 2.3509768e-38
-1.9497706 0.20281872 0.3451131 2.3509771e-38
-1.9514338 0.19993338 0.3514924 2.3509772e-38
-1.9585108 0.19151713 0.3807244 2.3509775e-38
-1.9594549 0.18943146 0.38410372 2.3509778e-38
-1.9621404 0.18500185 0.3945283 2.3509779e-38
-1.964293 0.18180206 0.40307355 2.3509782e-38
-1.9739511 0.15637611 0.43542364 2.3509785e-38
-1.9799105 0.15509534 0.46318302 2.3509786e-38
-1.9821571 0.15554646 0.47415274 2.3509789e-38
-1.9824334 0.18581173 0.49185151 2.350979e-38
-1.983295 0.19089071 0.49871397 2.3509793e-38
-1.9828106 0.20185745 0.50233585 2.3509796e-38
-1.9826424 0.21903481 0.51082981 2.3509797e-38
-1.9827985 0.22548598 0.51506549 2.35098e-38
-1.9823586 0.23203242 0.51650846 2.3509803e-38
-1.9817543 0.25830403 0.52784061 2.3509804e-38
-1.9813513 0.27180466 0.53322369 2.3509807e-38
-1.9817718 0.28489682 0.54231626 2.350981e-38
-1.9795479 0.32746097 0.55473465 2.3509811e-38
-1.9804041 0.33474639 0.56276548 2.3509814e-38
-1.9802731 0.34505531 0.56771868 2.3509816e-38
-1.9524108 0.64113307 0.59492987 2.3509818e-38
-1.9551247 0.63448155 0.60428709 2.3509821e-38
-1.957798 0.63087785 0.61509985 2.3509823e-38
-1.9597181 0.6293537 0.62344241 2.3509825e-38
-1.9631803 0.62547874 0.6378752 2.3509828e-38
-1.9616178 0.62777454 0.6316579 2.350983e-38
-1.954983 0.64021409 0.606713 2.3509832e-38
-1.9518496 0.64734286 0.59561157 2.3509835e-38
-1.9500911 0.64972216 0.58850312 2.3509837e-38
-1.9480659 0.64805984 0.57793456 2.3509839e-38
-1.9647412 0.62318581 0.64408618 2.3509841e-38
-1.9696499 0.61538458 0.66329992 2.3509844e-38
-1.972394 0.61419243 0.6757558 2.3509846e-38
-1.9750689 0.61350036 0.68815231 2.3509848e-38
-1.9825985 0.58943766 0.7110787 2.3509851e-38
-1.9796789 0.59438837 0.69981819 2.3509853e-38
-1.9780287 0.59839368 0.69410753 2.3509855e-38
-1.9751132 0.60594034 0.68427229 2.3509858e-38
-1.9736098 0.60929781 0.67891163 2.350986e-38
-1.9683173 0.61509198 0.65677917 2.3509862e-38
-1.9658477 0.62000537 0.6476481 2.3509865e-38
-1.8846824 0.75074685 0.33089525 2.3509866e-38
-1.879694 0.76568317 0.31516182 2.3509869e-38
-1.8780555 0.7680524 0.30862114 2.3509872e-38
-1.8765191 0.77020752 0.30245259 2.3509873e-38
-1.8749939 0.77247453 0.29639754 2.3509876e-38
-1.873121 0.77498579 0.28881541 2.3509879e-38
-1.8802587 0.75830406 0.31386408 2.350988e-38
-1.8824135 0.75357097 0.3215909 2.3509883e-38
