# .PCD v0.7 - Point Cloud Data file format
VERSION 0.7
FIELDS x y z rgb
SIZE 4 4 4 4
TYPE F F F F
COUNT 1 1 1 1
WIDTH 273
HEIGHT 1
VIEWPOINT 0 0 0 1 0 0 0
POINTS 273
DATA ascii
1.6802866 0.33354446 1.3872517 2.3509528e-38
1.6914049 0.2800537 1.3489361 2.3509528e-38
1.677359 0.35127518 1.3215646 2.350953e-38
1.6648351 0.41494039 1.2937782 2.3509531e-38
1.6642252 0.41850251 1.2828121 2.3509532e-38
1.6639786 0.42000794 1.2770418 2.3509534e-38
1.6627356 0.42689511 1.2624725 2.3509535e-38
1.6624883 0.42840168 1.2567307 2.3509537e-38
1.6621606 0.43015906 1.254096 2.3509538e-38
1.6610272 0.43630326 1.2436373 2.3509539e-38
1.6582046 0.45191866 1.2110407 2.3509541e-38
1.6583521 0.45041341 1.2270533 2.3509542e-38
1.6581401 0.4508889 1.2391206 2.3509544e-38
1.6594044 0.44410142 1.249419 2.3509545e-38
1.6613488 0.43353939 1.2678229 2.3509547e-38
1.6637994 0.42010897 1.2934887 2.3509548e-38
1.6639754 0.4188135 1.3022116 2.3509548e-38
1.6641774 0.41743615 1.3099374 2.3509549e-38
1.6681001 0.39633155 1.342829 2.3509551e-38
1.6695454 0.38724536 1.3821803 2.3509552e-38
1.6696707 0.38616478 1.3916997 2.3509554e-38
1.6713558 0.37775344 1.3922212 2.3509555e-38
1.6728511 0.37037715 1.3908556 2.3509556e-38
1.5528667 0.9772259 1.1890528 2.3509558e-38
1.5508646 0.98770523 1.1783615 2.3509559e-38
1.5481048 1.0031707 1.1423572 2.3509561e-38
1.5464593 1.0117663 1.133919 2.3509562e-38
1.5461706 1.013494 1.1278712 2.3509563e-38
1.5461922 1.0137478 1.1203731 2.3509565e-38
1.5456512 1.017653 1.0951533 2.3509566e-38
1.5447912 1.0223871 1.0857164 2.3509568e-38
1.5445035 1.0241092 1.0796939 2.3509568e-38
1.5442151 1.0258332 1.0736719 2.3509569e-38
1.5439633 1.0280051 1.0545599 2.350957e-38
1.5430181 1.033319 1.0418825 2.3509572e-38
1.5403078 1.0479199 1.0187728 2.3509573e-38
1.5406849 1.0466405 1.0063437 2.3509575e-38
1.5407258 1.0467795 0.99923098 2.3509576e-38
1.5407389 1.0473346 0.98633355 2.3509577e-38
1.5401505 1.0508364 0.97439826 2.3509579e-38
1.5398787 1.0530974 0.95550668 2.350958e-38
1.5393386 1.0564275 0.94216359 2.3509582e-38
1.5390437 1.0581807 0.93622845 2.3509583e-38
1.5387497 1.059932 0.9302364 2.3509584e-38
1.5384567 1.0619645 0.91829777 2.3509586e-38
1.5369767 1.0701953 0.90030015 2.3509587e-38
1.5410854 1.0503123 0.88855696 2.3509587e-38
1.5525308 0.99334091 0.88873738 2.3509589e-38
1.559848 0.95805824 0.8651734 2.350959e-38
1.5608029 0.95354944 0.86009276 2.3509591e-38
1.5614026 0.95064902 0.85834527 2.3509593e-38
1.5634257 0.94093174 0.85104686 2.3509594e-38
1.5675991 0.92196733 0.81350118 2.3509596e-38
1.5682296 0.91999102 0.78934461 2.3509597e-38
1.5684742 0.92028284 0.75797123 2.3509598e-38
1.568133 0.922252 0.75232673 2.35096e-38
1.5671366 0.92774087 0.74130177 2.3509601e-38
1.5653311 0.93757254 0.7237218 2.3509603e-38
1.5649852 0.9395647 0.71809328 2.3509604e-38
1.5633683 0.9486984 0.69549519 2.3509605e-38
1.56344 0.9485876 0.69037622 2.3509607e-38
1.5634201 0.94892323 0.68546706 2.3509607e-38
1.5634687 0.94897759 0.67928904 2.3509608e-38
1.5607101 0.9646191 0.63955498 2.350961e-38
1.5593603 0.97187531 0.62835187 2.3509611e-38
1.5567235 0.98566163 0.61456156 2.3509612e-38
1.5527925 1.0062708 0.59281176 2.3509614e-38
1.5511287 1.0151819 0.57970482 2.3509615e-38
1.5488538 1.0276461 0.5559538 2.3509617e-38
1.5478824 1.0327883 0.54955572 2.3509618e-38
1.5471369 1.0367239 0.54485983 2.3509619e-38
1.5426146 1.0612038 0.50383908 2.3509621e-38
1.5387374 1.0808269 0.4970431 2.3509622e-38
1.5217437 1.165575 0.49343452 2.3509624e-38
1.5208721 1.1697956 0.49589017 2.3509625e-38
1.5196413 1.1758058 0.49827144 2.3509626e-38
1.5184107 1.1818162 0.50065273 2.3509626e-38
1.5171798 1.1878268 0.50303382 2.3509628e-38
1.5178862 1.185029 0.48811695 2.3509629e-38
1.5178018 1.1861181 0.47422811 2.3509631e-38
1.5171353 1.1900545 0.46134552 2.3509632e-38
1.5166932 1.1925272 0.45565543 2.3509633e-38
1.5162512 1.1950011 0.44996718 2.3509635e-38
1.5157622 1.1986066 0.42559609 2.3509636e-38
1.515318 1.2010914 0.41989073 2.3509638e-38
1.5133536 1.2116419 0.40381369 2.3509639e-38
1.5109307 1.2244936 0.38732529 2.350964e-38
1.4964226 1.2962511 0.3966119 2.3509642e-38
1.4951696 1.3028909 0.38819614 2.3509643e-38
1.4940058 1.3096408 0.36830476 2.3509645e-38
1.4945306 1.3074915 0.35867405 2.3509646e-38
1.494676 1.3071198 0.35136572 2.3509647e-38
1.4962196 1.2991811 0.35669222 2.3509647e-38
1.5096817 1.2325701 0.34862512 2.3509649e-38
1.512399 1.2193244 0.34284779 2.350965e-38
1.5256839 1.1555729 0.29367587 2.3509652e-38
1.526356 1.1525743 0.28645918 2.3509653e-38
1.5282304 1.1462983 0.22300099 2.3509654e-38
1.5277305 1.1491952 0.21448711 2.3509656e-38
1.5274497 1.1515727 0.1940942 2.3509657e-38
1.5288424 1.1445233 0.19657169 2.3509659e-38
1.5389192 1.0939424 0.20551389 2.350966e-38
1.5437732 1.0696965 0.20734204 2.3509661e-38
1.5460296 1.0583417 0.20995323 2.3509663e-38
1.5492791 1.0419075 0.21539581 2.3509664e-38
1.5494159 1.0407465 0.22538052 2.3509666e-38
1.550133 1.0356029 0.25813454 2.3509667e-38
1.548025 1.0450076 0.28071859 2.3509667e-38
1.5427912 1.0707949 0.28613237 2.3509668e-38
1.5285832 1.1391679 0.33473977 2.350967e-38
1.5270581 1.1465617 0.33884171 2.3509671e-38
1.5257478 1.1529602 0.34138581 2.3509673e-38
1.5241393 1.160884 0.34307685 2.3509674e-38
1.5158994 1.1988539 0.40626675 2.3509675e-38
1.5170103 1.1926693 0.41989678 2.3509677e-38
1.5179074 1.1876507 0.43140844 2.3509678e-38
1.5194367 1.1795373 0.44185987 2.350968e-38
1.5207386 1.1724917 0.45363024 2.3509681e-38
1.5209496 1.1710918 0.46091419 2.3509682e-38
1.5221224 1.1640887 0.48515528 2.3509684e-38
1.5388725 1.0806222 0.48731983 2.3509685e-38
1.5404422 1.0730164 0.4830257 2.3509687e-38
1.5445063 1.0529639 0.47940931 2.3509687e-38
1.5528009 1.011797 0.47703478 2.3509688e-38
1.5558407 0.99663198 0.47778368 2.3509689e-38
1.562317 0.96486306 0.46817708 2.3509691e-38
1.5639545 0.95685083 0.46533337 2.3509692e-38
1.5661526 0.94609565 0.46149516 2.3509694e-38
1.5715696 0.91948211 0.4542973 2.3509695e-38
1.5751522 0.90168422 0.4536314 2.3509696e-38
1.5767174 0.89396065 0.4522346 2.3509698e-38
1.5793546 0.88099438 0.44895676 2.3509699e-38
1.5805753 0.87501812 0.44688872 2.3509701e-38
1.5820463 0.86786568 0.44339034 2.3509702e-38
1.5844378 0.85617834 0.4389098 2.3509703e-38
1.5858214 0.84939826 0.43671519 2.3509705e-38
1.5905323 0.82627845 0.42994153 2.3509706e-38
1.5924388 0.81691945 0.42724901 2.3509706e-38
1.5991269 0.78448796 0.40948278 2.3509708e-38
1.602017 0.77021086 0.40726963 2.3509709e-38
1.6058176 0.75147432 0.40357229 2.350971e-38
1.6070621 0.74536222 0.4018608 2.3509712e-38
1.6109363 0.72653502 0.3924225 2.3509713e-38
1.6140536 0.71077043 0.39763716 2.3509715e-38
1.6152589 0.70474154 0.39826456 2.3509716e-38
1.6175748 0.6928063 0.40677691 2.3509717e-38
1.6254759 0.65225232 0.43238476 2.3509719e-38
1.6275429 0.64198309 0.43201596 2.350972e-38
1.6394202 0.58286542 0.43213344 2.3509722e-38
1.6404294 0.57790935 0.43075329 2.3509723e-38
1.643178 0.56425792 0.43017009 2.3509724e-38
1.6445363 0.55756289 0.42881718 2.3509726e-38
1.6466981 0.54698038 0.42514545 2.3509726e-38
1.6479222 0.54094529 0.42396164 2.3509727e-38
1.6489702 0.53577214 0.42307132 2.3509729e-38
1.6527005 0.51752281 0.41649783 2.350973e-38
1.653855 0.51193285 0.41327262 2.3509731e-38
1.6575463 0.49368927 0.41060391 2.3509733e-38
1.6604229 0.47965965 0.40466061 2.3509734e-38
1.6613947 0.47491148 0.40282547 2.3509736e-38
1.6643687 0.46029967 0.39887765 2.3509737e-38
1.6655369 0.45458996 0.39671549 2.3509738e-38
1.6665998 0.44933209 0.39604148 2.350974e-38
1.6695586 0.43442348 0.39984864 2.3509741e-38
1.6793282 0.38688216 0.37739795 2.3509743e-38
1.6817384 0.37517911 0.37132165 2.3509744e-38
1.6831892 0.36770844 0.37653041 2.3509745e-38
1.6932964 0.31701201 0.38472763 2.3509745e-38
1.6944405 0.31140974 0.3828263 2.3509747e-38
1.6997842 0.2845124 0.38911203 2.3509748e-38
1.7020845 0.27268726 0.39694613 2.350975e-38
1.704903 0.25693321 0.43283629 2.3509751e-38
1.7071278 0.24528754 0.44476858 2.3509752e-38
1.7094394 0.23323368 0.45619377 2.3509754e-38
1.7082109 0.23797476 0.48473367 2.3509755e-38
1.7078136 0.2392035 0.50030518 2.3509757e-38
1.7051003 0.25179058 0.51936466 2.3509758e-38
1.7042845 0.25546527 0.52738321 2.3509759e-38
1.7009029 0.27083063 0.55781823 2.3509761e-38
1.6966161 0.29168558 0.56780505 2.3509762e-38
1.6927111 0.31057101 0.57922357 2.3509764e-38
1.6916851 0.3155717 0.58142382 2.3509765e-38
1.6887933 0.32962573 0.58842748 2.3509767e-38
1.6876326 0.33533007 0.58994687 2.3509767e-38
1.68163 0.36443067 0.60602576 2.3509768e-38
1.6804267 0.37019157 0.61074907 2.3509769e-38
1.676322 0.38996416 0.62440515 2.3509771e-38
1.6742436 0.39982778 0.63438421 2.3509772e-38
1.6710253 0.41543829 0.64283967 2.3509774e-38
1.6674318 0.43310082 0.64745265 2.3509775e-38
1.6662291 0.43899861 0.64926904 2.3509776e-38
1.6627097 0.45618111 0.65619034 2.3509778e-38
1.6615347 0.46196517 0.65754128 2.3509779e-38
1.6600691 0.46914154 0.65996289 2.3509781e-38
1.6579608 0.47533286 0.74940503 2.3509782e-38
1.6579939 0.47498727 0.7531625 2.3509783e-38
1.6494625 0.51331073 0.83917773 2.3509785e-38
1.6502575 0.50915688 0.84327883 2.3509786e-38
1.6512555 0.50399786 0.84726578 2.3509786e-38
1.6554264 0.48210442 0.87088215 2.3509788e-38
1.6572905 0.47228733 0.88210088 2.3509789e-38
1.6593952 0.46136642 0.89138013 2.350979e-38
1.6610539 0.45278519 0.89816374 2.3509792e-38
1.6648811 0.432578 0.92227632 2.3509793e-38
1.6668609 0.42224142 0.93232709 2.3509795e-38
1.6686893 0.41263044 0.94295675 2.3509796e-38
1.6701288 0.4049581 0.9535287 2.3509797e-38
1.6706913 0.40188655 0.95918739 2.3509799e-38
1.6717484 0.39613575 0.96936727 2.35098e-38
1.6725515 0.39148134 0.98304284 2.3509802e-38
1.6726514 0.39037147 0.99578404 2.3509803e-38
1.6728317 0.38903773 1.0048622 2.3509804e-38
1.6653486 0.42386395 1.0550883 2.3509806e-38
1.6644305 0.4270125 1.0846263 2.3509806e-38
1.6637155 0.42980707 1.1005052 2.3509807e-38
1.6634156 0.43183151 1.0894604 2.3509809e-38
1.663445 0.43252045 1.0720832 2.350981e-38
1.663241 0.43387669 1.0649958 2.3509811e-38
1.6630663 0.43513492 1.0569037 2.3509813e-38
1.6628854 0.43641326 1.0490481 2.3509814e-38
1.6646709 0.42847589 1.0293097 2.3509816e-38
1.6689125 0.41112822 0.95109278 2.3509817e-38
1.6657691 0.42745808 0.93684489 2.3509818e-38
1.664706 0.43303376 0.93092668 2.350982e-38
1.6637938 0.43792644 0.92358309 2.3509821e-38
1.6619719 0.44744715 0.91415375 2.3509823e-38
1.6594579 0.46054146 0.90204185 2.3509824e-38
1.6576611 0.46971515 0.89723694 2.3509825e-38
1.656267 0.47702277 0.88955295 2.3509825e-38
1.6538928 0.48933592 0.87921906 2.3509827e-38
1.6444938 0.53712457 0.85817409 2.3509828e-38
1.643214 0.54364604 0.85502374 2.350983e-38
1.6406542 0.55668908 0.84872329 2.3509831e-38
1.6364006 0.57839733 0.837524 2.3509832e-38
1.6348134 0.58659518 0.8313157 2.3509834e-38
1.6341668 0.59088624 0.80899554 2.3509835e-38
1.6293567 0.61626846 0.77898943 2.3509837e-38
1.6271627 0.62891704 0.74303126 2.3509838e-38
1.6128821 0.70182383 0.70488244 2.3509839e-38
1.6110611 0.71118116 0.69875902 2.3509841e-38
1.6044064 0.74472743 0.68988609 2.3509842e-38
1.6026326 0.75410038 0.67855996 2.3509844e-38
1.5968788 0.78400791 0.65211827 2.3509845e-38
1.5896894 0.81972051 0.65352869 2.3509845e-38
1.5871673 0.83209854 0.65714598 2.3509846e-38
1.5831776 0.85124832 0.67184347 2.3509848e-38
1.5820282 0.85679698 0.67541057 2.3509849e-38
1.5785218 0.87364364 0.68796521 2.3509851e-38
1.5768372 0.88171256 0.69452345 2.3509852e-38
1.5710416 0.90938169 0.71892977 2.3509853e-38
1.5700079 0.91235226 0.76414174 2.3509855e-38
1.569813 0.9127667 0.77569926 2.3509856e-38
1.5696298 0.91308105 0.78812259 2.3509858e-38
1.5694114 0.91375828 0.79663569 2.3509859e-38
1.5682148 0.91891414 0.81327587 2.350986e-38
1.567605 0.92123777 0.82805067 2.3509862e-38
1.5670016 0.92394578 0.83419573 2.3509863e-38
1.5661954 0.9276042 0.84154725 2.3509865e-38
1.5639368 0.93838185 0.85117227 2.3509865e-38
1.5624292 0.94544524 0.86032075 2.3509866e-38
1.5588905 0.96209222 0.88036811 2.3509867e-38
1.5569236 0.97141719 0.89001739 2.3509869e-38
1.5495639 1.004315 0.96758866 2.350987e-38
1.5447699 1.0264468 1.0035127 2.3509872e-38
1.5446575 1.0254852 1.0351282 2.3509873e-38
1.5445859 1.0254847 1.0425478 2.3509874e-38
1.5448782 1.0234599 1.0543945 2.3509876e-38
1.5451685 1.0217255 1.0604299 2.3509877e-38
1.5456367 1.0183489 1.0821939 2.3509879e-38
1.5468596 1.0113487 1.1011815 2.350988e-38
1.5503819 0.99212414 1.1364254 2.3509881e-38
1.5553685 0.96597409 1.1641215 2.3509883e-38
1.5539352 0.9716422 1.1945972 2.3509884e-38
