# .PCD v0.7 - Point Cloud Data file format
VERSION 0.7
FIELDS x y z rgb
SIZE 4 4 4 4
TYPE F F F F
COUNT 1 1 1 1
WIDTH 225
HEIGHT 1
VIEWPOINT 0 0 0 1 0 0 0
POINTS 225
DATA ascii
0.51972479 1.6164987 -1.4967661 2.3509528e-38
0.51149118 1.6106108 -1.5014957 2.350953e-38
0.50466728 1.6107147 -1.5033363 2.3509531e-38
0.47813329 1.6052834 -1.5129281 2.3509532e-38
0.47185946 1.6048301 -1.5148493 2.3509534e-38
0.4650555 1.6034131 -1.517319 2.3509535e-38
0.45652094 1.6029339 -1.5198752 2.3509537e-38
0.44924188 1.6062618 -1.5204966 2.3509538e-38
0.44100991 1.6230949 -1.5157467 2.3509541e-38
0.43675864 1.6352466 -1.511851 2.3509542e-38
0.44132099 1.6699911 -1.4960961 2.3509544e-38
0.40706435 1.7074124 -1.4899424 2.3509545e-38
0.36573488 1.7081611 -1.5010408 2.3509547e-38
0.32819507 1.709445 -1.5108697 2.3509548e-38
0.324743 1.7081592 -1.5123593 2.3509549e-38
0.32232893 1.7077163 -1.5132104 2.3509552e-38
0.30870473 1.711944 -1.5152082 2.3509554e-38
0.3015078 1.7127658 -1.5168525 2.3509555e-38
0.29214066 1.7125283 -1.5195377 2.3509556e-38
0.28415847 1.713186 -1.5214671 2.3509558e-38
0.25989202 1.7174644 -1.526382 2.3509559e-38
0.24495228 1.7174851 -1.5304981 2.3509561e-38
0.22533663 1.7180847 -1.5356638 2.3509562e-38
0.21426262 1.7190521 -1.5383176 2.3509565e-38
0.20889941 1.7190325 -1.5398065 2.3509566e-38
0.18811747 1.7198668 -1.5451963 2.3509568e-38
0.17696434 1.7218059 -1.5474665 2.3509569e-38
0.16201943 1.7227862 -1.5511838 2.350957e-38
0.14699514 1.7226346 -1.5553951 2.3509572e-38
0.13971806 1.7234763 -1.5570531 2.3509573e-38
0.11916767 1.7252407 -1.5619907 2.3509576e-38
0.10609697 1.7255596 -1.5654665 2.3509577e-38
0.094951898 1.7280114 -1.5675207 2.3509579e-38
0.064450175 1.7316093 -1.5744411 2.350958e-38
0.04553771 1.7278535 -1.5812296 2.3509582e-38
0.0065623065 1.7346869 -1.5891397 2.3509583e-38
0.00036748312 1.7358551 -1.5903625 2.3509584e-38
-0.0058446894 1.7367454 -1.5917063 2.3509586e-38
-0.036347315 1.7432517 -1.5974134 2.3509589e-38
-0.037366472 1.7433454 -1.5976558 2.350959e-38
-0.043707065 1.7441359 -1.5990765 2.3509591e-38
-0.044498492 1.7441993 -1.5992687 2.3509593e-38
-0.051627196 1.7450532 -1.6008804 2.3509594e-38
-0.071142711 1.7439048 -1.6067477 2.3509596e-38
-0.074956194 1.7427188 -1.6082954 2.3509597e-38
-0.10255402 1.7457932 -1.6146322 2.35096e-38
-0.12555107 1.754173 -1.6174856 2.3509601e-38
-0.13940574 1.7559936 -1.6205513 2.3509603e-38
-0.15486118 1.7552356 -1.6251348 2.3509604e-38
-0.17035469 1.7545664 -1.6296915 2.3509605e-38
-0.19126716 1.7586949 -1.6337429 2.3509607e-38
-0.19338542 1.7589654 -1.634215 2.3509608e-38
-0.20000458 1.7593595 -1.635878 2.350961e-38
-0.22138883 1.7581042 -1.6423057 2.3509612e-38
-0.22691622 1.7574066 -1.6441228 2.3509614e-38
-0.22783302 1.7825859 -1.6338716 2.3509615e-38
-0.23637754 1.8032149 -1.6276243 2.3509617e-38
-0.23113194 1.8102456 -1.6232429 2.3509618e-38
-0.22195798 1.8173099 -1.6177627 2.3509619e-38
-0.18747257 1.8193783 -1.6073788 2.3509621e-38
-0.17792533 1.8161038 -1.6061089 2.3509624e-38
-0.15797779 1.8117537 -1.6024163 2.3509625e-38
-0.1435571 1.8129202 -1.5979482 2.3509626e-38
-0.12044765 1.8129925 -1.5915378 2.3509628e-38
-0.090296529 1.803576 -1.5871418 2.3509629e-38
-0.064021975 1.8083185 -1.5779089 2.3509631e-38
-0.054720525 1.8049157 -1.5767605 2.3509632e-38
0.0022902675 1.8358437 -1.5481173 2.3509633e-38
0.0060759718 1.8587667 -1.5375088 2.3509636e-38
0.0045553232 1.8704515 -1.5330539 2.3509638e-38
0.0041993419 1.8759115 -1.5308744 2.3509639e-38
0.0043108086 1.9060539 -1.5182683 2.350964e-38
0.0051457682 1.9131337 -1.5150843 2.3509642e-38
0.0049068658 1.9225532 -1.5112205 2.3509643e-38
0.0057456321 1.929647 -1.5080295 2.3509645e-38
0.0044449465 1.9455789 -1.5017419 2.3509647e-38
0.0048682932 1.9528112 -1.4986078 2.3509649e-38
0.0076250527 1.9909947 -1.4819169 2.350965e-38
0.0077763144 2.0053759 -1.4758754 2.3509652e-38
0.0033017856 2.0197074 -1.4711318 2.3509653e-38
-0.0021259342 2.0599012 -1.455862 2.3509654e-38
-0.0032441127 2.0705967 -1.4517084 2.3509656e-38
0.0047663748 2.1133182 -1.4316739 2.3509657e-38
-0.0011552488 2.1524086 -1.4170007 2.350966e-38
0.0014212696 2.167388 -1.4100401 2.3509661e-38
0.00077566283 2.18031 -1.4048274 2.3509663e-38
0.0085222889 2.198252 -1.3952034 2.3509664e-38
0.019518077 2.1890614 -1.3960017 2.3509666e-38
0.045355383 2.1738923 -1.3951967 2.3509667e-38
0.085707679 2.1778615 -1.3823997 2.3509668e-38
0.1167997 2.178371 -1.3736027 2.3509671e-38
0.16170062 2.1797621 -1.3606256 2.3509673e-38
0.19637093 2.1639884 -1.3576341 2.3509674e-38
0.20400885 2.1630957 -1.3558978 2.3509675e-38
0.23751719 2.1540639 -1.3504143 2.3509677e-38
0.26756838 2.1616149 -1.3389671 2.3509678e-38
0.27621138 2.1652369 -1.3350698 2.350968e-38
0.2936368 2.1583412 -1.3331356 2.3509681e-38
0.3027423 2.1524353 -1.3330854 2.3509684e-38
0.34487447 2.1471212 -1.32367 2.3509685e-38
0.38514537 2.1491094 -1.3117222 2.3509687e-38
0.42502546 2.1579409 -1.2970271 2.3509688e-38
0.45727894 2.1601427 -1.2872036 2.3509689e-38
0.46446502 2.1634967 -1.2838203 2.3509691e-38
0.47605518 2.1289666 -1.2950259 2.3509692e-38
0.46754229 2.0989244 -1.3099096 2.3509695e-38
0.47899011 2.0669372 -1.3200938 2.3509696e-38
0.47846785 2.0637703 -1.3215592 2.3509698e-38
0.47815835 2.0564315 -1.3247063 2.3509699e-38
0.4786807 2.0311885 -1.3350933 2.3509701e-38
0.47765017 2.0229981 -1.3387947 2.3509702e-38
0.47390974 2.0032957 -1.3480471 2.3509703e-38
0.48079988 1.9546752 -1.3664289 2.3509705e-38
0.4804925 1.9475079 -1.3695037 2.3509708e-38
0.48143202 1.9366063 -1.3737923 2.3509709e-38
0.4811455 1.9274113 -1.3777077 2.350971e-38
0.47576427 1.9024554 -1.3896048 2.3509712e-38
0.47603771 1.8912106 -1.3942206 2.3509713e-38
0.47528088 1.8831581 -1.3977888 2.3509715e-38
0.47525209 1.8725839 -1.4022082 2.3509716e-38
0.4771131 1.8608476 -1.4065907 2.3509719e-38
0.47788617 1.8537632 -1.4093329 2.350972e-38
0.47848484 1.8421085 -1.4140298 2.3509722e-38
0.47773567 1.8172957 -1.4245884 2.3509723e-38
0.47423559 1.796423 -1.4342625 2.3509724e-38
0.47329774 1.7859793 -1.4388784 2.3509726e-38
0.47968921 1.7567309 -1.449316 2.3509727e-38
0.47954404 1.7305495 -1.4602787 2.3509729e-38
0.48314276 1.6987277 -1.4725609 2.3509731e-38
0.51507092 1.6474427 -1.4851414 2.3509733e-38
0.52481073 1.6216483 -1.4932134 2.3509734e-38
1.3299078 2.2955017 -0.98980629 2.3509736e-38
1.3059814 2.3054912 -0.99224472 2.3509737e-38
1.2593971 2.3026602 -1.0062873 2.3509738e-38
1.2445669 2.3097234 -1.0074352 2.350974e-38
1.2343742 2.3018177 -1.0135475 2.3509743e-38
1.1861658 2.2903574 -1.0316386 2.3509744e-38
1.1768959 2.2908206 -1.0340048 2.3509745e-38
1.1526296 2.2881751 -1.0418082 2.3509747e-38
1.1285965 2.2930686 -1.046402 2.3509748e-38
1.0840071 2.2961836 -1.0574133 2.350975e-38
1.0665975 2.3019452 -1.0598164 2.3509751e-38
1.0416526 2.3053122 -1.0652988 2.3509752e-38
1.0117934 2.3085918 -1.0721744 2.3509755e-38
0.99969065 2.3098826 -1.0749774 2.3509757e-38
0.98701662 2.3109896 -1.0780149 2.3509758e-38
0.96823722 2.3120015 -1.0827775 2.3509759e-38
1.0226899 2.2794566 -1.0813208 2.3509761e-38
1.057312 2.2897692 -1.0674597 2.3509762e-38
1.1073343 2.2738998 -1.0602694 2.3509764e-38
1.1137813 2.2677846 -1.0610406 2.3509767e-38
1.1402059 2.252979 -1.0599217 2.3509768e-38
1.159132 2.2570286 -1.0530069 2.3509769e-38
1.1922963 2.2725701 -1.0373667 2.3509771e-38
1.2553642 2.2800775 -1.0168222 2.3509772e-38
1.2664651 2.2817814 -1.0130464 2.3509774e-38
1.2712318 2.2821174 -1.0115902 2.3509775e-38
1.3292834 2.2703633 -1.0004662 2.3509776e-38
1.3352836 2.2697389 -0.99907023 2.3509779e-38
1.339771 2.2745039 -0.99584329 2.3509781e-38
1.3387649 2.2915633 -0.98900408 2.3509782e-38
0.82636088 2.32112 -1.1181444 2.3509783e-38
0.75613195 2.3546824 -1.1235322 2.3509785e-38
0.67503643 2.3629625 -1.1424677 2.3509786e-38
0.64806813 2.3451738 -1.1573347 2.3509788e-38
0.71201253 2.3337395 -1.1444504 2.350979e-38
0.72908586 2.3318875 -1.1405092 2.3509792e-38
0.75311548 2.3251131 -1.1367011 2.3509793e-38
0.75986522 2.324825 -1.1349577 2.3509795e-38
0.82759738 2.3134224 -1.1210144 2.3509796e-38
0.84352839 2.3188739 -1.1143416 2.3509797e-38
0.89354348 2.3112633 -1.1037079 2.3509799e-38
0.9090153 2.3047142 -1.1021683 2.35098e-38
0.92030948 2.3064263 -1.098336 2.3509803e-38
0.93028927 2.3068862 -1.0953887 2.3509804e-38
0.93858343 2.3059509 -1.0934891 2.3509806e-38
0.95030183 2.3081086 -1.0893533 2.3509807e-38
0.50809234 2.3768795 -1.1827538 2.3509809e-38
0.4427807 2.3614032 -1.2072424 2.350981e-38
0.39179695 2.3710058 -1.2173125 2.3509811e-38
0.44173089 2.3383725 -1.2171404 2.3509814e-38
0.43684813 2.2871361 -1.2398639 2.3509816e-38
0.46442303 2.2488766 -1.2482122 2.3509817e-38
0.46899259 2.2386625 -1.2512119 2.3509818e-38
0.47181538 2.2507944 -1.245371 2.350982e-38
0.47162208 2.2621014 -1.2407073 2.3509821e-38
0.47138837 2.2717733 -1.2367368 2.3509823e-38
0.47579148 2.3307025 -1.2109364 2.3509824e-38
0.47743523 2.3423452 -1.2056254 2.3509827e-38
0.56869352 2.3852646 -1.162524 2.3509828e-38
0.57710409 2.3791881 -1.162737 2.350983e-38
0.58916247 2.370122 -1.1631901 2.3509831e-38
0.56346238 2.371558 -1.1696866 2.3509832e-38
0.6140269 2.3462989 -1.1662639 2.3509834e-38
0.62234664 2.3418677 -1.1658155 2.3509835e-38
0.63079953 2.3409126 -1.1638803 2.3509838e-38
0.85068208 2.3433669 -1.1021483 2.3509839e-38
0.85247004 2.3415134 -1.102428 2.3509841e-38
0.88597131 2.3215454 -1.101509 2.3509842e-38
0.91525954 2.3121428 -1.0973454 2.3509844e-38
0.94146323 2.3134203 -1.0895777 2.3509845e-38
0.3488664 2.397887 -1.2179508 2.3509846e-38
0.30370763 2.402034 -1.2286886 2.3509848e-38
0.34040615 2.3768775 -1.2290516 2.3509851e-38
-0.00014380236 2.4057739 -1.3110197 2.3509852e-38
0.0055421093 2.4098606 -1.3077451 2.3509853e-38
0.01265538 2.4119267 -1.3049189 2.3509855e-38
0.033280991 2.407511 -1.3010666 2.3509856e-38
0.061145894 2.402775 -1.2953492 2.3509858e-38
0.024871098 2.4022613 -1.3055787 2.3509859e-38
0.11293896 2.3842914 -1.2887605 2.3509862e-38
0.091207333 2.3853738 -1.294309 2.3509863e-38
0.087307073 2.3887668 -1.2939703 2.3509865e-38
0.12309989 2.3814483 -1.2871416 2.3509866e-38
0.1551127 2.3770757 -1.2801272 2.3509867e-38
0.17906448 2.3780906 -1.2730907 2.3509869e-38
0.22057746 2.389468 -1.2568828 2.350987e-38
0.184733 2.3870807 -1.2677752 2.3509872e-38
0.14867386 2.3942566 -1.2747371 2.3509874e-38
0.13864584 2.3981187 -1.2758945 2.3509876e-38
0.11106018 2.3997025 -1.2828499 2.3509877e-38
0.078777879 2.4045663 -1.2897339 2.3509879e-38
0.24658634 2.381705 -1.2529407 2.350988e-38
0.22916703 2.3884406 -1.2549398 2.3509881e-38
0.24165352 2.3869445 -1.2521167 2.3509883e-38
