# .PCD v0.7 - Point Cloud Data file format
VERSION 0.7
FIELDS x y z rgb
SIZE 4 4 4 4
TYPE F F F F
COUNT 1 1 1 1
WIDTH 350
HEIGHT 1
VIEWPOINT 0 0 0 1 0 0 0
POINTS 350
DATA ascii
-0.11531046 1.7513483 -1.7035968 2.3509528e-38
-0.12387895 1.7563943 -1.7182471 2.3509528e-38
-0.13312301 1.763615 -1.7391028 2.350953e-38
-0.12690325 1.7640983 -1.7402525 2.3509531e-38
-0.095789678 1.7618279 -1.7326802 2.3509531e-38
-0.047279887 1.7833703 -1.7921637 2.3509532e-38
-0.042438079 1.8108687 -1.8701468 2.3509534e-38
-0.033905715 1.8140448 -1.8788673 2.3509535e-38
-0.025705647 1.8170804 -1.8872 2.3509535e-38
-0.017359298 1.8209039 -1.8977672 2.3509537e-38
-0.0092499573 1.8259028 -1.9116837 2.3509538e-38
-0.0086133797 1.8261937 -1.9124874 2.3509539e-38
-0.0016180656 1.8327564 -1.9308884 2.3509539e-38
-0.0010012627 1.8335744 -1.9331914 2.3509541e-38
0.0026944377 1.8369167 -1.9425582 2.3509542e-38
-0.0060513918 1.8313208 -1.9269677 2.3509542e-38
-0.017974695 1.8232448 -1.9044427 2.3509544e-38
-0.043439426 1.8169818 -1.8875576 2.3509545e-38
-0.054880075 1.8159451 -1.8850228 2.3509547e-38
-0.043631312 1.8109905 -1.8705357 2.3509547e-38
1.7185096 1.7980775 -1.7704414 2.3509548e-38
1.7103167 1.7876732 -1.7411649 2.3509549e-38
1.7044007 1.7855092 -1.7352273 2.3509551e-38
1.6867821 1.7784244 -1.7157243 2.3509551e-38
1.6625264 1.7764987 -1.7111233 2.3509552e-38
1.6111207 1.7625151 -1.6732279 2.3509554e-38
1.5808419 1.7519119 -1.6441805 2.3509554e-38
1.5531107 1.7382942 -1.6064732 2.3509555e-38
1.5456077 1.7288388 -1.5798686 2.3509556e-38
1.5413051 1.7217054 -1.5597484 2.3509558e-38
1.5212202 1.7132894 -1.5365506 2.3509558e-38
1.5009457 1.7112684 -1.5315359 2.3509559e-38
1.4657495 1.6976185 -1.4940056 2.3509561e-38
1.500299 1.7172246 -1.5484879 2.3509562e-38
1.4827818 1.7325605 -1.5927067 2.3509562e-38
1.4074492 1.7291695 -1.5857787 2.3509563e-38
1.3815453 1.7157582 -1.5485923 2.3509565e-38
1.3541852 1.7014495 -1.5089077 2.3509565e-38
1.3415401 1.6913279 -1.4805948 2.3509566e-38
1.33086 1.6856123 -1.4647338 2.3509568e-38
1.3025621 1.6707604 -1.4235388 2.3509569e-38
1.2924268 1.6657252 -1.4095924 2.3509569e-38
1.2746748 1.6571895 -1.3859702 2.350957e-38
1.271666 1.6544881 -1.3784004 2.3509572e-38
1.2430969 1.6394018 -1.3365494 2.3509573e-38
1.2423117 1.6310537 -1.3128499 2.3509573e-38
1.2302251 1.6190282 -1.2791054 2.3509575e-38
1.2256743 1.6132199 -1.2627605 2.3509576e-38
1.2091341 1.6079431 -1.2483574 2.3509576e-38
1.1924354 1.6105454 -1.2563548 2.3509577e-38
1.1875575 1.6111345 -1.2582046 2.3509579e-38
1.1692749 1.6123759 -1.2623909 2.350958e-38
1.1444956 1.6196274 -1.2838926 2.350958e-38
1.1152631 1.6215644 -1.2904496 2.3509582e-38
1.1027794 1.6251638 -1.3011291 2.3509583e-38
1.0756272 1.6300018 -1.3158568 2.3509584e-38
1.0393866 1.6335069 -1.3271228 2.3509584e-38
1.0028688 1.6386085 -1.3429365 2.3509586e-38
0.98600239 1.6382737 -1.3425918 2.3509587e-38
0.9563396 1.642248 -1.3549548 2.3509587e-38
0.94332963 1.6441609 -1.3608598 2.3509589e-38
0.9362421 1.6450478 -1.3636354 2.350959e-38
0.89946514 1.650522 -1.3805175 2.3509591e-38
0.89132458 1.6507734 -1.381525 2.3509591e-38
0.86737835 1.6549515 -1.3942616 2.3509593e-38
0.84182864 1.6608871 -1.4120512 2.3509594e-38
0.80691111 1.6604224 -1.4119868 2.3509596e-38
0.7976343 1.6592805 -1.4090747 2.3509596e-38
0.76793271 1.658879 -1.4090021 2.3509597e-38
0.754287 1.6621938 -1.4189144 2.3509598e-38
0.73369431 1.6644145 -1.4259672 2.35096e-38
0.7098282 1.6654551 -1.4297831 2.35096e-38
0.69555598 1.6683611 -1.4385561 2.3509601e-38
0.68943578 1.6706187 -1.4451929 2.3509603e-38
0.68477887 1.6728569 -1.4517223 2.3509603e-38
0.65804231 1.6812841 -1.4766362 2.3509604e-38
0.62108642 1.6865275 -1.4928684 2.3509605e-38
0.61302197 1.6863593 -1.4926807 2.3509607e-38
0.59601974 1.6881912 -1.4984988 2.3509607e-38
0.52007061 1.6868621 -1.4974538 2.3509608e-38
0.47173187 1.6751556 -1.4659199 2.350961e-38
0.44827971 1.6726246 -1.4595695 2.3509611e-38
0.44661057 1.6726382 -1.4596684 2.3509611e-38
0.42959753 1.6734849 -1.462687 2.3509612e-38
0.40937591 1.6770422 -1.4735252 2.3509614e-38
0.38818571 1.6798843 -1.4823655 2.3509614e-38
0.3789252 1.6805362 -1.4845514 2.3509615e-38
0.36491197 1.6829928 -1.4920379 2.3509617e-38
0.35030341 1.6849332 -1.4980783 2.3509618e-38
0.33421382 1.6865946 -1.5033796 2.3509618e-38
0.31736875 1.6902906 -1.5144904 2.3509619e-38
0.26902768 1.6882569 -1.5104492 2.3509621e-38
0.21494541 1.6919428 -1.5228709 2.3509622e-38
0.20055939 1.6919935 -1.5235325 2.3509622e-38
0.19588238 1.6931133 -1.5268838 2.3509624e-38
0.18634734 1.6966754 -1.5373511 2.3509625e-38
0.16603512 1.7012942 -1.5512092 2.3509625e-38
0.11315384 1.7032092 -1.5585548 2.3509626e-38
0.098383836 1.7073698 -1.5709114 2.3509628e-38
0.11834597 1.7146207 -1.5908022 2.3509629e-38
0.1769958 1.7098715 -1.575194 2.3509629e-38
0.21358295 1.7323434 -1.6377482 2.3509631e-38
0.16252004 1.7492784 -1.6877187 2.3509632e-38
0.14149146 1.7494611 -1.6889945 2.3509633e-38
0.11538125 1.75203 -1.6972355 2.3509633e-38
0.047927301 1.7499309 -1.6936957 2.3509635e-38
0.041511115 1.7497951 -1.6935406 2.3509636e-38
0.024787614 1.7503204 -1.6956353 2.3509636e-38
0.016639661 1.7545012 -1.7078112 2.3509638e-38
-0.060644671 1.7594979 -1.7247934 2.3509639e-38
-0.073807172 1.755688 -1.714438 2.350964e-38
-0.081912845 1.7550567 -1.7129354 2.350964e-38
-0.089702204 1.7541287 -1.7105781 2.3509642e-38
1.2302545 1.7892003 -1.7627754 2.3509643e-38
1.2654055 1.8037177 -1.802773 2.3509645e-38
1.2635858 1.810644 -1.8225248 2.3509645e-38
1.2779535 1.8192002 -1.8463262 2.3509646e-38
1.2825879 1.8226726 -1.8560293 2.3509647e-38
1.2868257 1.8336602 -1.8871061 2.3509647e-38
1.2830658 1.849234 -1.9315059 2.3509649e-38
1.2768313 1.8537744 -1.9446355 2.350965e-38
1.2791568 1.8570043 -1.9537319 2.3509652e-38
1.3217103 1.8623607 -1.9674253 2.3509652e-38
1.358024 1.8802861 -2.0170672 2.3509653e-38
1.3350806 1.8560814 -1.9490966 2.3509654e-38
1.3230704 1.8482203 -1.9271859 2.3509656e-38
1.3163348 1.8368229 -1.8950337 2.3509656e-38
1.349156 1.821794 -1.8511375 2.3509657e-38
1.4042394 1.8204745 -1.8454055 2.3509659e-38
1.4256753 1.8264112 -1.8615079 2.3509659e-38
1.4383618 1.8339684 -1.8825308 2.350966e-38
1.4526393 1.8319405 -1.8762536 2.3509661e-38
1.4739705 1.8201523 -1.8419809 2.3509663e-38
1.5131406 1.8178988 -1.8341668 2.3509663e-38
1.540953 1.8038886 -1.7933455 2.3509664e-38
1.5570298 1.800703 -1.7837135 2.3509666e-38
1.6334945 1.7898258 -1.7500467 2.3509667e-38
1.6533573 1.797341 -1.7706923 2.3509667e-38
1.6633464 1.7985891 -1.7738806 2.3509668e-38
1.700539 1.8015022 -1.780822 2.350967e-38
1.7112182 1.8010578 -1.779175 2.3509671e-38
1.7202035 1.7993436 -1.7739794 2.3509671e-38
1.2777524 1.93969 -2.1887956 2.3509673e-38
1.243807 1.9395349 -2.1895757 2.3509674e-38
1.1899481 1.93979 -2.1922386 2.3509674e-38
1.1703229 1.9407377 -2.1956379 2.3509675e-38
1.1326882 1.9454374 -2.2103496 2.3509677e-38
1.1242256 1.9474667 -2.2164218 2.3509678e-38
1.1170027 1.9458822 -2.2121782 2.3509678e-38
1.1292174 1.9430776 -2.2037673 2.350968e-38
1.1424714 1.9361862 -2.1837034 2.3509681e-38
1.1599348 1.9359939 -2.1825285 2.3509682e-38
1.1785405 1.9338131 -2.1756608 2.3509682e-38
1.1878215 1.9327003 -2.172164 2.3509684e-38
1.1970882 1.9315723 -2.1686246 2.3509685e-38
1.211697 1.9338267 -2.1745067 2.3509685e-38
1.2404554 1.9356673 -2.1787035 2.3509687e-38
1.250893 1.9357963 -2.1786945 2.3509688e-38
1.2869663 1.9355141 -2.176595 2.3509689e-38
1.3096441 1.9298778 -2.1597593 2.3509689e-38
1.3222018 1.9304154 -2.1608355 2.3509691e-38
1.3443491 1.9287838 -2.1554015 2.3509692e-38
1.3302794 1.934332 -2.1716771 2.3509694e-38
1.3209903 1.9355814 -2.1755626 2.3509694e-38
1.3115715 1.9374225 -2.181134 2.3509695e-38
1.3022559 1.9386462 -2.1849473 2.3509696e-38
0.11973175 2.0171423 -2.450593 2.3509696e-38
0.20032956 2.0084877 -2.4230952 2.3509698e-38
0.22223364 2.0158434 -2.4432139 2.3509699e-38
0.27102977 2.0031319 -2.4053295 2.3509701e-38
0.28100264 2.0030859 -2.4048398 2.3509701e-38
0.31051645 2.0013351 -2.3988016 2.3509702e-38
0.33069357 1.9937965 -2.3766494 2.3509703e-38
0.36092559 1.9903873 -2.3658719 2.3509705e-38
0.3699477 1.9878652 -2.3583791 2.3509705e-38
0.38167074 1.984336 -2.3479264 2.3509706e-38
0.4070901 1.9813704 -2.3385835 2.3509708e-38
0.41457152 1.973017 -2.3145714 2.3509708e-38
0.43273017 1.9637029 -2.2874453 2.3509709e-38
0.47653461 1.9442757 -2.2306526 2.350971e-38
0.55103105 1.9258966 -2.175735 2.3509712e-38
0.60038531 1.9205981 -2.1588998 2.3509712e-38
0.64077747 1.9104577 -2.1286252 2.3509713e-38
0.65078115 1.9078673 -2.1209025 2.3509715e-38
0.68866783 1.9057015 -2.1133838 2.3509716e-38
0.70449156 1.9053327 -2.1117661 2.3509716e-38
0.71374619 1.9044484 -2.1089199 2.3509717e-38
0.73059982 1.9003363 -2.0966258 2.3509719e-38
0.75068545 1.8980576 -2.0894268 2.3509719e-38
0.75885493 1.8951946 -2.080996 2.350972e-38
0.79276186 1.8854232 -2.0520029 2.3509722e-38
0.80915236 1.8808219 -2.0383356 2.3509723e-38
0.85637456 1.8763471 -2.0239179 2.3509723e-38
0.87213093 1.8719978 -2.0109897 2.3509724e-38
0.916058 1.868205 -1.9986292 2.3509726e-38
0.93805033 1.8709568 -2.0056591 2.3509727e-38
0.99994731 1.8702778 -2.0015025 2.3509727e-38
1.0202596 1.8665348 -1.9901335 2.3509729e-38
1.0360215 1.8656243 -1.9869787 2.350973e-38
1.011323 1.8655388 -1.987624 2.350973e-38
1.0058961 1.8650172 -1.9863369 2.3509731e-38
0.96634692 1.8570837 -1.9652107 2.3509733e-38
0.93529147 1.8512355 -1.9497056 2.3509734e-38
0.90996349 1.8470948 -1.9388479 2.3509734e-38
0.8927182 1.8393493 -1.9174536 2.3509736e-38
0.88394839 1.8364758 -1.9096024 2.3509737e-38
0.87377727 1.8359569 -1.9084934 2.3509738e-38
0.80907017 1.8340603 -1.9054304 2.3509738e-38
0.75152159 1.8428843 -1.9325806 2.350974e-38
0.74273711 1.8437605 -1.9353869 2.3509741e-38
0.69207233 1.8465043 -1.9450086 2.3509743e-38
0.6515308 1.8452628 -1.9429381 2.3509743e-38
0.64091736 1.8435614 -1.9384843 2.3509744e-38
0.62426597 1.8440175 -1.9403797 2.3509745e-38
0.59786242 1.8411642 -1.9332196 2.3509745e-38
0.58152336 1.8361174 -1.919463 2.3509747e-38
0.55175 1.8352921 -1.9181885 2.3509748e-38
0.51577073 1.8236907 -1.8865086 2.350975e-38
0.50666517 1.8241236 -1.8880668 2.350975e-38
0.45229429 1.8261362 -1.895743 2.3509751e-38
0.38284686 1.8144145 -1.8649254 2.3509752e-38
0.37661067 1.79948 -1.8227023 2.3509754e-38
0.37410671 1.7931575 -1.8048223 2.3509754e-38
0.37381536 1.7919774 -1.8014787 2.3509755e-38
0.34694922 1.7750211 -1.754251 2.3509757e-38
0.3520906 1.7673811 -1.7323511 2.3509757e-38
0.3695488 1.7508433 -1.6847188 2.3509758e-38
0.37506229 1.7465169 -1.6722239 2.3509759e-38
0.37824643 1.7424139 -1.6604475 2.3509761e-38
0.381924 1.7397459 -1.6527321 2.3509761e-38
0.3915599 1.732775 -1.6325725 2.3509762e-38
0.39825341 1.7290123 -1.621637 2.3509764e-38
0.40309483 1.7245035 -1.6086478 2.3509765e-38
0.41766426 1.7180959 -1.5899119 2.3509765e-38
0.4204689 1.7079933 -1.5610965 2.3509767e-38
0.43567413 1.6969036 -1.52903 2.3509768e-38
0.44225809 1.6944788 -1.5219014 2.3509768e-38
0.51583326 1.6968641 -1.5260344 2.3509769e-38
0.55674583 1.7018372 -1.538697 2.3509771e-38
0.61417073 1.7029495 -1.5397927 2.3509772e-38
0.6268146 1.7069013 -1.5505701 2.3509772e-38
0.65364099 1.7148137 -1.5720937 2.3509774e-38
0.67275941 1.7175184 -1.5790935 2.3509775e-38
0.69158661 1.7176875 -1.5788966 2.3509776e-38
0.69884884 1.7164757 -1.5751914 2.3509776e-38
0.69914711 1.7159067 -1.5735632 2.3509778e-38
0.70286375 1.7120217 -1.5623873 2.3509779e-38
0.7032178 1.7113967 -1.5605984 2.3509779e-38
0.70490706 1.7056122 -1.5440965 2.3509781e-38
0.70011562 1.700461 -1.5296282 2.3509782e-38
0.69874603 1.6906197 -1.501706 2.3509783e-38
0.6969806 1.6856683 -1.4876964 2.3509783e-38
0.7407617 1.6700808 -1.4418176 2.3509785e-38
0.75620079 1.6691439 -1.4385992 2.3509786e-38
0.83634037 1.6759857 -1.4551625 2.3509788e-38
0.8475132 1.681062 -1.4691888 2.3509788e-38
0.86728847 1.6907775 -1.4960914 2.3509789e-38
0.87189579 1.7015843 -1.526641 2.350979e-38
0.87126052 1.7087117 -1.546922 2.350979e-38
0.87197852 1.7249954 -1.593178 2.3509792e-38
0.90064061 1.7430867 -1.643567 2.3509793e-38
0.88504273 1.7533138 -1.6731958 2.3509795e-38
0.88908511 1.7679234 -1.7145742 2.3509795e-38
0.92228365 1.7720983 -1.7252465 2.3509796e-38
0.93015641 1.7707319 -1.7210795 2.3509797e-38
0.94221365 1.7696594 -1.7175975 2.3509799e-38
0.94707817 1.7637397 -1.7005973 2.3509799e-38
0.9506979 1.7399244 -1.632778 2.35098e-38
0.95730722 1.7381283 -1.6274354 2.3509802e-38
1.0051606 1.7199107 -1.5739352 2.3509802e-38
1.0117947 1.7145815 -1.5585496 2.3509803e-38
1.015689 1.7107415 -1.5474952 2.3509804e-38
1.0495845 1.7013813 -1.519672 2.3509806e-38
1.0570344 1.7000395 -1.5155901 2.3509806e-38
1.0644788 1.6986951 -1.511501 2.3509807e-38
1.1138471 1.6997025 -1.5125885 2.3509809e-38
1.1260835 1.7014979 -1.5172511 2.350981e-38
1.1725252 1.7177415 -1.5617485 2.350981e-38
1.194701 1.7248889 -1.5812659 2.3509811e-38
1.2093747 1.7319005 -1.6006664 2.3509813e-38
1.2209589 1.73489 -1.6087466 2.3509814e-38
1.2362911 1.7418797 -1.6280614 2.3509814e-38
1.2418486 1.7455872 -1.6383991 2.3509816e-38
1.2658499 1.7605926 -1.6801845 2.3509817e-38
1.2804544 1.7701122 -1.7067162 2.3509817e-38
0.10957172 2.0225773 -2.4664059 2.3509818e-38
0.068248585 2.0188127 -2.4571929 2.350982e-38
0.048079696 2.0185628 -2.4572084 2.3509821e-38
0.017610176 2.0204003 -2.4635267 2.3509821e-38
0.0074860319 2.0202296 -2.4634061 2.3509823e-38
-0.0033712105 2.0201864 -2.4636738 2.3509824e-38
-0.012693523 2.0205393 -2.4650121 2.3509825e-38
-0.05463111 2.0251424 -2.4796042 2.3509825e-38
-0.080279857 2.023777 -2.4766457 2.3509827e-38
-0.052335024 2.0177662 -2.4585567 2.3509828e-38
-0.03946355 2.011307 -2.4397345 2.3509828e-38
0.012872159 2.0141904 -2.4460475 2.350983e-38
0.028047377 2.0144632 -2.4462764 2.3509831e-38
0.043298215 2.0131662 -2.4420419 2.3509832e-38
0.05388945 2.0139627 -2.4439247 2.3509832e-38
0.11429564 1.9965284 -2.3921988 2.3509834e-38
0.11861726 1.9947234 -2.3869133 2.3509835e-38
0.1234051 1.9738228 -2.3273365 2.3509837e-38
0.12330655 1.9720566 -2.32232 2.3509837e-38
0.13268952 1.9683416 -2.3114233 2.3509838e-38
0.13980225 1.9671634 -2.3078191 2.3509839e-38
0.15846549 1.9776332 -2.3369052 2.3509839e-38
0.16296047 1.9795357 -2.3421509 2.3509841e-38
0.17401512 1.9891022 -2.3689437 2.3509842e-38
0.24863333 1.9973279 -2.3896389 2.3509844e-38
0.25853214 1.997308 -2.389226 2.3509844e-38
0.27902189 1.9966546 -2.3866317 2.3509845e-38
0.28901544 1.995259 -2.3823056 2.3509846e-38
0.32608151 1.980716 -2.3396373 2.3509848e-38
0.32607263 1.9596124 -2.2796559 2.3509848e-38
0.33536407 1.939433 -2.2219667 2.3509849e-38
0.32440156 1.9200189 -2.1671815 2.3509851e-38
0.2389306 1.9178452 -2.1640782 2.3509851e-38
0.2140238 1.93717 -2.2199001 2.3509852e-38
0.20998411 1.9315261 -2.204004 2.3509853e-38
0.14954947 1.9194021 -2.1717191 2.3509855e-38
0.15849243 1.9107231 -2.146729 2.3509855e-38
0.21867165 1.9029493 -2.1224694 2.3509856e-38
0.24708827 1.8907129 -2.0866678 2.3509858e-38
0.18573575 1.8706621 -2.0318859 2.3509859e-38
0.17619102 1.8622733 -2.0083866 2.3509859e-38
0.16257741 1.8501167 -1.9743242 2.350986e-38
0.13509685 1.8400767 -1.9467763 2.3509862e-38
0.12075853 1.8189602 -1.887274 2.3509862e-38
0.10417875 1.8158878 -1.8791381 2.3509863e-38
0.086851895 1.8004937 -1.8360076 2.3509865e-38
0.058773283 1.7923625 -1.8139066 2.3509866e-38
0.042264502 1.7804416 -1.7806187 2.3509866e-38
0.35741195 1.7961212 -1.8138466 2.3509867e-38
0.34331194 1.8064026 -1.8435756 2.3509869e-38
0.31385982 1.8184776 -1.8789557 2.350987e-38
0.29916134 1.8277754 -1.9059107 2.350987e-38
0.22978079 1.8389183 -1.9400779 2.3509872e-38
0.19044949 1.8271466 -1.9080349 2.3509873e-38
0.18842569 1.8113025 -1.8630745 2.3509873e-38
0.18609904 1.7995251 -1.829684 2.3509874e-38
0.1666016 1.7928975 -1.8115481 2.3509876e-38
0.15655136 1.7829607 -1.7836668 2.3509877e-38
0.15586595 1.7752229 -1.7616987 2.3509877e-38
0.21662951 1.7610102 -1.7191167 2.3509879e-38
0.24972652 1.7590674 -1.7124043 2.350988e-38
0.27391049 1.759387 -1.712443 2.3509881e-38
0.29254785 1.7620733 -1.7194072 2.3509881e-38
0.3024337 1.7648331 -1.7268958 2.3509883e-38
0.3157247 1.7724382 -1.7480329 2.3509884e-38
