# .PCD v0.7 - Point Cloud Data file format
VERSION 0.7
FIELDS x y z rgb
SIZE 4 4 4 4
TYPE F F F F
COUNT 1 1 1 1
WIDTH 86
HEIGHT 1
VIEWPOINT 0 0 0 1 0 0 0
POINTS 86
DATA ascii
-2.1154613 1.2244651 0.81069082 2.3509528e-38
-2.0928607 1.197753 0.80504918 2.3509531e-38
-2.0534487 1.1658833 0.80278015 2.3509535e-38
-2.0352421 1.1547172 0.80356145 2.3509539e-38
-2.0151029 1.1385138 0.80244416 2.3509544e-38
-1.9992474 1.1268318 0.80211741 2.3509548e-38
-1.9928577 1.119411 0.80059004 2.3509552e-38
-1.9793196 1.1092925 0.800237 2.3509556e-38
-1.9554409 1.0834014 0.79547584 2.3509561e-38
-1.940704 1.07495 0.79641014 2.3509565e-38
-1.924225 1.0617509 0.79552639 2.3509569e-38
-1.9050806 1.0431988 0.79284412 2.3509573e-38
-1.8886423 1.0325624 0.79326415 2.3509577e-38
-1.8589113 1.0025053 0.78845757 2.3509582e-38
-1.8215531 0.97854698 0.78952253 2.3509586e-38
-1.8044704 0.96513861 0.78874761 2.350959e-38
-1.7791594 0.93711859 0.78340459 2.3509594e-38
-1.7514046 0.91905367 0.78405923 2.3509598e-38
-1.7352289 0.90279388 0.78149211 2.3509603e-38
-1.7221084 0.89503878 0.78220528 2.3509607e-38
-1.7046665 0.89018732 0.78596151 2.3509611e-38
-1.6984187 0.88823932 0.78719878 2.3509615e-38
-1.6818532 0.88793105 0.79297793 2.3509619e-38
-1.6457262 0.87794369 0.80078948 2.3509624e-38
-1.6336361 0.87317187 0.80266809 2.3509628e-38
-1.6066313 0.86742401 0.8093909 2.3509632e-38
-1.5729195 0.88155347 0.82874423 2.3509636e-38
-1.5673132 0.88542241 0.83274412 2.350964e-38
-1.5736724 0.93008363 0.85344207 2.3509645e-38
-1.5767593 0.96228015 0.86889982 2.3509647e-38
-1.5731596 0.97322434 0.87582082 2.3509652e-38
-1.5786042 0.99426532 0.88469422 2.3509656e-38
-1.5767028 1.0178015 0.89748472 2.350966e-38
-1.5783691 1.0418713 0.90927064 2.3509664e-38
-1.5846201 1.0632936 0.91805142 2.3509668e-38
-1.5851997 1.0915676 0.93238997 2.3509673e-38
-1.5960686 1.1028019 0.93427384 2.3509677e-38
-1.6113193 1.1164013 0.93580383 2.3509681e-38
-1.6229107 1.12265 0.93486363 2.3509685e-38
-1.6331906 1.1307715 0.93535715 2.3509689e-38
-1.651521 1.1475093 0.9373979 2.3509694e-38
-1.6697884 1.1584527 0.9364801 2.3509698e-38
-1.6856099 1.1705637 0.93703967 2.3509702e-38
-1.6913964 1.1776654 0.9386192 2.3509706e-38
-1.7060368 1.1987234 0.94420528 2.350971e-38
-1.7231408 1.2139286 0.94589722 2.3509715e-38
-1.7314899 1.2197531 0.94590098 2.3509719e-38
-1.7487487 1.2392573 0.94974905 2.3509723e-38
-1.7524259 1.2464707 0.95214206 2.3509727e-38
-1.7641135 1.2620499 0.95596772 2.3509731e-38
-1.7894026 1.279441 0.95585018 2.3509736e-38
-1.8017595 1.2894087 0.95654911 2.350974e-38
-1.8220054 1.3070891 0.95838827 2.3509744e-38
-1.8387821 1.321655 0.95986831 2.3509748e-38
-1.8570324 1.3434064 0.96451718 2.3509752e-38
-1.8676873 1.360729 0.96960998 2.3509757e-38
-1.8937849 1.3736933 0.96692538 2.3509761e-38
-1.9189509 1.4033731 0.97317404 2.3509765e-38
-1.921479 1.4150488 0.97827476 2.3509768e-38
-1.9498564 1.4542577 0.98827505 2.3509772e-38
-1.9633646 1.45696 0.98482329 2.3509776e-38
-1.9878764 1.4532506 0.97412848 2.3509781e-38
-2.0037179 1.456184 0.96995932 2.3509785e-38
-2.020149 1.4619541 0.96703827 2.3509789e-38
-2.0302923 1.4617932 0.96331972 2.3509793e-38
-2.0385401 1.4617443 0.96033818 2.3509797e-38
-2.0712628 1.4673748 0.95150536 2.3509802e-38
-2.1044893 1.4704343 0.94116944 2.3509806e-38
-2.1182752 1.476177 0.9391824 2.350981e-38
-2.1302638 1.4743667 0.9339537 2.3509814e-38
-2.1354916 1.4742844 0.93203747 2.3509818e-38
-2.1496735 1.4642659 0.92179978 2.3509823e-38
-2.1544247 1.4494653 0.91248196 2.3509827e-38
-2.152658 1.4059883 0.89074731 2.3509831e-38
-2.149473 1.3700705 0.87340993 2.3509835e-38
-2.1494927 1.3695461 0.8731333 2.3509839e-38
-2.1472452 1.3475816 0.86263853 2.3509844e-38
-2.1462741 1.326547 0.85216486 2.3509848e-38
-2.1493282 1.3125477 0.84386772 2.3509852e-38
-2.1492119 1.3088084 0.84198564 2.3509856e-38
-2.1483927 1.2998 0.8376447 2.350986e-38
-2.1481524 1.2943232 0.83491319 2.3509865e-38
-2.1443131 1.2717962 0.82469964 2.3509869e-38
-2.1452215 1.2608857 0.81876093 2.3509873e-38
-2.1369586 1.2460634 0.81409687 2.3509877e-38
-2.1292293 1.2339914 0.81065673 2.3509881e-38
