# .PCD v0.7 - Point Cloud Data file format
VERSION 0.7
FIELDS x y z rgb
SIZE 4 4 4 4
TYPE F F F F
COUNT 1 1 1 1
WIDTH 181
HEIGHT 1
VIEWPOINT 0 0 0 1 0 0 0
POINTS 181
DATA ascii
1.2552155 1.3928503 -0.70813656 2.3509528e-38
1.2599199 1.3906305 -0.70428413 2.350953e-38
1.2619517 1.39108 -0.7056706 2.3509531e-38
1.2660941 1.3923155 -0.70918924 2.3509534e-38
1.2822551 1.3950493 -0.71839601 2.3509535e-38
1.2897714 1.3962654 -0.7225579 2.3509538e-38
1.3103102 1.4034775 -0.74235624 2.3509539e-38
1.3138287 1.4044394 -0.74515504 2.3509541e-38
1.3305893 1.4087006 -0.75779253 2.3509544e-38
1.3461092 1.4108347 -0.76556981 2.3509545e-38
1.3517311 1.4113518 -0.76783264 2.3509548e-38
1.3632122 1.413197 -0.77416366 2.3509549e-38
1.3689727 1.4148107 -0.77882969 2.3509551e-38
1.3904761 1.4174956 -0.78901684 2.3509554e-38
1.395064 1.4174731 -0.78990054 2.3509555e-38
1.4591345 1.4010229 -0.7672863 2.3509558e-38
1.4669048 1.3946197 -0.75499433 2.3509559e-38
1.4823689 1.3740258 -0.71352446 2.3509561e-38
1.4784036 1.3666503 -0.69674104 2.3509563e-38
1.4715246 1.3618664 -0.68497938 2.3509565e-38
1.4654214 1.3569136 -0.67300975 2.3509568e-38
1.461171 1.3518485 -0.66117316 2.3509569e-38
1.4534479 1.3442929 -0.64323568 2.350957e-38
1.4511646 1.3422251 -0.63829213 2.3509573e-38
1.4450461 1.3373935 -0.62658203 2.3509575e-38
1.4445288 1.3362581 -0.62401688 2.3509577e-38
1.440691 1.3300263 -0.6097371 2.3509579e-38
1.4308125 1.3230153 -0.59254164 2.3509582e-38
1.4220144 1.3133175 -0.56974506 2.3509583e-38
1.414026 1.3038927 -0.54770446 2.3509584e-38
1.4074819 1.2972987 -0.53208959 2.3509587e-38
1.4058377 1.2949594 -0.52668786 2.3509589e-38
1.3967774 1.2883995 -0.51063544 2.3509591e-38
1.3907229 1.2788903 -0.48880497 2.3509593e-38
1.3890731 1.2763627 -0.48299447 2.3509594e-38
1.3843658 1.2722971 -0.47323039 2.3509597e-38
1.3796488 1.2682568 -0.46351919 2.3509598e-38
1.3735843 1.2589473 -0.442119 2.3509601e-38
1.3646159 1.2526476 -0.42664954 2.3509603e-38
1.3529463 1.2373137 -0.3910597 2.3509604e-38
1.3507938 1.2333328 -0.38199827 2.3509607e-38
1.3491998 1.2308904 -0.37638313 2.3509608e-38
1.3476056 1.2284478 -0.37076801 2.3509611e-38
1.34266 1.2219143 -0.35560897 2.3509612e-38
1.3364096 1.2180719 -0.34601483 2.3509614e-38
1.3204021 1.212284 -0.33022311 2.3509617e-38
1.3113776 1.2054729 -0.31363407 2.3509618e-38
1.2997283 1.2010369 -0.30165657 2.3509621e-38
1.2921313 1.191489 -0.27942881 2.3509622e-38
1.2897311 1.1872339 -0.26972318 2.3509625e-38
1.2770112 1.1781472 -0.24745333 2.3509626e-38
1.2705537 1.1749394 -0.23919187 2.3509628e-38
1.2677902 1.1660355 -0.21934174 2.3509631e-38
1.2667267 1.164487 -0.21577071 2.3509632e-38
1.2673533 1.1617103 -0.20988296 2.3509635e-38
1.2810906 1.1627471 -0.21492116 2.3509636e-38
1.2855915 1.171455 -0.23469986 2.3509638e-38
1.292212 1.1755192 -0.24485001 2.350964e-38
1.2954781 1.1794549 -0.2540395 2.3509642e-38
1.3037502 1.1852429 -0.26825947 2.3509645e-38
1.3097458 1.1934352 -0.28722501 2.3509646e-38
1.3496786 1.2040311 -0.31829512 2.3509647e-38
1.3570197 1.2043415 -0.32045969 2.350965e-38
1.377517 1.2076149 -0.33171672 2.3509652e-38
1.4300393 1.2130538 -0.35417387 2.3509654e-38
1.4637184 1.2151258 -0.36550766 2.3509656e-38
1.5018786 1.2077266 -0.35723436 2.3509657e-38
1.5030504 1.2182992 -0.38037601 2.350966e-38
1.5065459 1.2380525 -0.42387813 2.3509661e-38
1.5148464 1.2419037 -0.43390816 2.3509664e-38
1.5269369 1.248759 -0.45121625 2.3509666e-38
1.5367664 1.2618643 -0.48160395 2.3509668e-38
1.545568 1.2664038 -0.49322703 2.350967e-38
1.5759574 1.274181 -0.51625109 2.3509671e-38
1.6551094 1.2656199 -0.51379246 2.3509674e-38
1.6909822 1.2680627 -0.52637523 2.3509675e-38
1.71163 1.2674534 -0.52925181 2.3509678e-38
1.76206 1.2646509 -0.53343058 2.350968e-38
1.8177805 1.2547659 -0.5233413 2.3509681e-38
1.83534 1.2543899 -0.52609533 2.3509684e-38
1.8431976 1.2547615 -0.52849734 2.3509685e-38
1.878183 1.2599499 -0.54684782 2.3509688e-38
1.8940375 1.2588494 -0.54768616 2.3509689e-38
1.9141223 1.2695814 -0.57501721 2.3509691e-38
1.9853507 1.2754648 -0.60223895 2.3509694e-38
2.0015762 1.2742062 -0.6028102 2.3509695e-38
2.0114975 1.2822549 -0.62226272 2.3509698e-38
2.0391185 1.2882687 -0.64090407 2.3509699e-38
2.0613801 1.3008556 -0.67269588 2.3509701e-38
2.0448618 1.3403971 -0.75499755 2.3509703e-38
2.0593638 1.3388655 -0.75462723 2.3509705e-38
2.0737486 1.3369917 -0.75349164 2.3509708e-38
2.0889704 1.3345226 -0.7512365 2.3509709e-38
2.1055999 1.3273453 -0.73906785 2.3509712e-38
1.0531071 1.4938649 -0.8858881 2.3509713e-38
1.045083 1.5000501 -0.89765626 2.3509715e-38
1.041189 1.4941148 -0.88400692 2.3509717e-38
1.0366054 1.4870631 -0.86779904 2.3509719e-38
1.0377709 1.4763979 -0.84493214 2.3509722e-38
1.0341842 1.471197 -0.83293635 2.3509723e-38
1.032753 1.4668778 -0.82328868 2.3509724e-38
1.0343643 1.4592906 -0.80718011 2.3509727e-38
1.0313253 1.4528679 -0.79264855 2.3509729e-38
1.034399 1.450328 -0.78777152 2.3509731e-38
1.0374728 1.4477884 -0.78289455 2.3509733e-38
1.0511935 1.4321257 -0.75175291 2.3509734e-38
1.0691705 1.4248798 -0.73970973 2.3509737e-38
1.0762717 1.421963 -0.73483449 2.3509738e-38
1.0837328 1.4199882 -0.73207259 2.3509741e-38
1.086538 1.4205254 -0.73380685 2.3509743e-38
1.1016061 1.4240499 -0.74450427 2.3509744e-38
1.1689129 1.4167436 -0.74235642 2.3509747e-38
1.1701785 1.4161212 -0.74126536 2.3509748e-38
1.1741724 1.4148089 -0.73923427 2.3509751e-38
1.1840225 1.412172 -0.73552364 2.3509752e-38
1.1991251 1.4107467 -0.73550564 2.3509755e-38
1.2060548 1.4094698 -0.73414785 2.3509757e-38
1.2465717 1.3963125 -0.71388 2.3509758e-38
1.3014845 1.4034393 -0.74047935 2.3509761e-38
1.2398518 1.4108866 -0.74408621 2.3509762e-38
1.2258996 1.411041 -0.74158484 2.3509765e-38
1.1801218 1.4222965 -0.75666386 2.3509767e-38
1.1641567 1.4282606 -0.76633877 2.3509768e-38
1.1565515 1.4319657 -0.77281964 2.3509771e-38
1.1523415 1.4337798 -0.77589399 2.3509772e-38
1.1410878 1.4397726 -0.78658903 2.3509775e-38
1.1308336 1.4426241 -0.79068214 2.3509776e-38
1.1056724 1.4386249 -0.77690452 2.3509778e-38
1.0449177 1.4605011 -0.81194711 2.3509781e-38
1.0446965 1.4684724 -0.8291707 2.3509782e-38
1.044012 1.471241 -0.8350293 2.3509785e-38
1.0434521 1.4789279 -0.85156769 2.3509786e-38
1.0474712 1.4843851 -0.86420637 2.3509788e-38
1.3450978 1.4145538 -0.77342093 2.350979e-38
1.3278508 1.4109455 -0.76209933 2.3509792e-38
1.9637614 1.3287212 -0.71322078 2.3509795e-38
1.991788 1.2974256 -0.65112132 2.3509796e-38
2.0101798 1.2941725 -0.64781183 2.3509799e-38
1.955688 1.3409868 -0.73815119 2.35098e-38
1.9558973 1.3676714 -0.79600048 2.3509802e-38
1.962924 1.3915091 -0.8490687 2.3509804e-38
1.9807776 1.4086512 -0.88983244 2.3509806e-38
1.9866371 1.419961 -0.91552377 2.3509809e-38
2.0001149 1.4269565 -0.9334175 2.350981e-38
2.0115433 1.4302435 -0.94286072 2.3509811e-38
1.9766749 1.4451489 -0.96806407 2.3509814e-38
1.9701411 1.4527774 -0.9832617 2.3509816e-38
1.9662074 1.4572002 -0.99204284 2.3509818e-38
1.965964 1.4773895 -1.0357298 2.350982e-38
1.967059 1.4814976 -1.044852 2.3509821e-38
1.9665858 1.4921688 -1.0678729 2.3509824e-38
1.935658 1.4966942 -1.0713903 2.3509825e-38
1.9320604 1.4968901 -1.0710835 2.3509828e-38
1.9220513 1.4911993 -1.0567212 2.350983e-38
1.9043552 1.482412 -1.0340886 2.3509831e-38
1.8679878 1.4732149 -1.0067735 2.3509834e-38
1.8425355 1.4620802 -0.97747922 2.3509835e-38
1.8078758 1.4620886 -0.9704529 2.3509838e-38
1.797617 1.4639227 -0.97234124 2.3509839e-38
1.7659066 1.4696989 -0.97840911 2.3509842e-38
1.7537581 1.4709085 -0.97856075 2.3509844e-38
1.7256898 1.4777514 -0.98767966 2.3509845e-38
1.7039806 1.48954 -1.008805 2.3509848e-38
1.6887238 1.4952333 -1.0180377 2.3509849e-38
1.6804237 1.4979062 -1.0221412 2.3509852e-38
1.6700776 1.4993368 -1.0231376 2.3509853e-38
1.6385603 1.4930118 -1.0030298 2.3509855e-38
1.6204997 1.4919516 -0.99706221 2.3509858e-38
1.6046605 1.4916601 -0.99321151 2.3509859e-38
1.5875914 1.4859434 -0.9773587 2.3509862e-38
1.5693432 1.4800087 -0.96079326 2.3509863e-38
1.5496711 1.4740611 -0.94391066 2.3509865e-38
1.5257428 1.4640757 -0.91741556 2.3509867e-38
1.5170356 1.4619826 -0.91111183 2.3509869e-38
1.5016649 1.4571903 -0.89760602 2.3509872e-38
1.4872015 1.4521296 -0.88370377 2.3509873e-38
1.4769126 1.4419152 -0.85948455 2.3509874e-38
1.4638709 1.4343781 -0.84050667 2.3509877e-38
1.4167385 1.425321 -0.81130666 2.3509879e-38
1.3884946 1.4212711 -0.79679281 2.3509881e-38
1.3683395 1.4181247 -0.78588063 2.3509883e-38
