# .PCD v0.7 - Point Cloud Data file format
VERSION 0.7
FIELDS x y z rgb
SIZE 4 4 4 4
TYPE F F F F
COUNT 1 1 1 1
WIDTH 108
HEIGHT 1
VIEWPOINT 0 0 0 1 0 0 0
POINTS 108
DATA ascii
2.3903167 0.49185041 -1.1883743 2.3509528e-38
2.4027095 0.48368397 -1.2331921 2.3509531e-38
2.4134026 0.4630945 -1.2782347 2.3509534e-38
2.4198172 0.45598075 -1.3027911 2.3509538e-38
2.4224026 0.45006666 -1.3141227 2.3509541e-38
2.4323094 0.46071452 -1.3418709 2.3509544e-38
2.4468405 0.48551831 -1.3782516 2.3509548e-38
2.4548876 0.4851068 -1.405053 2.3509551e-38
2.4629283 0.49378422 -1.4275582 2.3509554e-38
2.4719188 0.50336391 -1.4527797 2.3509558e-38
2.4735436 0.50519145 -1.4572927 2.3509561e-38
2.4833786 0.51564127 -1.4848975 2.3509563e-38
2.5016508 0.53546041 -1.5359923 2.3509568e-38
2.508795 0.54308742 -1.5560271 2.350957e-38
2.5216238 0.57645833 -1.5827496 2.3509575e-38
2.524214 0.5793823 -1.5899379 2.3509577e-38
2.5299792 0.58474058 -1.6064801 2.350958e-38
2.5365453 0.583938 -1.6285696 2.3509584e-38
2.5438786 0.5919404 -1.6490532 2.3509587e-38
2.5502496 0.58934867 -1.6713381 2.350959e-38
2.5551703 0.59293902 -1.6859204 2.3509594e-38
2.5794246 0.63137192 -1.7480395 2.3509597e-38
2.5867219 0.62861401 -1.773466 2.35096e-38
2.5895739 0.62960947 -1.7824273 2.3509604e-38
2.5913477 0.63160127 -1.7873561 2.3509607e-38
2.6146913 0.68777311 -1.8381206 2.3509611e-38
2.6289866 0.69275153 -1.8830473 2.3509614e-38
2.6322486 0.68887299 -1.8956577 2.3509617e-38
2.6392853 0.68300754 -1.9216835 2.3509621e-38
2.6449437 0.69173169 -1.9362892 2.3509624e-38
2.6432152 0.70082921 -1.9262948 2.3509626e-38
2.6278062 0.71137875 -1.870381 2.3509631e-38
2.6248441 0.72638589 -1.853528 2.3509633e-38
2.6239717 0.73457634 -1.8467909 2.3509636e-38
2.6186521 0.76527059 -1.8147631 2.350964e-38
2.6117449 0.77557361 -1.7870778 2.3509643e-38
2.6029313 0.79269928 -1.7498788 2.3509647e-38
2.6020682 0.80082935 -1.7432005 2.350965e-38
2.6012051 0.80895942 -1.736523 2.3509653e-38
2.5987945 0.8523528 -1.7081397 2.3509657e-38
2.597137 0.86809373 -1.6952553 2.350966e-38
2.6050274 0.92379826 -1.6951423 2.3509663e-38
2.6059837 0.95230174 -1.6848962 2.3509667e-38
2.606636 0.97478008 -1.6764792 2.350967e-38
2.6079006 0.99482322 -1.6712326 2.3509673e-38
2.6094551 1.0063803 -1.670936 2.3509677e-38
2.6104491 1.0264611 -1.6647769 2.350968e-38
2.6149333 1.0749555 -1.6567931 2.3509682e-38
2.6042979 1.106112 -1.6069717 2.3509687e-38
2.603889 1.114283 -1.6017752 2.3509689e-38
2.6019108 1.1215845 -1.5918 2.3509694e-38
2.6002078 1.1273919 -1.5834359 2.3509696e-38
2.5928447 1.1536102 -1.5467573 2.3509699e-38
2.5886729 1.2078934 -1.5074289 2.3509703e-38
2.5766375 1.2169564 -1.4633701 2.3509706e-38
2.5825613 1.2992884 -1.4442284 2.3509709e-38
2.5719275 1.3104941 -1.4037977 2.3509713e-38
2.5561457 1.3109797 -1.3513855 2.3509716e-38
2.5536201 1.3135228 -1.3418378 2.3509719e-38
2.5490255 1.3060325 -1.33017 2.3509723e-38
2.5371101 1.2887082 -1.2989198 2.3509726e-38
2.5219014 1.2788336 -1.2532765 2.350973e-38
2.5139236 1.2642204 -1.2337713 2.3509733e-38
2.5113127 1.2605913 -1.2268444 2.3509736e-38
2.5068803 1.2531835 -1.215673 2.350974e-38
2.4956143 1.2201124 -1.1939777 2.3509743e-38
2.4904785 1.2113751 -1.1811055 2.3509745e-38
2.4887419 1.2056539 -1.178055 2.350975e-38
2.4894259 1.1979707 -1.1839304 2.3509752e-38
2.4927301 1.1763513 -1.205026 2.3509755e-38
2.4934151 1.1686687 -1.2109041 2.3509759e-38
2.4940999 1.1609862 -1.2167827 2.3509762e-38
2.494314 1.1424471 -1.2262126 2.3509767e-38
2.4858868 1.0927554 -1.2217209 2.3509769e-38
2.474076 1.0632861 -1.1965307 2.3509772e-38
2.469677 1.0524826 -1.1870661 2.3509776e-38
2.4625442 1.040646 -1.1690488 2.3509779e-38
2.454777 1.0352578 -1.1459008 2.3509782e-38
2.4466553 1.0330812 -1.1200703 2.3509786e-38
2.4443099 1.0304278 -1.1135632 2.3509789e-38
2.4317758 1.0019155 -1.0855302 2.3509792e-38
2.431082 1.0007312 -1.0837935 2.3509796e-38
2.415755 0.9962092 -1.035241 2.3509799e-38
2.4039092 0.97102731 -1.0079178 2.3509802e-38
2.3961952 0.96231812 -0.98650759 2.3509806e-38
2.391398 0.96104962 -0.97124159 2.3509809e-38
2.3837323 0.93385994 -0.95868492 2.3509813e-38
2.3782544 0.91817832 -0.94794869 2.3509816e-38
2.3813097 0.90610272 -0.96373111 2.3509818e-38
2.3827519 0.89221442 -0.97503257 2.3509823e-38
2.3804367 0.85636979 -0.98423845 2.3509825e-38
2.3785069 0.84471148 -0.98334092 2.3509828e-38
2.37954 0.83527356 -0.99119657 2.3509832e-38
2.3802533 0.82839358 -0.99679106 2.3509835e-38
2.3809664 0.82151383 -1.0023855 2.3509838e-38
2.3812809 0.81419355 -1.0068686 2.3509842e-38
2.384299 0.80316162 -1.0220375 2.3509845e-38
2.3822904 0.75250608 -1.0392244 2.3509849e-38
2.3821187 0.73624194 -1.0463072 2.3509852e-38
2.3869789 0.68483013 -1.0865613 2.3509855e-38
2.3876841 0.6780135 -1.0920997 2.3509859e-38
2.3834684 0.6277712 -1.1017933 2.3509862e-38
2.3811491 0.57391632 -1.1194575 2.3509865e-38
2.3803458 0.56526536 -1.1208708 2.3509869e-38
2.3829465 0.54574138 -1.1386542 2.3509872e-38
2.3826618 0.51540327 -1.1519835 2.3509874e-38
2.3836529 0.50643152 -1.1594805 2.3509879e-38
2.3838465 0.4996877 -1.1632926 2.3509881e-38
