# .PCD v0.7 - Point Cloud Data file format
VERSION 0.7
FIELDS x y z rgb
SIZE 4 4 4 4
TYPE F F F F
COUNT 1 1 1 1
WIDTH 382
HEIGHT 1
VIEWPOINT 0 0 0 1 0 0 0
POINTS 382
DATA ascii
-1.2737408 0.59815586 2.985738 2.3509528e-38
-1.279233 0.59980929 2.9817727 2.3509528e-38
-1.2792162 0.60064441 2.9797935 2.350953e-38
-1.2680696 0.61166924 2.9537566 2.3509531e-38
-1.2573671 0.62150323 2.9305391 2.3509531e-38
-1.2412965 0.63051146 2.9093239 2.3509532e-38
-1.2252862 0.64111918 2.8843174 2.3509534e-38
-1.2097907 0.65135944 2.8601773 2.3509534e-38
-1.1952246 0.66742086 2.8222322 2.3509535e-38
-1.1949313 0.66814888 2.8205092 2.3509537e-38
-1.1854086 0.67722619 2.7990751 2.3509537e-38
-1.1851175 0.67794824 2.7973659 2.3509538e-38
-1.1708888 0.68668443 2.7767804 2.3509539e-38
-1.1513022 0.6957466 2.7554669 2.3509539e-38
-1.1429864 0.70338243 2.7374389 2.3509541e-38
-1.1340111 0.71203601 2.7170043 2.3509542e-38
-1.1254268 0.72033846 2.6973989 2.3509542e-38
-1.1251471 0.72103232 2.6957567 2.3509544e-38
-1.1248674 0.72172612 2.6941144 2.3509545e-38
-1.1405237 0.74673992 2.6346943 2.3509545e-38
-1.1446311 0.75221324 2.6216869 2.3509547e-38
-1.1483874 0.75514948 2.6146955 2.3509548e-38
-1.1481162 0.75582194 2.6131036 2.3509548e-38
-1.1478451 0.75649476 2.6115115 2.3509549e-38
-1.1360667 0.76354706 2.5948958 2.3509551e-38
-1.1236644 0.77165806 2.5757763 2.3509551e-38
-1.1139585 0.77933395 2.5576653 2.3509552e-38
-1.0992738 0.80449343 2.498157 2.3509554e-38
-1.0961112 0.81309986 2.4777849 2.3509554e-38
-1.0851359 0.82318145 2.4539826 2.3509555e-38
-1.0642091 0.84070104 2.4126351 2.3509556e-38
-1.0663992 0.85180855 2.3862896 2.3509556e-38
-1.0577854 0.86139107 2.3636503 2.3509558e-38
-1.0579082 0.86674243 2.3509655 2.3509559e-38
-1.0523255 0.87098306 2.3409617 2.3509559e-38
-1.0443299 0.87701946 2.3267219 2.3509561e-38
-1.0208569 0.8949402 2.2844453 2.3509562e-38
-1.0133601 0.9005987 2.2710969 2.3509562e-38
-0.99879777 0.90502596 2.2607269 2.3509563e-38
-0.97205335 0.91266888 2.2428384 2.3509565e-38
-0.96435356 0.9296357 2.2026892 2.3509565e-38
-0.91054302 0.92308933 2.2186613 2.3509566e-38
-0.87415993 0.92965597 2.2034054 2.3509568e-38
-0.8609376 0.93118745 2.1998875 2.3509568e-38
-0.83912569 0.93401015 2.193382 2.3509569e-38
-0.809187 0.93388253 2.1939383 2.350957e-38
-0.80171645 0.93304235 2.1959929 2.350957e-38
-0.78349119 0.93182951 2.1990221 2.3509572e-38
-0.76671255 0.93161988 2.199661 2.3509573e-38
-0.7559703 0.93121094 2.2007213 2.3509573e-38
-0.73843503 0.93168175 2.199754 2.3509575e-38
-0.73095125 0.93091047 2.2016454 2.3509576e-38
-0.71265131 0.92939913 2.2053828 2.3509576e-38
-0.69400102 0.92973077 2.2047548 2.3509577e-38
-0.6818195 0.93100953 2.201827 2.3509579e-38
-0.65703619 0.93100697 2.2020431 2.3509579e-38
-0.65297997 0.93102235 2.2020409 2.350958e-38
-0.6451866 0.93112063 2.201874 2.3509582e-38
-0.63675511 0.93108368 2.202033 2.3509582e-38
-0.6289053 0.93117011 2.2018948 2.3509583e-38
-0.62076461 0.93119484 2.2019053 2.3509584e-38
-0.61262405 0.93121946 2.2019157 2.3509584e-38
-0.55970973 0.93138015 2.2019835 2.3509586e-38
-0.55563945 0.93139243 2.2019887 2.3509587e-38
-0.55156916 0.93140471 2.2019939 2.3509587e-38
-0.54749876 0.93141705 2.2019992 2.3509589e-38
-0.53121746 0.93146658 2.2020199 2.350959e-38
-0.52714711 0.93147886 2.2020252 2.350959e-38
-0.52307677 0.9314912 2.2020304 2.3509591e-38
-0.48237351 0.93161476 2.2020824 2.3509593e-38
-0.43759993 0.93175071 2.2021399 2.3509593e-38
-0.43352968 0.93176299 2.2021451 2.3509594e-38
-0.42945933 0.93177533 2.2021503 2.3509596e-38
-0.42538896 0.93178773 2.2021556 2.3509596e-38
-0.42131862 0.93180013 2.2021606 2.3509597e-38
-0.37481117 0.92781442 2.2120016 2.3509598e-38
-0.37071496 0.92782682 2.2120068 2.3509598e-38
-0.36661866 0.92783922 2.2120121 2.35096e-38
-0.36252239 0.92785174 2.2120173 2.3509601e-38
-0.35842612 0.92786413 2.2120225 2.3509601e-38
-0.35432994 0.92787659 2.2120278 2.3509603e-38
-0.35023367 0.92788899 2.212033 2.3509604e-38
-0.3461374 0.92790139 2.2120383 2.3509604e-38
-0.34204111 0.9279139 2.2120435 2.3509605e-38
-0.33794487 0.9279263 2.2120488 2.3509607e-38
-0.32975242 0.92795116 2.2120593 2.3509607e-38
-0.32565615 0.92796355 2.2120645 2.3509608e-38
-0.32155988 0.92797607 2.2120697 2.350961e-38
-0.31746361 0.92798847 2.212075 2.350961e-38
-0.31336743 0.92800087 2.2120802 2.3509611e-38
-0.30927116 0.92801332 2.2120855 2.3509612e-38
-0.30517489 0.92802572 2.2120907 2.3509612e-38
-0.30107862 0.92803818 2.212096 2.3509614e-38
-0.29698235 0.92805064 2.2121012 2.3509615e-38
-0.29288617 0.92806304 2.2121065 2.3509615e-38
-0.28059733 0.92810035 2.2121222 2.3509617e-38
-0.27650109 0.92811275 2.2121274 2.3509618e-38
-0.27240491 0.9281252 2.2121327 2.3509618e-38
-0.26830864 0.9281376 2.2121379 2.3509619e-38
-0.26421237 0.92815006 2.2121432 2.3509621e-38
-0.2601161 0.92816252 2.2121484 2.3509621e-38
-0.25601986 0.92817491 2.2121537 2.3509622e-38
-0.25192362 0.92818737 2.2121589 2.3509624e-38
-0.24782737 0.92819977 2.2121642 2.3509624e-38
-0.24373111 0.92821229 2.2121694 2.3509625e-38
-0.23963484 0.92822468 2.2121747 2.3509626e-38
-0.23553857 0.92823702 2.2121799 2.3509626e-38
-0.23144238 0.92824954 2.2121851 2.3509628e-38
-0.22734611 0.92826194 2.2121904 2.3509629e-38
-0.21096112 0.92831171 2.2122114 2.3509629e-38
-0.20686485 0.9283241 2.2122166 2.3509631e-38
-0.18638361 0.92838627 2.2122428 2.3509632e-38
-0.18228732 0.92839873 2.2122481 2.3509632e-38
-0.17819107 0.92841119 2.2122533 2.3509633e-38
-0.15361354 0.92848569 2.2122848 2.3509635e-38
-0.14951734 0.92849815 2.21229 2.3509635e-38
-0.1413248 0.92852306 2.2123005 2.3509636e-38
-0.13722853 0.9285354 2.2123058 2.3509638e-38
-0.13313228 0.92854786 2.212311 2.3509638e-38
-0.07988102 0.92870957 2.2123792 2.3509639e-38
-0.075784758 0.9287219 2.2123845 2.350964e-38
-0.071688488 0.9287343 2.2123897 2.350964e-38
-0.0675923 0.92874682 2.212395 2.3509642e-38
-0.063496031 0.92875922 2.2124002 2.3509643e-38
-0.059399769 0.92877162 2.2124054 2.3509643e-38
-0.055303499 0.92878407 2.2124107 2.3509645e-38
-0.051207229 0.92879647 2.2124159 2.3509646e-38
-0.047111042 0.92880893 2.2124212 2.3509646e-38
-0.043014772 0.92882138 2.2124264 2.3509647e-38
-0.038918503 0.92883378 2.2124317 2.3509649e-38
-0.034822233 0.92884624 2.2124369 2.3509649e-38
-0.0061516603 0.92480648 2.2222548 2.350965e-38
0.010337112 0.92485648 2.222276 2.3509652e-38
0.014459228 0.92486906 2.2222812 2.3509652e-38
0.0185815 0.92488152 2.2222865 2.3509653e-38
0.022703614 0.92489409 2.2222917 2.3509654e-38
0.026825728 0.92490649 2.2222972 2.3509654e-38
0.030947998 0.92491901 2.2223024 2.3509656e-38
0.035070118 0.92493153 2.2223077 2.3509657e-38
0.03919239 0.9249441 2.2223129 2.3509657e-38
0.043314502 0.92495662 2.2223182 2.3509659e-38
0.047436617 0.92496914 2.2223234 2.350966e-38
0.059790768 0.92438364 2.2238157 2.350966e-38
0.063912876 0.92439622 2.2238209 2.3509661e-38
0.068034992 0.92440873 2.2238262 2.3509663e-38
0.072157264 0.92442131 2.2238314 2.3509663e-38
0.076279379 0.92443377 2.2238367 2.3509664e-38
0.080401644 0.92444623 2.2238421 2.3509666e-38
0.084523767 0.9244588 2.2238474 2.3509666e-38
0.088645883 0.92447126 2.2238526 2.3509667e-38
0.092768155 0.92448384 2.2238579 2.3509668e-38
0.096890263 0.92449629 2.2238631 2.3509668e-38
0.10101254 0.92450887 2.2238684 2.350967e-38
0.10513465 0.92452139 2.2238736 2.3509671e-38
0.10925677 0.92453384 2.2238791 2.3509671e-38
0.11337904 0.92454636 2.2238843 2.3509673e-38
0.11750115 0.92455882 2.2238896 2.3509674e-38
0.12162343 0.92457134 2.2238948 2.3509674e-38
0.12574553 0.92458391 2.2239001 2.3509675e-38
0.12986766 0.92459643 2.2239053 2.3509677e-38
0.13398993 0.92460901 2.2239106 2.3509677e-38
0.13811204 0.9246214 2.2239161 2.3509678e-38
0.14223431 0.92463392 2.2239213 2.350968e-38
0.14635643 0.92464638 2.2239265 2.350968e-38
0.15047854 0.92465895 2.2239318 2.3509681e-38
0.15460081 0.92467147 2.223937 2.3509682e-38
0.15872292 0.92468405 2.2239423 2.3509682e-38
0.17108943 0.92472148 2.2239583 2.3509684e-38
0.1752117 0.924734 2.2239635 2.3509685e-38
0.17933382 0.92474651 2.2239687 2.3509685e-38
0.18345609 0.92475903 2.223974 2.3509687e-38
0.18757822 0.92477155 2.2239792 2.3509688e-38
0.19170031 0.92478412 2.2239845 2.3509688e-38
0.19582258 0.92479658 2.2239897 2.3509689e-38
0.1999447 0.9248091 2.2239952 2.3509691e-38
0.20406698 0.9248215 2.2240005 2.3509691e-38
0.20818909 0.92483407 2.2240057 2.3509692e-38
0.23292209 0.92490911 2.2240374 2.3509694e-38
0.23704436 0.92492163 2.2240427 2.3509694e-38
0.2411665 0.92493421 2.2240479 2.3509695e-38
0.24528876 0.92494667 2.2240531 2.3509696e-38
0.24941087 0.92495924 2.2240584 2.3509696e-38
0.28057668 0.9291845 2.2143078 2.3509698e-38
0.28467304 0.92919695 2.214313 2.3509699e-38
0.28876925 0.92920935 2.2143183 2.3509699e-38
0.2928654 0.92922181 2.2143235 2.3509701e-38
0.30515429 0.92925912 2.2143393 2.3509702e-38
0.30925047 0.92927152 2.2143445 2.3509702e-38
0.31334668 0.92928398 2.2143497 2.3509703e-38
0.31744301 0.92929637 2.214355 2.3509705e-38
0.32153922 0.92930877 2.2143602 2.3509705e-38
0.32563555 0.92932129 2.2143655 2.3509706e-38
0.33792427 0.92935854 2.2143812 2.3509708e-38
0.34202045 0.92937094 2.2143865 2.3509708e-38
0.34611681 0.92938346 2.2143917 2.3509709e-38
0.35021302 0.92939579 2.214397 2.350971e-38
0.38855174 0.92589015 2.223031 2.350971e-38
0.39662892 0.92670494 2.2211683 2.3509712e-38
0.43022025 0.92641437 2.2221415 2.3509713e-38
0.44852313 0.92969418 2.2145228 2.3509713e-38
0.45671552 0.92971909 2.2145333 2.3509715e-38
0.46490803 0.92974395 2.2145438 2.3509716e-38
0.46900436 0.92975634 2.2145491 2.3509716e-38
0.48129308 0.92979366 2.2145648 2.3509717e-38
0.48948568 0.92981851 2.2145753 2.3509719e-38
0.4935818 0.92983091 2.2145805 2.3509719e-38
0.50587052 0.92986828 2.2145963 2.350972e-38
0.53454441 0.9299553 2.214633 2.3509722e-38
0.55556315 0.93106818 2.2121732 2.3509722e-38
0.56658196 0.93108404 2.212229 2.3509723e-38
0.58274746 0.93198973 2.2102194 2.3509724e-38
0.59519291 0.9303652 2.2141752 2.3509724e-38
0.62309271 0.92784822 2.2203774 2.3509726e-38
0.63124633 0.92831039 2.2193511 2.3509727e-38
0.6320799 0.91858649 2.2424057 2.3509727e-38
0.62632233 0.91153204 2.2590773 2.3509729e-38
0.62604553 0.90399557 2.2769377 2.350973e-38
0.62863529 0.89945132 2.2877305 2.350973e-38
0.61593544 0.89941287 2.287714 2.3509731e-38
0.61170214 0.89939994 2.2877088 2.3509733e-38
0.56938213 0.89991122 2.2861383 2.3509733e-38
0.50413418 0.8852669 2.3202953 2.3509734e-38
0.50007737 0.87760282 2.3384264 2.3509736e-38
0.49804574 0.87167478 2.3524597 2.3509736e-38
0.49705702 0.86484468 2.3686399 2.3509737e-38
0.49602216 0.85865384 2.3833046 2.3509738e-38
0.48379287 0.84851068 2.4072421 2.3509738e-38
0.4753395 0.83602226 2.4367704 2.350974e-38
0.46502525 0.82935631 2.4524827 2.3509741e-38
0.45915422 0.82411337 2.4648597 2.3509741e-38
0.45457193 0.82340908 2.46649 2.3509743e-38
0.45000339 0.82339525 2.4664843 2.3509744e-38
0.44544885 0.82407171 2.4648423 2.3509744e-38
0.44089413 0.82474828 2.4632001 2.3509745e-38
0.41969669 0.83127552 2.4475498 2.3509747e-38
0.41065022 0.83261925 2.4442883 2.3509747e-38
0.38956335 0.83738202 2.4328208 2.3509748e-38
0.38508707 0.8387295 2.429589 2.350975e-38
0.31753224 0.83852452 2.4295025 2.350975e-38
0.30173489 0.83091748 2.4473987 2.3509751e-38
0.29014856 0.82498109 2.4613709 2.3509752e-38
0.28096998 0.82288218 2.4662678 2.3509752e-38
0.26727846 0.82353097 2.4646142 2.3509754e-38
0.2699486 0.82944983 2.450608 2.3509755e-38
0.26660758 0.84641355 2.4103725 2.3509755e-38
0.26443952 0.85235572 2.39627 2.3509757e-38
0.26234737 0.85861093 2.3814261 2.3509758e-38
0.25618005 0.86411363 2.3683314 2.3509758e-38
0.25465015 0.87258112 2.348249 2.3509759e-38
0.25312701 0.87715906 2.3373854 2.3509761e-38
0.24669248 0.88448548 2.3199658 2.3509761e-38
0.24072754 0.89121395 2.3039675 2.3509762e-38
0.22504213 0.90323293 2.2753475 2.3509764e-38
0.20260145 0.91028386 2.258445 2.3509764e-38
0.16390507 0.9165113 2.2433569 2.3509765e-38
0.13395239 0.9227401 2.2283399 2.3509767e-38
0.11334151 0.92267752 2.2283134 2.3509767e-38
0.085081048 0.91752625 2.2402835 2.3509768e-38
0.080905959 0.91625935 2.2432508 2.3509769e-38
0.039945789 0.90405571 2.2718289 2.3509769e-38
0.03176751 0.89891928 2.2839339 2.3509771e-38
0.014981891 0.88313389 2.3212059 2.3509772e-38
0.010777897 0.87699616 2.3357179 2.3509772e-38
0.0065405248 0.87215495 2.3471565 2.3509774e-38
-0.0064547691 0.86278969 2.3692439 2.3509775e-38
-0.0022481971 0.84928948 2.4012778 2.3509775e-38
0.0022074082 0.8420884 2.4183834 2.3509776e-38
-0.001745017 0.83214051 2.4419284 2.3509778e-38
-0.0015710251 0.8272143 2.4536059 2.3509778e-38
-0.020699482 0.81434292 2.4839513 2.3509779e-38
-0.025301302 0.81432903 2.4839454 2.3509781e-38
-0.083908975 0.82974714 2.4469049 2.3509781e-38
-0.10205691 0.82969207 2.4468815 2.3509782e-38
-0.11113092 0.82966453 2.4468701 2.3509783e-38
-0.11566792 0.82965076 2.4468641 2.3509783e-38
-0.13838039 0.82821059 2.4500852 2.3509785e-38
-0.17130832 0.8215096 2.4656887 2.3509786e-38
-0.1759184 0.81942457 2.4705915 2.3509786e-38
-0.18639229 0.81244934 2.4870355 2.3509788e-38
-0.19239292 0.80406672 2.5068531 2.3509789e-38
-0.19852322 0.79603779 2.5258312 2.3509789e-38
-0.20472461 0.7879768 2.5448847 2.350979e-38
-0.20624192 0.78061444 2.5623221 2.3509792e-38
-0.21256456 0.77177274 2.5832248 2.3509792e-38
-0.21889998 0.7657969 2.5973353 2.3509793e-38
-0.22544856 0.75657606 2.6191347 2.3509795e-38
-0.23215789 0.74699444 2.6417882 2.3509795e-38
-0.23884337 0.7384268 2.6620386 2.3509796e-38
-0.24071515 0.73027271 2.6813495 2.3509797e-38
-0.25260627 0.72130871 2.7024951 2.3509797e-38
-0.25969088 0.7127673 2.7226796 2.3509799e-38
-0.2667931 0.70298463 2.7458065 2.35098e-38
-0.27416819 0.69251251 2.7705648 2.35098e-38
-0.30465087 0.67404985 2.8140666 2.3509802e-38
-0.30466667 0.67326313 2.8159316 2.3509803e-38
-0.30714425 0.66425198 2.8372686 2.3509803e-38
-0.30889338 0.65680778 2.854898 2.3509804e-38
-0.30976087 0.65329099 2.8632259 2.3509806e-38
-0.31770116 0.64306688 2.8873916 2.3509806e-38
-0.32582495 0.63328993 2.9104962 2.3509807e-38
-0.32861042 0.62350118 2.9336736 2.3509809e-38
-0.3286269 0.62268043 2.9356191 2.3509809e-38
-0.33144635 0.61120105 2.9628034 2.350981e-38
-0.33309504 0.60546702 2.9763803 2.3509811e-38
-0.33983585 0.6026603 2.9829755 2.3509811e-38
-0.35088754 0.60262668 2.9829614 2.3509813e-38
-0.35641342 0.60260999 2.9829543 2.3509814e-38
-0.36193934 0.60259318 2.9829473 2.3509814e-38
-0.36746523 0.60257638 2.9829402 2.3509816e-38
-0.38960218 0.6008392 2.9868701 2.3509817e-38
-0.39512807 0.60082251 2.9868629 2.3509817e-38
-0.41170564 0.6007722 2.9868417 2.3509818e-38
-0.42275739 0.6007387 2.9868276 2.350982e-38
-0.43380904 0.60070497 2.9868135 2.350982e-38
-0.43912628 0.60064709 2.9869056 2.3509821e-38
-0.45038673 0.60065478 2.9867923 2.3509823e-38
-0.46143839 0.60062116 2.986778 2.3509823e-38
-0.4664152 0.60117781 2.9854164 2.3509824e-38
-0.48943001 0.60296553 2.9809842 2.3509825e-38
-0.51741129 0.6025902 2.9816368 2.3509825e-38
-0.52772456 0.60312194 2.980289 2.3509827e-38
-0.53855383 0.60339242 2.9795563 2.3509828e-38
-0.56085378 0.60282457 2.9807134 2.3509828e-38
-0.57156521 0.60130584 2.9842224 2.350983e-38
-0.58297396 0.60192221 2.9826641 2.3509831e-38
-0.58849984 0.60190552 2.9826572 2.3509831e-38
-0.59955144 0.60187203 2.9826429 2.3509832e-38
-0.6160956 0.60349184 2.9786634 2.3509834e-38
-0.6382159 0.60258967 2.9806144 2.3509834e-38
-0.6492843 0.60172111 2.9825792 2.3509835e-38
-0.65481019 0.60170442 2.9825723 2.3509837e-38
-0.67464292 0.60165471 2.9825218 2.3509837e-38
-0.69349128 0.60158694 2.9825227 2.3509838e-38
-0.70454293 0.60155344 2.9825084 2.3509839e-38
-0.71559471 0.60151982 2.9824944 2.3509839e-38
-0.73771489 0.60061789 2.9844451 2.3509841e-38
-0.74874997 0.60141933 2.9824519 2.3509842e-38
-0.77085334 0.60135221 2.9824235 2.3509842e-38
-0.78743094 0.60130191 2.9824023 2.3509844e-38
-0.8224318 0.59661466 2.9932153 2.3509845e-38
-0.83823085 0.59660041 2.9931152 2.3509845e-38
-0.85666072 0.59554058 2.995471 2.3509846e-38
-0.87880141 0.595429 2.9955478 2.3509848e-38
-0.90426451 0.59776276 2.9898007 2.3509848e-38
-0.92135483 0.59678996 2.9919615 2.3509849e-38
-0.94220555 0.5983271 2.9881415 2.3509851e-38
-0.94773144 0.59831029 2.9881346 2.3509851e-38
-0.95325726 0.59829348 2.9881275 2.3509852e-38
-0.96429211 0.59909505 2.9861343 2.3509853e-38
-0.99192154 0.59901124 2.9860988 2.3509853e-38
-1.0085158 0.59812587 2.9880567 2.3509855e-38
-1.0140418 0.59810907 2.9880495 2.3509856e-38
-1.0195676 0.59809238 2.9880426 2.3509856e-38
-1.0250936 0.59807557 2.9880354 2.3509858e-38
-1.0306194 0.59805876 2.9880283 2.3509859e-38
-1.0361453 0.59804195 2.9880214 2.3509859e-38
-1.0814137 0.59477836 2.995373 2.350986e-38
-1.0869206 0.59475768 2.9953756 2.3509862e-38
-1.0924273 0.59473687 2.9953783 2.3509862e-38
-1.097934 0.59471601 2.9953811 2.3509863e-38
-1.1034406 0.59469503 2.9953837 2.3509865e-38
-1.1089474 0.59467429 2.9953866 2.3509865e-38
-1.1144542 0.59465343 2.9953892 2.3509866e-38
-1.1199609 0.59463269 2.9953921 2.3509867e-38
-1.1254675 0.59461182 2.9953947 2.3509867e-38
-1.1309743 0.59459108 2.9953973 2.3509869e-38
-1.136481 0.59457028 2.9954 2.350987e-38
-1.1419877 0.59454948 2.9954028 2.350987e-38
-1.1581966 0.59525943 2.9935825 2.3509872e-38
-1.1637032 0.59523869 2.9935851 2.3509873e-38
-1.16921 0.5952177 2.9935875 2.3509873e-38
-1.1747167 0.59519696 2.9935904 2.3509874e-38
-1.1857301 0.5951553 2.9935958 2.3509876e-38
-1.1912369 0.59513444 2.9935985 2.3509876e-38
-1.1967437 0.59511364 2.9936013 2.3509877e-38
-1.2022504 0.59509283 2.9936042 2.3509879e-38
-1.2242771 0.59500951 2.9936147 2.3509879e-38
-1.229784 0.59498864 2.9936175 2.350988e-38
-1.2352908 0.59496778 2.9936202 2.3509881e-38
-1.2514994 0.59567785 2.9917998 2.3509881e-38
-1.2570062 0.59565699 2.9918027 2.3509883e-38
-1.2622014 0.5964089 2.9899766 2.3509884e-38
