# .PCD v0.7 - Point Cloud Data file format
VERSION 0.7
FIELDS x y z rgb
SIZE 4 4 4 4
TYPE F F F F
COUNT 1 1 1 1
WIDTH 123
HEIGHT 1
VIEWPOINT 0 0 0 1 0 0 0
POINTS 123
DATA ascii
1.2615587 0.90096676 1.5279343 2.3509528e-38
1.2570722 0.90735549 1.5172631 2.3509531e-38
1.2455946 0.91196704 1.5081717 2.3509534e-38
1.2348887 0.91111702 1.5076865 2.3509537e-38
1.2097821 0.90862542 1.5073221 2.3509539e-38
1.1913623 0.90755051 1.505886 2.3509542e-38
1.176299 0.90747058 1.5034714 2.3509545e-38
1.1567966 0.91135436 1.494157 2.3509548e-38
1.1480796 0.91522729 1.4866771 2.3509551e-38
1.1380979 0.91897905 1.4791722 2.3509554e-38
1.1082689 0.92383468 1.4666091 2.3509556e-38
1.1004715 0.92714822 1.4601524 2.3509559e-38
1.0752283 0.93331337 1.4463298 2.3509562e-38
1.0664788 0.93232733 1.4463856 2.3509565e-38
1.0609329 0.91547227 1.4716097 2.3509569e-38
1.0481485 0.90190017 1.4905186 2.3509572e-38
1.0306138 0.89367467 1.500329 2.3509575e-38
1.0284616 0.88966286 1.5061926 2.3509577e-38
1.0261034 0.88588858 1.5116527 2.350958e-38
0.99906445 0.86928481 1.5328643 2.3509583e-38
0.98724663 0.86611927 1.5357854 2.3509586e-38
0.97686797 0.86359167 1.537959 2.3509589e-38
0.97146249 0.86139655 1.5404547 2.3509591e-38
0.96605486 0.85920405 1.5429462 2.3509594e-38
0.93935406 0.84774107 1.5562365 2.3509597e-38
0.92633957 0.84482765 1.5585645 2.35096e-38
0.90773708 0.84298658 1.5582865 2.3509603e-38
0.8922534 0.83579504 1.5668381 2.3509605e-38
0.88684684 0.83363301 1.5692824 2.350961e-38
0.88143748 0.83147359 1.571722 2.3509612e-38
0.8192535 0.81883782 1.5808523 2.3509615e-38
0.82711452 0.80335885 1.6062002 2.3509618e-38
0.82493162 0.79238838 1.6228582 2.3509621e-38
0.82527041 0.77902514 1.6436548 2.3509624e-38
0.79345649 0.74305141 1.6941234 2.3509626e-38
0.72634393 0.72769886 1.7066393 2.3509629e-38
0.67774934 0.73830032 1.6819961 2.3509632e-38
0.66509253 0.75129855 1.65969 2.3509635e-38
0.66076237 0.75525171 1.6528251 2.3509638e-38
0.64650291 0.74676353 1.6635953 2.350964e-38
0.64099532 0.7446804 1.6659001 2.3509643e-38
0.63548422 0.74259961 1.6682004 2.3509647e-38
0.63351256 0.73816544 1.67475 2.350965e-38
0.6334163 0.72992784 1.6875184 2.3509653e-38
0.63033408 0.72125721 1.7004554 2.3509656e-38
0.62320513 0.70499986 1.7244849 2.3509659e-38
0.60762388 0.69272226 1.7409135 2.3509661e-38
0.60432053 0.67978245 1.760439 2.3509664e-38
0.58383065 0.65891713 1.7893683 2.3509667e-38
0.57381135 0.65174419 1.7988119 2.350967e-38
0.57324183 0.64561349 1.8082306 2.3509673e-38
0.55889821 0.62501228 1.8377858 2.3509675e-38
0.55863845 0.62399101 1.839327 2.3509678e-38
0.55746669 0.60510838 1.8684349 2.3509681e-38
0.55344087 0.59813625 1.878577 2.3509684e-38
0.55161375 0.59479344 1.8834569 2.3509688e-38
0.54490888 0.57044649 1.920113 2.3509691e-38
0.54405481 0.5635553 1.9306639 2.3509694e-38
0.54578418 0.55761385 1.9401764 2.3509696e-38
0.5468449 0.54890454 1.9538715 2.3509699e-38
0.54922849 0.54275233 1.9638215 2.3509702e-38
0.56296736 0.52855676 1.9881685 2.3509705e-38
0.57074863 0.52164876 2.0002007 2.3509708e-38
0.59255409 0.51697475 2.0111299 2.350971e-38
0.60928255 0.51152951 2.0223999 2.3509713e-38
0.62182593 0.50514019 2.03443 2.3509716e-38
0.62598091 0.50490266 2.0354989 2.3509719e-38
0.67962849 0.4949896 2.0599251 2.3509722e-38
0.70209223 0.49559146 2.062777 2.3509724e-38
0.70588475 0.49588254 2.0629644 2.3509729e-38
0.70967722 0.49617344 2.0631521 2.3509731e-38
0.75314611 0.49451187 2.0730569 2.3509734e-38
0.76889521 0.48770106 2.0862815 2.3509737e-38
0.78609884 0.47208652 2.1134143 2.350974e-38
0.78723574 0.46479958 2.1249151 2.3509743e-38
0.79615945 0.4691413 2.1196809 2.3509745e-38
0.79233491 0.47876859 2.104095 2.3509748e-38
0.79237664 0.48061484 2.1012366 2.3509751e-38
0.79254884 0.48291698 2.0976927 2.3509754e-38
0.79436988 0.49739441 2.075531 2.3509757e-38
0.79252958 0.50028747 2.0707309 2.3509759e-38
0.81964248 0.54252875 2.0097427 2.3509762e-38
0.87965101 0.53335577 2.0340927 2.3509767e-38
0.88910246 0.52841842 2.0433483 2.3509769e-38
0.89440912 0.52339417 2.0520403 2.3509772e-38
0.91128564 0.51565254 2.0668993 2.3509775e-38
0.91994542 0.51536202 2.0688097 2.3509778e-38
0.92915767 0.51494783 2.0710051 2.3509781e-38
0.93730021 0.51751506 2.068393 2.3509783e-38
1.0133003 0.52666634 2.066999 2.3509786e-38
1.0350589 0.52404815 2.0747297 2.3509789e-38
1.0415972 0.53569329 2.0577586 2.3509792e-38
1.0521344 0.55072922 2.0361993 2.3509795e-38
1.0667318 0.55978793 2.0246005 2.3509797e-38
1.0728632 0.56463671 2.0181086 2.35098e-38
1.075789 0.57061714 2.0093203 2.3509803e-38
1.0788857 0.57545334 2.0023365 2.3509807e-38
1.0894684 0.59387898 1.9755238 2.350981e-38
1.0935038 0.60333502 1.9615285 2.3509813e-38
1.0968454 0.60907537 1.9531829 2.3509816e-38
1.1065536 0.62015092 1.9376302 2.3509818e-38
1.1151962 0.63528663 1.9155964 2.3509821e-38
1.1186872 0.6403091 1.9083898 2.3509824e-38
1.1278884 0.65643835 1.8849083 2.3509827e-38
1.1331784 0.66660094 1.8700278 2.350983e-38
1.136335 0.67142916 1.8630666 2.3509832e-38
1.154851 0.71502715 1.7985243 2.3509835e-38
1.1619264 0.73543513 1.7680439 2.3509838e-38
1.1725281 0.74355912 1.7572224 2.3509841e-38
1.1801095 0.75886619 1.734744 2.3509844e-38
1.1894697 0.76782328 1.7224203 2.3509848e-38
1.1855857 0.77911121 1.7042471 2.3509851e-38
1.1865095 0.79006267 1.6874065 2.3509853e-38
1.1955429 0.8012507 1.6715653 2.3509856e-38
1.2043868 0.81629974 1.6497002 2.3509859e-38
1.2168311 0.82645428 1.6360378 2.3509862e-38
1.2180045 0.83327681 1.6256471 2.3509865e-38
1.2266843 0.84625024 1.6069756 2.3509867e-38
1.230485 0.85017484 1.6015252 2.350987e-38
1.2315905 0.85452121 1.5949659 2.3509873e-38
1.2408603 0.86600471 1.5787061 2.3509876e-38
1.244434 0.874493 1.5661349 2.3509879e-38
1.2515131 0.88476878 1.5513803 2.3509881e-38
