# .PCD v0.7 - Point Cloud Data file format
VERSION 0.7
FIELDS x y z rgb
SIZE 4 4 4 4
TYPE F F F F
COUNT 1 1 1 1
WIDTH 231
HEIGHT 1
VIEWPOINT 0 0 0 1 0 0 0
POINTS 231
DATA ascii
1.057381 1.7974163 -2.0313313 2.3509528e-38
1.0445741 1.8387563 -2.0140123 2.350953e-38
1.0342065 1.8434578 -2.0155358 2.3509531e-38
1.0168362 1.8516272 -2.0179307 2.3509532e-38
0.99737298 1.8551544 -2.0236547 2.3509534e-38
0.97555196 1.8579878 -2.0306778 2.3509535e-38
0.95676613 1.8667301 -2.033318 2.3509537e-38
0.91578317 1.8570826 -2.0545979 2.3509538e-38
0.88774091 1.8653095 -2.0611448 2.3509539e-38
0.848674 1.8777736 -2.0697246 2.3509541e-38
0.82138979 1.8853517 -2.0763254 2.3509544e-38
0.80547047 1.8859872 -2.0822225 2.3509545e-38
0.77315718 1.889203 -2.0931525 2.3509547e-38
0.74298614 1.8826185 -2.1085382 2.3509548e-38
0.72641504 1.8822227 -2.1152482 2.3509549e-38
0.70390147 1.8827034 -2.1238143 2.3509551e-38
0.67579299 1.8838655 -2.1342056 2.3509552e-38
0.64549685 1.8879383 -2.1438813 2.3509554e-38
0.62735319 1.8973862 -2.1458883 2.3509555e-38
0.58434492 1.9076602 -2.1571965 2.3509556e-38
0.55997467 1.9079788 -2.1665781 2.3509559e-38
0.54529899 1.9073801 -2.1726546 2.3509561e-38
0.52603537 1.9061253 -2.1808846 2.3509562e-38
0.50320137 1.9057333 -2.1900477 2.3509563e-38
0.4923811 1.9064039 -2.193927 2.3509565e-38
0.44313726 1.9510928 -2.1890821 2.3509566e-38
0.43570614 1.9628288 -2.1856534 2.3509568e-38
0.42210022 1.9660982 -2.1892202 2.3509569e-38
0.40794489 1.9652572 -2.195224 2.350957e-38
0.39812693 1.9668753 -2.1981986 2.3509573e-38
0.39061135 1.9657338 -2.2017617 2.3509575e-38
0.34257475 1.9516436 -2.2282071 2.3509576e-38
0.33383906 1.9503756 -2.232317 2.3509577e-38
0.26465809 1.9684381 -2.2496765 2.3509579e-38
0.24589372 1.9867833 -2.2471189 2.350958e-38
0.2328378 1.9896097 -2.2507098 2.3509582e-38
0.1980826 1.9959285 -2.2609198 2.3509583e-38
0.14866671 2.0220203 -2.266192 2.3509584e-38
0.13482487 2.0293579 -2.2676532 2.3509586e-38
0.09612444 2.0395229 -2.2773316 2.3509589e-38
0.070159569 2.0448205 -2.2846475 2.350959e-38
0.058718193 2.0488696 -2.2869446 2.3509591e-38
0.044773992 2.0474098 -2.2931998 2.3509593e-38
0.020229258 2.0488992 -2.302017 2.3509594e-38
0.016057741 2.0480914 -2.3040891 2.3509596e-38
-0.0012098998 2.0448496 -2.3126099 2.3509597e-38
-0.061065577 2.0361421 -2.34078 2.3509598e-38
-0.08907105 2.0550601 -2.3415356 2.35096e-38
-0.097102545 2.0656047 -2.3389862 2.3509601e-38
-0.11239074 2.0726631 -2.3411651 2.3509604e-38
-0.13745795 2.0678542 -2.3535905 2.3509605e-38
-0.15415853 2.0712018 -2.3583286 2.3509607e-38
-0.13942608 2.0627329 -2.3571296 2.3509608e-38
-0.09970247 2.0162275 -2.3666883 2.350961e-38
-0.10748315 1.9580203 -2.4011927 2.3509611e-38
-0.12345874 1.933539 -2.4206851 2.3509612e-38
-0.13351512 1.9262762 -2.4285522 2.3509614e-38
-0.13434775 1.9173368 -2.4337091 2.3509615e-38
-0.13880703 1.8878647 -2.4513836 2.3509618e-38
-0.14991187 1.8588364 -2.4714236 2.3509619e-38
-0.15996709 1.847244 -2.4816298 2.3509621e-38
-0.2048898 1.8393434 -2.5035098 2.3509622e-38
-0.24057464 1.8372052 -2.5186546 2.3509624e-38
-0.26947823 1.8427936 -2.5269654 2.3509625e-38
-0.29617998 1.8502053 -2.533428 2.3509626e-38
-0.27985865 1.8295308 -2.5382016 2.3509628e-38
-0.24815081 1.8100268 -2.5363111 2.3509629e-38
-0.25777084 1.7407213 -2.5775344 2.3509631e-38
-0.29306683 1.7242455 -2.6002743 2.3509633e-38
-0.31537113 1.7204818 -2.6110523 2.3509635e-38
-0.31637421 1.7117406 -2.6161692 2.3509636e-38
-0.32002681 1.6837037 -2.6327519 2.3509638e-38
-0.32131624 1.6663904 -2.6426132 2.3509639e-38
-0.31517202 1.6300716 -2.6598308 2.350964e-38
-0.30809462 1.6050996 -2.6705511 2.3509642e-38
-0.30908212 1.5963819 -2.6756492 2.3509643e-38
-0.30392346 1.5758263 -2.6847346 2.3509645e-38
-0.35834113 1.5311661 -2.7302015 2.3509647e-38
-0.36901611 1.5239401 -2.738291 2.3509649e-38
-0.37968984 1.5167152 -2.7463796 2.350965e-38
-0.3780055 1.4978566 -2.7559104 2.3509652e-38
-0.37927759 1.4888612 -2.7612698 2.3509653e-38
-0.40280917 1.4610726 -2.7855117 2.3509654e-38
-0.42286313 1.4555922 -2.796335 2.3509656e-38
-0.43936455 1.4402754 -2.8110805 2.3509657e-38
-0.46437705 1.4357157 -2.82335 2.3509659e-38
-0.47074166 1.4275273 -2.8302698 2.350966e-38
-0.48150983 1.4202375 -2.8384306 2.3509663e-38
-0.51118851 1.4165063 -2.8520818 2.3509664e-38
-0.5484556 1.4144551 -2.8678 2.3509666e-38
-0.59417039 1.4304278 -2.877089 2.3509667e-38
-0.6130653 1.4523015 -2.8726761 2.3509668e-38
-0.62462485 1.4357207 -2.8861678 2.350967e-38
-0.63284314 1.4187945 -2.898536 2.3509671e-38
-0.63688833 1.4099678 -2.904892 2.3509673e-38
-0.65930319 1.3859788 -2.9266422 2.3509674e-38
-0.72783273 1.3973154 -2.947381 2.3509675e-38
-0.75137067 1.3926857 -2.9591103 2.3509678e-38
-0.77724159 1.3886024 -2.9714589 2.350968e-38
-0.79543447 1.3831595 -2.9815319 2.3509681e-38
-0.82454312 1.3775188 -2.9959912 2.3509682e-38
-0.83539861 1.3701105 -3.00425 2.3509684e-38
-0.84888619 1.365057 -3.0122685 2.3509685e-38
-0.83511746 1.3628576 -3.0080593 2.3509687e-38
-0.82524711 1.3683461 -3.001224 2.3509688e-38
-0.79695868 1.3744012 -2.9868627 2.3509689e-38
-0.77378571 1.3686967 -2.9808605 2.3509692e-38
-0.75809824 1.3579172 -2.9805362 2.3509694e-38
-0.74970901 1.3562555 -2.9781449 2.3509695e-38
-0.72838378 1.3525122 -2.9718077 2.3509696e-38
-0.67086279 1.3693982 -2.9401338 2.3509698e-38
-0.61760396 1.3159668 -2.9481289 2.3509699e-38
-0.62853754 1.2825894 -2.9704521 2.3509701e-38
-0.65488458 1.268759 -2.9882543 2.3509702e-38
-0.67091286 1.2530409 -3.0030317 2.3509703e-38
-0.69449192 1.2202295 -3.0300062 2.3509705e-38
-0.71099555 1.1771493 -3.0597556 2.3509708e-38
-0.68451673 1.1823465 -3.0465672 2.3509709e-38
-0.66428018 1.1800343 -3.0398836 2.350971e-38
-0.66061306 1.1789882 -3.0390112 2.3509712e-38
-0.65211999 1.1769847 -3.0367646 2.3509713e-38
-0.64493668 1.1747934 -3.0351326 2.3509715e-38
-0.63286549 1.1733888 -3.0311594 2.3509716e-38
-0.61031115 1.178378 -3.0196211 2.3509717e-38
-0.57142615 1.166241 -3.0109365 2.3509719e-38
-0.55556536 1.1642864 -3.005775 2.350972e-38
-0.5320254 1.1611319 -2.9982514 2.3509723e-38
-0.50952202 1.1557502 -2.9923382 2.3509724e-38
-0.50039506 1.1540328 -2.9896879 2.3509726e-38
-0.49126333 1.152316 -2.9870362 2.3509727e-38
-0.46361873 1.1494788 -2.9777319 2.3509729e-38
-0.4409034 1.1463976 -2.9704921 2.350973e-38
-0.43187538 1.1447012 -2.96787 2.3509731e-38
-0.42284232 1.1430048 -2.9652452 2.3509733e-38
-0.38257465 1.1365639 -2.9529402 2.3509734e-38
-0.37356472 1.1348733 -2.9503219 2.3509737e-38
-0.35802266 1.1335787 -2.9449284 2.3509738e-38
-0.33449447 1.1309024 -2.9371514 2.350974e-38
-0.32558304 1.1292305 -2.9345613 2.3509741e-38
-0.29881611 1.1242149 -2.9267783 2.3509743e-38
-0.28988293 1.1225432 -2.9241798 2.3509744e-38
-0.27328292 1.1216881 -2.9181345 2.3509745e-38
-0.26441231 1.1200299 -2.9155531 2.3509747e-38
-0.25553647 1.1183712 -2.9129698 2.3509748e-38
-0.20318486 1.1126521 -2.8955374 2.350975e-38
-0.19444667 1.1110179 -2.8929949 2.3509752e-38
-0.12136983 1.1060696 -2.8670216 2.3509754e-38
-0.10436886 1.0981253 -2.8646495 2.3509755e-38
-0.095715724 1.0965102 -2.8621304 2.3509757e-38
-0.087056436 1.0948945 -2.8596087 2.3509758e-38
-0.064071685 1.0914081 -2.8524826 2.3509759e-38
-0.055440277 1.089798 -2.8499687 2.3509761e-38
-0.041989848 1.0859225 -2.8467901 2.3509762e-38
-0.014181448 1.0816159 -2.8382156 2.3509764e-38
-0.0056112278 1.080034 -2.8357112 2.3509767e-38
0.021237792 1.0788385 -2.8258319 2.3509768e-38
0.044291414 1.0830938 -2.8144948 2.3509769e-38
0.05663719 1.0822026 -2.8101366 2.3509771e-38
0.066508368 1.079628 -2.807658 2.3509772e-38
0.075527094 1.0781157 -2.8049397 2.3509774e-38
0.097907543 1.0725338 -2.7991824 2.3509775e-38
0.10704975 1.0710348 -2.7964089 2.3509776e-38
0.13302362 1.0686343 -2.787524 2.3509778e-38
0.16149673 1.0627705 -2.7795303 2.3509779e-38
0.20872234 1.0567825 -2.7642527 2.3509782e-38
0.22031952 1.0562854 -2.7599754 2.3509783e-38
0.25233981 1.0580001 -2.746496 2.3509785e-38
0.25880682 1.0558512 -2.745122 2.3509786e-38
0.27061141 1.0656307 -2.7352097 2.3509788e-38
0.34096053 1.051036 -2.7155185 2.3509789e-38
0.34510168 1.0473977 -2.7158606 2.350979e-38
0.36469987 1.0460504 -2.7089062 2.3509792e-38
0.37772614 1.0462677 -2.7036822 2.3509793e-38
0.38614643 1.0449512 -2.701093 2.3509795e-38
0.39690626 1.0443946 -2.697175 2.3509797e-38
0.4072201 1.0436345 -2.693543 2.3509799e-38
0.41782442 1.043244 -2.6895969 2.35098e-38
0.43065116 1.0412382 -2.685652 2.3509802e-38
0.48131889 1.0290984 -2.6723499 2.3509803e-38
0.56923991 1.0179605 -2.6439018 2.3509804e-38
0.57759899 1.0166022 -2.6413589 2.3509806e-38
0.60142255 1.0116446 -2.6346984 2.3509807e-38
0.61692238 1.0079647 -2.6306107 2.3509809e-38
0.63253933 1.0042558 -2.626493 2.3509811e-38
0.64099282 1.0028803 -2.6239223 2.3509813e-38
0.65571034 0.99816328 -2.620702 2.3509814e-38
0.68217677 0.99493629 -2.6120706 2.3509816e-38
0.6917603 0.99464327 -2.6084716 2.3509817e-38
0.70410275 0.99257058 -2.6047535 2.3509818e-38
0.7202726 0.98890918 -2.6003928 2.350982e-38
0.7278012 0.98641813 -2.5987878 2.3509821e-38
0.73632652 0.98504376 -2.5961885 2.3509823e-38
0.74551326 0.98460299 -2.5928252 2.3509824e-38
0.75401431 0.98323137 -2.5902338 2.3509827e-38
0.76251793 0.98186046 -2.5876412 2.3509828e-38
0.80686301 0.98127365 -2.5705738 2.350983e-38
0.84216166 0.99845457 -2.5474515 2.3509831e-38
0.85041136 0.99895173 -2.5439494 2.3509832e-38
0.83169812 1.0233662 -2.5380917 2.3509834e-38
0.82836479 1.065817 -2.5164587 2.3509835e-38
0.84665543 1.1210798 -2.479425 2.3509837e-38
0.86389834 1.1327584 -2.4663546 2.3509838e-38
0.86308521 1.1403341 -2.4625793 2.3509839e-38
0.86002481 1.1488209 -2.4591928 2.3509842e-38
0.84985125 1.2303339 -2.4191325 2.3509844e-38
0.86653185 1.2621573 -2.3953962 2.3509845e-38
0.84538156 1.3439152 -2.3595066 2.3509846e-38
0.90460443 1.3417736 -2.3374472 2.3509848e-38
0.93298268 1.3573501 -2.3179049 2.3509849e-38
0.93468159 1.3958997 -2.2964072 2.3509851e-38
0.93995994 1.4307549 -2.2755027 2.3509852e-38
0.93219024 1.4574845 -2.2641041 2.3509853e-38
0.94188166 1.4819493 -2.2470846 2.3509856e-38
0.94014412 1.5047598 -2.2354388 2.3509858e-38
0.93888128 1.5350056 -2.2195892 2.3509859e-38
0.93647981 1.5440041 -2.2156682 2.350986e-38
0.93567044 1.5535725 -2.210815 2.3509862e-38
0.93514347 1.5610003 -2.2070076 2.3509863e-38
0.93886799 1.5936548 -2.1879017 2.3509865e-38
0.93561977 1.6338882 -2.167433 2.3509866e-38
0.91582304 1.6619041 -2.1600542 2.3509867e-38
0.90638858 1.6712639 -2.1586947 2.3509869e-38
0.91182172 1.7366135 -2.1212506 2.3509872e-38
0.92908251 1.7429565 -2.1110566 2.3509873e-38
0.93921411 1.7519854 -2.1022055 2.3509874e-38
0.95186436 1.772446 -2.0861897 2.3509876e-38
0.96837848 1.7812927 -2.0749352 2.3509877e-38
1.0050924 1.8081909 -2.0460072 2.3509879e-38
1.0143981 1.8078142 -2.0425627 2.350988e-38
1.0235765 1.8069681 -2.039422 2.3509881e-38
1.0489205 1.7986634 -2.0339742 2.3509883e-38
