# .PCD v0.7 - Point Cloud Data file format
VERSION 0.7
FIELDS x y z rgb
SIZE 4 4 4 4
TYPE F F F F
COUNT 1 1 1 1
WIDTH 253
HEIGHT 1
VIEWPOINT 0 0 0 1 0 0 0
POINTS 253
DATA ascii
-0.65773654 0.39703801 -0.93563664 2.3509528e-38
-0.65730047 0.37445927 -0.94609755 2.350953e-38
-0.6615566 0.3700085 -0.93397862 2.3509531e-38
-0.66228372 0.36922693 -0.93191665 2.3509532e-38
-0.66379422 0.36762747 -0.92762357 2.3509534e-38
-0.66552848 0.36579487 -0.92269313 2.3509535e-38
-0.66656357 0.36469084 -0.91975445 2.3509537e-38
-0.66817498 0.36298877 -0.91517305 2.3509538e-38
-0.67000568 0.36102742 -0.90997893 2.3509539e-38
-0.67202508 0.35888627 -0.90424061 2.3509541e-38
-0.67338651 0.3574422 -0.90037245 2.3509542e-38
-0.67474258 0.35600367 -0.89651936 2.3509544e-38
-0.67632663 0.35433033 -0.89201534 2.3509545e-38
-0.67767191 0.35290325 -0.88819325 2.3509547e-38
-0.67959529 0.3508611 -0.88272876 2.3509548e-38
-0.68046206 0.34992999 -0.88027054 2.3509549e-38
-0.6809333 0.34940591 -0.87894106 2.3509551e-38
-0.68195677 0.3483125 -0.87603629 2.3509552e-38
-0.68438298 0.34572929 -0.86914641 2.3509554e-38
-0.68540221 0.34463999 -0.86625332 2.3509555e-38
-0.68672192 0.34323919 -0.86250383 2.3509556e-38
-0.688187 0.3416698 -0.85834724 2.3509558e-38
-0.69011539 0.33964643 -0.85285896 2.3509559e-38
-0.69171435 0.33795649 -0.84831345 2.3509561e-38
-0.69243705 0.33717448 -0.84626597 2.3509562e-38
-0.6934514 0.33609021 -0.84338707 2.3509563e-38
-0.69474953 0.334712 -0.83969909 2.3509565e-38
-0.69604284 0.3333388 -0.836025 2.3509566e-38
-0.69723845 0.33206674 -0.83262908 2.3509568e-38
-0.69875026 0.33047068 -0.82833046 2.3509569e-38
-0.69975632 0.32939494 -0.82547522 2.350957e-38
-0.70149833 0.32753804 -0.82052922 2.3509572e-38
-0.70292199 0.32603243 -0.81648225 2.3509573e-38
-0.70512283 0.32370892 -0.81022453 2.3509575e-38
-0.70699936 0.32171518 -0.80489349 2.3509576e-38
-0.70799673 0.32064849 -0.80206323 2.3509577e-38
-0.70899439 0.31958133 -0.79923201 2.3509579e-38
-0.71024472 0.31825304 -0.79568022 2.350958e-38
-0.71149045 0.31692937 -0.79214138 2.3509582e-38
-0.71264923 0.31569564 -0.78885061 2.3509583e-38
-0.7138868 0.31438056 -0.78533512 2.3509584e-38
-0.71509641 0.31309828 -0.7818979 2.3509586e-38
-0.71663237 0.31147769 -0.77753025 2.3509587e-38
-0.71807384 0.30995613 -0.77343118 2.3509589e-38
-0.7190575 0.3089036 -0.77064002 2.350959e-38
-0.72027439 0.30761015 -0.76718348 2.3509591e-38
-0.72125643 0.30655912 -0.76439673 2.3509593e-38
-0.72253406 0.30520576 -0.76076567 2.3509594e-38
-0.7237407 0.30392313 -0.75733835 2.3509596e-38
-0.72471958 0.30287528 -0.75456071 2.3509597e-38
-0.72591996 0.301599 -0.75115108 2.3509598e-38
-0.72704321 0.30040225 -0.74796152 2.35096e-38
-0.72844678 0.29892096 -0.74397051 2.3509601e-38
-0.72942054 0.29787844 -0.74120754 2.3509603e-38
-0.73088712 0.29633096 -0.73703706 2.3509604e-38
-0.73185807 0.29528835 -0.73428315 2.3509605e-38
-0.73338091 0.29368773 -0.72995031 2.3509607e-38
-0.73462182 0.29237321 -0.72642362 2.3509608e-38
-0.73592895 0.29099169 -0.72270763 2.350961e-38
-0.7374267 0.28941298 -0.71844792 2.3509611e-38
-0.73838681 0.28838551 -0.71572345 2.3509612e-38
-0.73998636 0.28667554 -0.71118397 2.3509614e-38
-0.74427426 0.28210592 -0.69900858 2.3509615e-38
-0.74535525 0.28095335 -0.69593924 2.3509617e-38
-0.74668801 0.27954611 -0.69214994 2.3509618e-38
-0.74837166 0.2777577 -0.68736684 2.3509619e-38
-0.74945086 0.27661064 -0.6843015 2.3509621e-38
-0.75051677 0.27547395 -0.68127543 2.3509622e-38
-0.75133997 0.27458376 -0.6789428 2.3509624e-38
-0.75241339 0.27344102 -0.67589462 2.3509625e-38
-0.75360423 0.27218068 -0.67250967 2.3509626e-38
-0.75454938 0.27116638 -0.66982883 2.3509628e-38
-0.75537258 0.27027467 -0.66749746 2.3509629e-38
-0.75621414 0.26936743 -0.66511214 2.3509631e-38
-0.75643063 0.27648932 -0.6615544 2.3509632e-38
-0.75656366 0.27916244 -0.66005021 2.3509633e-38
-0.75636643 0.2968567 -0.65361232 2.3509635e-38
-0.75640804 0.30250597 -0.65121549 2.3509636e-38
-0.75689965 0.31692654 -0.64383811 2.3509638e-38
-0.75661528 0.32612941 -0.64108342 2.3509639e-38
-0.75687551 0.33448362 -0.63689005 2.350964e-38
-0.75690317 0.35019529 -0.63051128 2.3509642e-38
-0.75634724 0.36773393 -0.62530762 2.3509643e-38
-0.75645381 0.3708275 -0.62372106 2.3509645e-38
-0.7567026 0.3766019 -0.62059742 2.3509646e-38
-0.75693738 0.38282287 -0.61734092 2.3509647e-38
-0.75720388 0.39485142 -0.61165631 2.3509649e-38
-0.75715655 0.39801815 -0.61054337 2.350965e-38
-0.75671273 0.41147029 -0.60660905 2.3509652e-38
-0.75687152 0.41754979 -0.60365719 2.3509653e-38
-0.75698 0.42039666 -0.60216331 2.3509654e-38
-0.75708306 0.42325369 -0.60068321 2.3509656e-38
-0.75717479 0.42613298 -0.5992313 2.3509657e-38
-0.75710368 0.44739085 -0.59095532 2.3509659e-38
-0.75725192 0.4501693 -0.58935905 2.350966e-38
-0.75695682 0.46989578 -0.58242774 2.3509661e-38
-0.75688004 0.47714901 -0.57977569 2.3509663e-38
-0.75701153 0.48783049 -0.57507086 2.3509664e-38
-0.75697416 0.49121282 -0.57383913 2.3509666e-38
-0.75686771 0.50493795 -0.56869358 2.3509667e-38
-0.75689745 0.5119248 -0.56580001 2.3509668e-38
-0.75719845 0.52468729 -0.55970913 2.350967e-38
-0.75715834 0.52815253 -0.5584532 2.3509671e-38
-0.7571637 0.53374833 -0.55619603 2.3509673e-38
-0.7573505 0.53980958 -0.55315983 2.3509674e-38
-0.75742203 0.5468924 -0.55009151 2.3509675e-38
-0.75751543 0.54993296 -0.54856938 2.3509677e-38
-0.75788265 0.56410164 -0.54169929 2.3509678e-38
-0.75818348 0.58205122 -0.53353274 2.350968e-38
-0.75807196 0.5982219 -0.52742481 2.3509681e-38
-0.75778717 0.60345703 -0.52625978 2.3509682e-38
-0.7576493 0.6083166 -0.52476501 2.3509684e-38
-0.75747621 0.61747158 -0.52166617 2.3509685e-38
-0.75754911 0.62084264 -0.5200789 2.3509687e-38
-0.75794661 0.63721263 -0.51222861 2.3509688e-38
-0.75788426 0.64330161 -0.50999552 2.3509689e-38
-0.75790042 0.66024518 -0.50316119 2.3509691e-38
-0.75798738 0.67251885 -0.49796492 2.3509692e-38
-0.75788546 0.67670983 -0.49662033 2.3509694e-38
-0.75790507 0.69242787 -0.49026522 2.3509695e-38
-0.75784725 0.69893432 -0.48784998 2.3509696e-38
-0.75796217 0.70728153 -0.48413366 2.3509698e-38
-0.75799376 0.71090877 -0.48257893 2.3509699e-38
-0.75805688 0.7147693 -0.48082769 2.3509701e-38
-0.76412684 0.74336582 -0.44955784 2.3509702e-38
-0.76547164 0.74474913 -0.44461221 2.3509703e-38
-0.76625413 0.75141424 -0.43938923 2.3509705e-38
-0.766653 0.7540983 -0.43701223 2.3509708e-38
-0.7669434 0.75687265 -0.43495339 2.3509709e-38
-0.76713055 0.76030564 -0.43296808 2.350971e-38
-0.7674728 0.77056491 -0.42774415 2.3509712e-38
-0.767703 0.77446073 -0.4254331 2.3509713e-38
-0.76815754 0.78361052 -0.4202866 2.3509715e-38
-0.76825112 0.78692323 -0.41865504 2.3509716e-38
-0.76862508 0.7988984 -0.41264075 2.3509717e-38
-0.76869053 0.80246705 -0.41099879 2.3509719e-38
-0.76862454 0.80626738 -0.4096933 2.350972e-38
-0.76876396 0.81471342 -0.4058575 2.3509722e-38
-0.7697531 0.82497078 -0.39852169 2.3509723e-38
-0.76984668 0.82835001 -0.39686361 2.3509724e-38
-0.77011549 0.83462292 -0.3934752 2.3509726e-38
-0.77040583 0.84991789 -0.38640526 2.3509727e-38
-0.77132761 0.86204499 -0.37854102 2.3509729e-38
-0.77158141 0.8800199 -0.37051779 2.350973e-38
-0.7721076 0.88852739 -0.36539426 2.3509731e-38
-0.77345496 0.90083599 -0.35606754 2.3509733e-38
-0.77362788 0.91494429 -0.34985623 2.3509734e-38
-0.77385199 0.91776896 -0.34799376 2.3509736e-38
-0.77457142 0.92343301 -0.34337699 2.3509737e-38
-0.7751081 0.92759579 -0.33995819 2.3509738e-38
-0.77535832 0.92978323 -0.33826551 2.350974e-38
-0.77526474 0.93494612 -0.3365047 2.3509741e-38
-0.77548742 0.94407308 -0.33212444 2.3509743e-38
-0.77592659 0.95571363 -0.32603124 2.3509744e-38
-0.77685976 0.97189158 -0.3165085 2.3509745e-38
-0.77702719 0.98122829 -0.31222484 2.3509747e-38
-0.77746302 0.98676056 -0.30858731 2.3509748e-38
-0.77792495 0.99921137 -0.30209535 2.350975e-38
-0.77799064 1.0024858 -0.30057022 2.3509751e-38
-0.7784642 1.0155048 -0.29381311 2.3509752e-38
-0.77939314 1.0232054 -0.28769711 2.3509754e-38
-0.77964318 1.028402 -0.28480059 2.3509755e-38
-0.77967608 1.0326706 -0.2829845 2.3509757e-38
-0.77979296 1.0361018 -0.2812295 2.3509758e-38
-0.77975547 1.0410894 -0.2793557 2.3509759e-38
-0.77973896 1.0467225 -0.2771551 2.3509761e-38
-0.78083324 1.0636872 -0.26679134 2.3509762e-38
-0.78087473 1.0687016 -0.26464888 2.3509764e-38
-0.78091711 1.0737261 -0.26249978 2.3509765e-38
-0.78182238 1.0851955 -0.25495258 2.3509767e-38
-0.78187001 1.0902584 -0.2527706 2.3509768e-38
-0.77204895 1.103534 -0.27953234 2.3509769e-38
-0.75926948 1.1433808 -0.30532131 2.3509771e-38
-0.75867987 1.1475199 -0.30559033 2.3509772e-38
-0.75775063 1.1496788 -0.30776131 2.3509774e-38
-0.75177246 1.1643517 -0.32141283 2.3509775e-38
-0.74851382 1.1727263 -0.32870364 2.3509776e-38
-0.7471962 1.1740843 -0.33246326 2.3509778e-38
-0.74265879 1.1801361 -0.34486029 2.3509779e-38
-0.73423713 1.1987312 -0.36492276 2.3509781e-38
-0.73225212 1.202284 -0.3699837 2.3509782e-38
-0.73069686 1.2053651 -0.37382993 2.3509783e-38
-0.72747201 1.2123175 -0.38157952 2.3509785e-38
-0.72202182 1.2194892 -0.39650893 2.3509786e-38
-0.71997029 1.2231125 -0.40175909 2.3509788e-38
-0.71529949 1.2317353 -0.41356257 2.3509789e-38
-0.71154386 1.2388775 -0.42296964 2.350979e-38
-0.71016312 1.2403579 -0.42688653 2.3509792e-38
-0.70122558 1.258677 -0.44874439 2.3509793e-38
-0.69457114 1.2647816 -0.46803391 2.3509795e-38
-0.68709731 1.2798249 -0.48642239 2.3509796e-38
-0.67532223 1.3053603 -0.51465881 2.3509797e-38
-0.67207378 1.3166956 -0.52073139 2.3509799e-38
-0.67012835 1.3226107 -0.52471787 2.35098e-38
-0.66781622 1.330755 -0.52900928 2.3509802e-38
-0.66406453 1.3449121 -0.53559619 2.3509803e-38
-0.66285425 1.3461751 -0.53904325 2.3509804e-38
-0.66218662 1.3439904 -0.54209822 2.3509806e-38
-0.66069072 1.3221471 -0.55572617 2.3509807e-38
-0.65845656 1.3130585 -0.5666604 2.3509809e-38
-0.66003138 1.2974209 -0.56777591 2.350981e-38
-0.66207129 1.2673582 -0.57314587 2.3509811e-38
-0.66084945 1.2362772 -0.58957583 2.3509813e-38
-0.66057199 1.2323011 -0.5920735 2.3509814e-38
-0.66201532 1.2046831 -0.59841359 2.3509816e-38
-0.66199231 1.1959616 -0.60197932 2.3509817e-38
-0.66187495 1.1922609 -0.60384351 2.3509818e-38
-0.66215825 1.1836072 -0.60638213 2.350982e-38
-0.66193968 1.1724623 -0.61155629 2.3509821e-38
-0.66038793 1.1600657 -0.62158585 2.3509823e-38
-0.66087544 1.1526442 -0.62296402 2.3509824e-38
-0.66091484 1.1413262 -0.62736517 2.3509825e-38
-0.66072303 1.1367735 -0.62981385 2.3509827e-38
-0.66177034 1.1112671 -0.63660192 2.3509828e-38
-0.66075951 1.0997329 -0.64451969 2.350983e-38
-0.659971 1.0742331 -0.65730107 2.3509831e-38
-0.66196609 1.0529667 -0.65929681 2.3509832e-38
-0.66174453 1.0225698 -0.67218614 2.3509834e-38
-0.66028589 1.0153694 -0.67983192 2.3509835e-38
-0.65964031 1.0122893 -0.683173 2.3509837e-38
-0.66045582 0.98583502 -0.69109768 2.3509838e-38
-0.66010219 0.97523487 -0.69649506 2.3509839e-38
-0.65875804 0.95482939 -0.70905215 2.3509841e-38
-0.66068935 0.93534881 -0.71054167 2.3509842e-38
-0.65997708 0.90760416 -0.72397208 2.3509844e-38
-0.65935326 0.87578756 -0.73874348 2.3509845e-38
-0.65878218 0.8592391 -0.7472319 2.3509846e-38
-0.65897185 0.8384192 -0.7549454 2.3509848e-38
-0.65889406 0.83029467 -0.75845122 2.3509849e-38
-0.66036677 0.81046009 -0.76157975 2.3509851e-38
-0.660676 0.80521667 -0.76266843 2.3509852e-38
-0.65860868 0.77379036 -0.7819984 2.3509853e-38
-0.65855563 0.73476255 -0.79779202 2.3509855e-38
-0.6590628 0.69931179 -0.81032413 2.3509856e-38
-0.65956008 0.67791301 -0.81726456 2.3509858e-38
-0.65808201 0.647771 -0.83415592 2.3509859e-38
-0.65994138 0.61702418 -0.84038937 2.350986e-38
-0.65988141 0.61339611 -0.84203732 2.3509862e-38
-0.65917492 0.58900952 -0.85410506 2.3509863e-38
-0.65889186 0.58580399 -0.85631257 2.3509865e-38
-0.65874779 0.57570541 -0.86082494 2.3509866e-38
-0.65857691 0.57243687 -0.86269104 2.3509867e-38
-0.65927446 0.5560596 -0.8669678 2.3509869e-38
-0.6592648 0.54785281 -0.8702839 2.350987e-38
-0.65765059 0.53219205 -0.88182366 2.3509872e-38
-0.65776932 0.52809304 -0.88307679 2.3509873e-38
-0.65790731 0.52419931 -0.88418442 2.3509874e-38
-0.65972692 0.49520731 -0.88984531 2.3509876e-38
-0.6596089 0.49207833 -0.89148301 2.3509877e-38
-0.65932977 0.48522466 -0.89513773 2.3509879e-38
-0.65775043 0.46750242 -0.90738893 2.350988e-38
-0.65614402 0.43066657 -0.92737836 2.3509881e-38
-0.65586972 0.42760882 -0.92949796 2.3509883e-38
