# .PCD v0.7 - Point Cloud Data file format
VERSION 0.7
FIELDS x y z rgb
SIZE 4 4 4 4
TYPE F F F F
COUNT 1 1 1 1
WIDTH 228
HEIGHT 1
VIEWPOINT 0 0 0 1 0 0 0
POINTS 228
DATA ascii
1.13161 1.1923547 -0.11520734 2.3509528e-38
1.1299672 1.190999 -0.10928229 2.350953e-38
1.1240927 1.177156 -0.092172273 2.3509531e-38
1.1221056 1.1703329 -0.08735472 2.3509532e-38
1.120196 1.1639363 -0.082652941 2.3509534e-38
1.1124067 1.1453471 -0.060071506 2.3509535e-38
1.1088771 1.1370218 -0.049794644 2.3509537e-38
1.1039958 1.1252079 -0.035718586 2.3509538e-38
1.1025007 1.1210381 -0.031656805 2.3509539e-38
1.100395 1.113191 -0.026831813 2.3509542e-38
1.098859 1.1084335 -0.022873683 2.3509544e-38
1.0936081 1.0881872 -0.011149469 2.3509545e-38
1.0918899 1.0824087 -0.0069287182 2.3509547e-38
1.0881813 1.0668043 0.00076036761 2.3509548e-38
1.0864121 1.0601624 0.0047923285 2.3509549e-38
1.0820811 1.0452764 0.015285221 2.3509551e-38
1.0790707 1.0360551 0.023088884 2.3509552e-38
1.0751833 1.019725 0.031161694 2.3509555e-38
1.0734116 1.0139282 0.035586119 2.3509556e-38
1.0696875 0.99675035 0.042623598 2.3509558e-38
1.0676458 0.98752189 0.046568256 2.3509559e-38
1.0657855 0.98029411 0.050696712 2.3509561e-38
1.0630774 0.96968687 0.056668758 2.3509562e-38
1.0616217 0.96498483 0.06033257 2.3509563e-38
1.0549093 0.93917477 0.075352721 2.3509565e-38
1.0480857 0.90975732 0.089180328 2.3509566e-38
1.0460116 0.88603616 0.086682908 2.3509569e-38
1.0483086 0.87298185 0.071619488 2.350957e-38
1.0487182 0.8663159 0.066967323 2.3509572e-38
1.0512676 0.84859622 0.048784185 2.3509573e-38
1.0519389 0.83576262 0.040294021 2.3509575e-38
1.051286 0.81967896 0.035601497 2.3509576e-38
1.0512547 0.80946904 0.031096082 2.3509577e-38
1.0515589 0.79516721 0.023401894 2.3509579e-38
1.0514911 0.79146349 0.021992281 2.3509582e-38
1.0516108 0.78114802 0.01683927 2.3509583e-38
1.0515212 0.7765165 0.015096217 2.3509584e-38
1.0513569 0.77130449 0.013387846 2.3509586e-38
1.0513115 0.76677895 0.011516172 2.3509587e-38
1.0509393 0.75860202 0.0092906207 2.3509589e-38
1.0508974 0.74401236 0.0028433367 2.350959e-38
1.0506923 0.73692071 0.00044467207 2.3509591e-38
1.0508565 0.73328793 -0.0018559196 2.3509593e-38
1.0511066 0.71311313 -0.011998288 2.3509596e-38
1.0505142 0.70258945 -0.014411809 2.3509597e-38
1.0505627 0.6994155 -0.01604313 2.3509598e-38
1.0504382 0.69147682 -0.01914666 2.35096e-38
1.0504707 0.68587238 -0.021816766 2.3509601e-38
1.0503381 0.67703664 -0.025295004 2.3509603e-38
1.0495753 0.66306651 -0.028592244 2.3509604e-38
1.0500543 0.64685351 -0.037849054 2.3509605e-38
1.0502188 0.63798064 -0.042527128 2.3509608e-38
1.0502141 0.63400853 -0.044308677 2.350961e-38
1.0499419 0.62560272 -0.047036327 2.3509611e-38
1.049821 0.61723733 -0.050347608 2.3509612e-38
1.0499097 0.60902983 -0.054421868 2.3509614e-38
1.0496948 0.60029072 -0.057528228 2.3509615e-38
1.0496618 0.58466429 -0.064481348 2.3509617e-38
1.0495945 0.58054131 -0.066082768 2.3509618e-38
1.0496092 0.5767706 -0.067850679 2.3509619e-38
1.0493938 0.56402898 -0.07276994 2.3509622e-38
1.0497012 0.55351818 -0.078759283 2.3509624e-38
1.0497118 0.54979974 -0.080487281 2.3509625e-38
1.0494795 0.54216826 -0.083021924 2.3509626e-38
1.0493888 0.53811085 -0.084500544 2.3509628e-38
1.0492142 0.53371489 -0.085798733 2.3509629e-38
1.0491201 0.5250181 -0.089366756 2.3509631e-38
1.0492601 0.51822466 -0.093004294 2.3509632e-38
1.0491875 0.50999457 -0.096446365 2.3509635e-38
1.0492121 0.50125933 -0.10050438 2.3509636e-38
1.0487615 0.48216781 -0.10736611 2.3509638e-38
1.0487651 0.4785834 -0.10900518 2.3509639e-38
1.0488352 0.46676749 -0.11464132 2.350964e-38
1.048522 0.44592306 -0.12284496 2.3509642e-38
1.048435 0.44211832 -0.1242233 2.3509643e-38
1.0483634 0.42792854 -0.13037169 2.3509645e-38
1.0482825 0.42431024 -0.13169032 2.3509647e-38
1.048249 0.4218694 -0.13266331 2.3509649e-38
1.0476083 0.40815997 -0.13632807 2.350965e-38
1.0479794 0.39124718 -0.14547321 2.3509652e-38
1.0479734 0.38784012 -0.14699417 2.3509653e-38
1.0479327 0.38096839 -0.14994781 2.3509654e-38
1.0480238 0.37357289 -0.15366293 2.3509656e-38
1.0480378 0.37060443 -0.15506448 2.3509657e-38
1.0477175 0.36026087 -0.15847842 2.3509659e-38
1.0477967 0.34715721 -0.16473505 2.3509661e-38
1.0475501 0.34047633 -0.16678225 2.3509663e-38
1.0476987 0.33130702 -0.17153096 2.3509664e-38
1.0476755 0.32806033 -0.17291011 2.3509666e-38
1.0475814 0.3187899 -0.17673914 2.3509667e-38
1.0474112 0.31510913 -0.17772993 2.3509668e-38
1.0473964 0.31185302 -0.17914699 2.350967e-38
1.0472693 0.30716038 -0.18076919 2.3509671e-38
1.0472698 0.29443142 -0.18654193 2.3509674e-38
1.0470668 0.2900525 -0.18771857 2.3509675e-38
1.0471114 0.28049478 -0.19222966 2.3509677e-38
1.0470839 0.27417412 -0.194985 2.3509678e-38
1.0472341 0.25825527 -0.20280048 2.350968e-38
1.0470471 0.24813221 -0.20664559 2.3509681e-38
1.0470287 0.23767504 -0.21131289 2.3509682e-38
1.0469146 0.23244143 -0.21323186 2.3509684e-38
1.0466211 0.2236252 -0.21606068 2.3509685e-38
1.0466048 0.20904239 -0.222607 2.3509688e-38
1.0467504 0.2032643 -0.22580627 2.3509689e-38
1.0465896 0.18486272 -0.23350915 2.3509691e-38
1.0464991 0.1817183 -0.23457445 2.3509692e-38
1.0464383 0.17282431 -0.23836403 2.3509694e-38
1.0463185 0.16377448 -0.24199072 2.3509695e-38
1.0463132 0.16083658 -0.24330144 2.3509696e-38
1.046508 0.15532221 -0.24657644 2.3509698e-38
1.0465763 0.15259208 -0.24808624 2.3509701e-38
1.0464953 0.14374375 -0.2517755 2.3509702e-38
1.0464633 0.13951188 -0.25356671 2.3509703e-38
1.0463904 0.1250855 -0.25981709 2.3509705e-38
1.0461273 0.11900752 -0.26152554 2.3509706e-38
1.0461465 0.11620002 -0.26287457 2.3509708e-38
1.0459256 0.10461619 -0.26724681 2.3509709e-38
1.0459307 0.093446761 -0.27233124 2.350971e-38
1.0461854 0.089823842 -0.27498752 2.3509712e-38
1.0479441 0.0921911 -0.28091562 2.3509715e-38
1.0487629 0.09329769 -0.28367338 2.3509716e-38
1.049769 0.094639868 -0.28707051 2.3509717e-38
1.0531633 0.099164411 -0.29853162 2.3509719e-38
1.054114 0.10044012 -0.30173758 2.350972e-38
1.0551342 0.10180159 -0.30518225 2.3509722e-38
1.0557828 0.1026949 -0.30735937 2.3509723e-38
1.0573361 0.10472497 -0.31262252 2.3509724e-38
1.0588125 0.10666007 -0.31762296 2.3509727e-38
1.0599289 0.1081427 -0.32139471 2.3509729e-38
1.0606067 0.10907585 -0.32367006 2.350973e-38
1.0617363 0.11057707 -0.32748666 2.3509731e-38
1.0633144 0.11264135 -0.33283311 2.3509733e-38
1.0648991 0.11471465 -0.33820155 2.3509734e-38
1.0659455 0.11611216 -0.34173417 2.3509736e-38
1.0686957 0.12069802 -0.35060292 2.3509737e-38
1.0713952 0.12330222 -0.36016944 2.3509738e-38
1.0728 0.125147 -0.36492532 2.3509741e-38
1.0738057 0.12650122 -0.36831489 2.3509743e-38
1.0750494 0.12814459 -0.37252104 2.3509744e-38
1.0761391 0.12960182 -0.37619904 2.3509745e-38
1.0773991 0.13127063 -0.38045809 2.3509747e-38
1.0784091 0.13262719 -0.38386369 2.3509748e-38
1.0795922 0.13420221 -0.38785952 2.350975e-38
1.0828816 0.14014162 -0.39826164 2.3509751e-38
1.084424 0.14217821 -0.40347901 2.3509754e-38
1.0856316 0.14379515 -0.40755314 2.3509755e-38
1.0869231 0.14551792 -0.41191387 2.3509757e-38
1.088389 0.14746033 -0.41686916 2.3509758e-38
1.0896889 0.1491946 -0.42125729 2.3509759e-38
1.0909766 0.15091413 -0.42560408 2.3509761e-38
1.0963051 0.15495528 -0.44498482 2.3509762e-38
1.100194 0.15983604 -0.4582535 2.3509764e-38
1.1010377 0.16099897 -0.46108499 2.3509767e-38
1.1025037 0.16294785 -0.46603757 2.3509768e-38
1.1038362 0.16491859 -0.47044873 2.3509769e-38
1.1050832 0.16658136 -0.47465953 2.3509771e-38
1.1069059 0.16905995 -0.48079199 2.3509772e-38
1.1079725 0.17049596 -0.48438707 2.3509774e-38
1.110163 0.17344822 -0.4917689 2.3509775e-38
1.1106765 0.17410687 -0.49351451 2.3509776e-38
1.1117622 0.17566471 -0.49713027 2.3509778e-38
1.1130084 0.17723058 -0.50138164 2.3509781e-38
1.1142973 0.17905262 -0.50568622 2.3509782e-38
1.1156757 0.18076126 -0.51039922 2.3509783e-38
1.1173944 0.18302314 -0.51621574 2.3509785e-38
1.1188675 0.18496421 -0.5212006 2.3509786e-38
1.1203119 0.18686922 -0.52608633 2.3509788e-38
1.1244495 0.18921432 -0.54149514 2.3509789e-38
1.1249044 0.18972836 -0.54307318 2.350979e-38
1.1252743 0.19348733 -0.54284114 2.3509793e-38
1.1255946 0.19737086 -0.54235601 2.3509795e-38
1.1257542 0.20088075 -0.54140007 2.3509796e-38
1.1271862 0.22619639 -0.53562343 2.3509797e-38
1.1283281 0.26823109 -0.52111214 2.3509799e-38
1.127893 0.30113283 -0.50446332 2.35098e-38
1.1280274 0.30830738 -0.50174582 2.3509802e-38
1.1275327 0.32438487 -0.49248719 2.3509803e-38
1.127089 0.33412305 -0.48630559 2.3509804e-38
1.1271698 0.35687056 -0.47631493 2.3509807e-38
1.1284636 0.3770282 -0.47232628 2.3509809e-38
1.1284506 0.38041618 -0.47073844 2.350981e-38
1.1282426 0.38352755 -0.46849993 2.3509811e-38
1.1278425 0.40099138 -0.45898944 2.3509813e-38
1.1281524 0.41233426 -0.4550803 2.3509814e-38
1.1281334 0.41821495 -0.45233926 2.3509816e-38
1.1285363 0.44051886 -0.44383082 2.3509817e-38
1.1284357 0.44477043 -0.44150287 2.350982e-38
1.1286408 0.45565212 -0.43738565 2.3509821e-38
1.128884 0.4597725 -0.43648601 2.3509823e-38
1.1298797 0.47267562 -0.43460038 2.3509824e-38
1.1304562 0.5134356 -0.41841576 2.3509825e-38
1.1296445 0.52740097 -0.40885299 2.3509827e-38
1.1298575 0.53731978 -0.40520385 2.3509828e-38
1.1291468 0.55180806 -0.39580622 2.350983e-38
1.1305317 0.58311385 -0.38712594 2.3509831e-38
1.1300911 0.59081089 -0.38188252 2.3509834e-38
1.1300025 0.60665923 -0.37434512 2.3509835e-38
1.1299142 0.6241073 -0.36608261 2.3509837e-38
1.1334605 0.65664446 -0.36544946 2.3509838e-38
1.1301365 0.6911456 -0.33657438 2.3509839e-38
1.1304834 0.71144325 -0.32875302 2.3509841e-38
1.1305311 0.72094852 -0.32463416 2.3509842e-38
1.1308588 0.73515254 -0.3194989 2.3509844e-38
1.1308948 0.74135685 -0.31682923 2.3509846e-38
1.1305484 0.75456512 -0.30946192 2.3509848e-38
1.1332183 0.7849443 -0.30631775 2.3509849e-38
1.1318347 0.82069653 -0.284601 2.3509851e-38
1.1327853 0.84993315 -0.27512974 2.3509852e-38
1.1324422 0.85693789 -0.27058914 2.3509853e-38
1.1321974 0.86057371 -0.26796561 2.3509855e-38
1.1329254 0.88869017 -0.25811672 2.3509856e-38
1.1340537 0.8984561 -0.25818083 2.3509858e-38
1.1323816 0.91939253 -0.24203153 2.350986e-38
1.1325339 0.93878174 -0.23384795 2.3509862e-38
1.1326789 0.96032208 -0.22466004 2.3509863e-38
1.1312828 0.97087467 -0.21431729 2.3509865e-38
1.1303369 0.98279995 -0.20514537 2.3509866e-38
1.1307009 1.0080647 -0.19514066 2.3509867e-38
1.1312675 1.0159246 -0.19383255 2.3509869e-38
1.1319649 1.0288678 -0.19074079 2.350987e-38
1.1296901 1.0618783 -0.1667188 2.3509873e-38
1.1310544 1.0777221 -0.16496669 2.3509874e-38
1.1307971 1.0815945 -0.16218746 2.3509876e-38
1.1313652 1.1149907 -0.14930767 2.3509877e-38
1.1309503 1.12212 -0.14442354 2.3509879e-38
1.1298225 1.1430982 -0.13042304 2.350988e-38
1.1311783 1.1643264 -0.12619664 2.3509881e-38
1.1313548 1.1684825 -0.12501423 2.3509883e-38
