# .PCD v0.7 - Point Cloud Data file format
VERSION 0.7
FIELDS x y z rgb
SIZE 4 4 4 4
TYPE F F F F
COUNT 1 1 1 1
WIDTH 81
HEIGHT 1
VIEWPOINT 0 0 0 1 0 0 0
POINTS 81
DATA ascii
1.0345507 1.9097323 -2.2731869 2.3509528e-38
1.0385846 1.921178 -2.252254 2.3509532e-38
1.0498646 1.9263971 -2.2300336 2.3509537e-38
1.1284437 1.933901 -2.1143589 2.3509541e-38
1.1645164 1.9289441 -2.0726469 2.3509545e-38
1.2120348 1.9332316 -2.0030353 2.3509549e-38
1.2288013 1.9324088 -1.9816391 2.3509554e-38
1.2609422 1.9151496 -1.9618847 2.3509559e-38
1.2690949 1.9116137 -1.9557323 2.3509563e-38
1.3517294 1.8966042 -1.8651336 2.3509568e-38
1.4191101 1.8893731 -1.7844702 2.3509572e-38
1.433243 1.8870041 -1.7687067 2.3509576e-38
1.4548386 1.8774587 -1.7526525 2.350958e-38
1.5101447 1.8445508 -1.7230108 2.3509584e-38
1.6027936 1.8162068 -1.6370444 2.350959e-38
1.6095052 1.8135064 -1.6316943 2.3509594e-38
1.6192712 1.809562 -1.6239296 2.3509598e-38
1.6247472 1.8055307 -1.6220423 2.3509603e-38
1.7570798 1.6615713 -1.6395355 2.3509607e-38
1.7765665 1.6433454 -1.6380814 2.3509611e-38
1.7934281 1.6156747 -1.6529558 2.3509615e-38
1.8015618 1.5455309 -1.7371294 2.3509621e-38
1.8037916 1.5371655 -1.7454766 2.3509625e-38
1.9172134 1.3572519 -1.837103 2.3509629e-38
1.9544054 1.3247023 -1.8312961 2.3509633e-38
2.0450709 1.2506105 -1.8100125 2.3509638e-38
2.0879736 1.2119422 -1.8048331 2.3509642e-38
2.1016281 1.1997759 -1.8029946 2.3509647e-38
2.2533333 1.0538241 -1.7971784 2.3509652e-38
2.2884548 1.0071849 -1.8132527 2.3509656e-38
2.3148308 0.97750956 -1.8180708 2.350966e-38
2.3651378 0.87883741 -1.8842963 2.3509664e-38
2.370631 0.86987191 -1.8890766 2.3509668e-38
2.3881838 0.84193784 -1.9033793 2.3509673e-38
2.4712751 0.74794817 -1.9192417 2.3509678e-38
2.5192304 0.65854198 -1.9760637 2.3509682e-38
2.4457874 0.70073783 -2.0174649 2.3509687e-38
2.4105165 0.7195698 -2.0392895 2.3509691e-38
2.2933695 0.77383554 -2.1230052 2.3509695e-38
2.2859018 0.77624899 -2.1297598 2.3509699e-38
2.1945622 0.82050645 -2.1923947 2.3509703e-38
2.186044 0.82623613 -2.196064 2.3509709e-38
2.1062894 0.86440039 -2.251405 2.3509713e-38
2.0990677 0.86678851 -2.257863 2.3509717e-38
2.0918422 0.86918122 -2.2643204 2.3509722e-38
2.0846121 0.87157881 -2.270777 2.3509726e-38
2.0733743 0.88021755 -2.2741539 2.350973e-38
2.048455 0.90160096 -2.2786212 2.3509734e-38
1.9601167 0.95592171 -2.3235836 2.350974e-38
1.9103719 0.98275995 -2.3539877 2.3509744e-38
1.9009622 0.98826945 -2.3591521 2.3509748e-38
1.8222423 1.0163333 -2.4267964 2.3509752e-38
1.7487959 1.005394 -2.5402381 2.3509757e-38
1.699707 0.99633515 -2.618427 2.3509761e-38
1.6766602 0.97976124 -2.6718392 2.3509767e-38
1.6649163 0.98951191 -2.6743879 2.3509771e-38
1.6426259 1.0067999 -2.6808779 2.3509775e-38
1.6161116 1.0385091 -2.6734884 2.3509779e-38
1.6109779 1.0508506 -2.66365 2.3509783e-38
1.5854906 1.1182189 -2.6065385 2.3509788e-38
1.5825835 1.1261287 -2.5997183 2.3509792e-38
1.5611203 1.175805 -2.5611889 2.3509797e-38
1.5554701 1.1887352 -2.5512457 2.3509802e-38
1.5531883 1.1964663 -2.543828 2.3509806e-38
1.55239 1.2054013 -2.5327868 2.350981e-38
1.30546 1.4665141 -2.5103297 2.3509814e-38
1.2951926 1.467994 -2.5221086 2.3509818e-38
1.2302591 1.5049566 -2.5591793 2.3509823e-38
1.2075684 1.5142105 -2.5770991 2.3509828e-38
1.1576976 1.5359414 -2.6145959 2.3509832e-38
1.1379064 1.5485424 -2.6240849 2.3509837e-38
1.0965542 1.574882 -2.6438966 2.3509841e-38
1.0815157 1.597448 -2.6334949 2.3509845e-38
1.0760555 1.608979 -2.6251934 2.3509849e-38
1.0941894 1.7176241 -2.4535561 2.3509853e-38
1.0789998 1.7568313 -2.4207971 2.3509859e-38
1.0670079 1.7828484 -2.4016259 2.3509863e-38
1.0580431 1.8116467 -2.3746207 2.3509867e-38
1.0453482 1.8495129 -2.3403299 2.3509872e-38
1.0357726 1.8769715 -2.3159606 2.3509876e-38
1.0343107 1.8969045 -2.2909002 2.350988e-38
