# .PCD v0.7 - Point Cloud Data file format
VERSION 0.7
FIELDS x y z rgb
SIZE 4 4 4 4
TYPE F F F F
COUNT 1 1 1 1
WIDTH 103
HEIGHT 1
VIEWPOINT 0 0 0 1 0 0 0
POINTS 103
DATA ascii
-1.3094635 0.70717323 0.89719027 2.3509528e-38
-1.3022273 0.70830023 0.89969462 2.3509531e-38
-1.2956277 0.70451587 0.90161347 2.3509534e-38
-1.281359 0.69928318 0.90598583 2.3509538e-38
-1.2745126 0.6933943 0.90782732 2.3509541e-38
-1.262633 0.68603528 0.91123968 2.3509545e-38
-1.2549711 0.68223596 0.91351235 2.3509548e-38
-1.2342119 0.6773383 0.92007977 2.3509552e-38
-1.2218444 0.67319947 0.92389971 2.3509555e-38
-1.2006624 0.67042744 0.93076974 2.3509559e-38
-1.1802287 0.66751504 0.93737906 2.3509562e-38
-1.1748134 0.66464233 0.9389711 2.3509566e-38
-1.1525152 0.65829229 0.9459427 2.3509569e-38
-1.1293029 0.66152936 0.95394772 2.3509573e-38
-1.103421 0.66368419 0.96276283 2.3509576e-38
-1.0610141 0.66060734 0.97670478 2.350958e-38
-1.0422602 0.66372913 0.98321062 2.3509583e-38
-1.0040979 0.67285877 0.99666023 2.3509587e-38
-0.99858886 0.67468959 0.99864084 2.350959e-38
-0.97723186 0.67837948 1.0060599 2.3509594e-38
-0.9699614 0.6717115 1.0079842 2.3509597e-38
-0.9533549 0.65407962 1.0121965 2.35096e-38
-0.93391615 0.62333691 1.0163605 2.3509604e-38
-0.92805248 0.61901057 1.017992 2.3509607e-38
-0.93005764 0.59800893 1.0157274 2.3509611e-38
-0.93379056 0.58940148 1.0138263 2.3509614e-38
-0.93641263 0.58003104 1.0122383 2.3509618e-38
-0.9371711 0.56842482 1.0111036 2.3509621e-38
-0.93903035 0.56413764 1.0101566 2.3509625e-38
-0.9408896 0.55985051 1.0092098 2.3509628e-38
-0.94626623 0.54129714 1.0060039 2.3509632e-38
-0.952613 0.52296317 1.0024905 2.3509635e-38
-0.95574552 0.51385677 1.0007521 2.3509639e-38
-0.95786852 0.50837797 0.99962646 2.3509642e-38
-0.96468782 0.4839592 0.99549317 2.3509646e-38
-0.96617758 0.47061363 0.99398202 2.3509649e-38
-0.9689225 0.46055225 0.99230069 2.3509653e-38
-0.97029483 0.45552149 0.99145997 2.3509656e-38
-0.97166729 0.45049074 0.99061924 2.350966e-38
-0.97303975 0.44546005 0.98977864 2.3509663e-38
-0.97578454 0.43539864 0.98809713 2.3509667e-38
-0.97809303 0.41960895 0.9861269 2.350967e-38
-0.97966456 0.40861773 0.98476714 2.3509673e-38
-0.98103303 0.40359715 0.98392856 2.3509677e-38
-0.98240155 0.39857638 0.98308992 2.350968e-38
-0.98377001 0.39355576 0.98225129 2.3509684e-38
-0.98765546 0.38318554 0.98016524 2.3509687e-38
-0.98902082 0.3781752 0.97932845 2.3509691e-38
-0.9929527 0.3690035 0.97731787 2.3509694e-38
-0.99439853 0.36506927 0.97653592 2.3509698e-38
-0.99893081 0.3512156 0.9739691 2.3509701e-38
-1.0022508 0.32237276 0.97066969 2.3509705e-38
-1.0162926 0.29665643 0.96402365 2.3509708e-38
-1.0168761 0.2778289 0.96239907 2.3509712e-38
-1.0206803 0.26771554 0.96035975 2.3509715e-38
-1.0223994 0.2475211 0.95825207 2.3509719e-38
-1.0360087 0.22640213 0.95209944 2.3509722e-38
-1.0373749 0.22139212 0.95126241 2.3509726e-38
-1.0387408 0.2163821 0.95042557 2.3509729e-38
-1.0442306 0.21260472 0.94830364 2.3509733e-38
-1.0574951 0.2003651 0.94294059 2.3509736e-38
-1.0753947 0.19501109 0.93655074 2.350974e-38
-1.0887421 0.19092034 0.93177861 2.3509743e-38
-1.1088233 0.18609911 0.92469996 2.3509745e-38
-1.126842 0.18561971 0.91864032 2.350975e-38
-1.1377971 0.18375225 0.91483653 2.3509752e-38
-1.1541346 0.18677236 0.90960485 2.3509757e-38
-1.1755929 0.18642731 0.90240562 2.3509759e-38
-1.1813115 0.18835106 0.90064013 2.3509764e-38
-1.1864392 0.19010328 0.89905906 2.3509767e-38
-1.1986713 0.19296215 0.89518726 2.3509771e-38
-1.2102332 0.19905716 0.89178526 2.3509774e-38
-1.2161595 0.20106293 0.88995653 2.3509778e-38
-1.2368546 0.20221727 0.88312632 2.3509781e-38
-1.2523452 0.20617035 0.87824833 2.3509785e-38
-1.2659985 0.20691688 0.87374121 2.3509788e-38
-1.2685046 0.20793995 0.87298107 2.3509792e-38
-1.280033 0.21188962 0.86942726 2.3509795e-38
-1.2938622 0.22203691 0.86557496 2.3509799e-38
-1.298562 0.22937551 0.86456102 2.3509802e-38
-1.3072371 0.24050143 0.86250591 2.3509806e-38
-1.3097329 0.24725476 0.86218429 2.3509809e-38
-1.3116367 0.25893989 0.86243504 2.3509813e-38
-1.3171732 0.27271533 0.8616302 2.3509816e-38
-1.3204701 0.28681698 0.86159861 2.3509818e-38
-1.321304 0.30158904 0.8624413 2.3509823e-38
-1.3243399 0.32698613 0.86335456 2.3509825e-38
-1.3305819 0.35394707 0.86331487 2.350983e-38
-1.331919 0.38296899 0.86507124 2.3509832e-38
-1.3333136 0.41320473 0.8669005 2.3509837e-38
-1.3330873 0.43369317 0.86853153 2.3509839e-38
-1.332769 0.44685 0.86963671 2.3509844e-38
-1.3330454 0.47099081 0.87137705 2.3509846e-38
-1.3380291 0.51493752 0.87304747 2.3509851e-38
-1.4003305 0.54944271 0.85484141 2.3509853e-38
-1.4005873 0.55606282 0.85525829 2.3509858e-38
-1.3422649 0.6173327 0.8794052 2.350986e-38
-1.3374952 0.63485783 0.88233006 2.3509865e-38
-1.3399887 0.6582455 0.88327217 2.3509867e-38
-1.3398104 0.67842078 0.88486332 2.3509872e-38
-1.3417113 0.68730414 0.88490242 2.3509874e-38
-1.3350062 0.69783825 0.88794345 2.3509879e-38
-1.3238114 0.70409822 0.89216077 2.3509881e-38
