# .PCD v0.7 - Point Cloud Data file format
VERSION 0.7
FIELDS x y z rgb
SIZE 4 4 4 4
TYPE F F F F
COUNT 1 1 1 1
WIDTH 41
HEIGHT 1
VIEWPOINT 0 0 0 1 0 0 0
POINTS 41
DATA ascii
1.7235969 0.29083601 0.77680689 2.3509528e-38
1.7167504 0.27857855 0.80177772 2.3509537e-38
1.6098473 0.34002319 0.94687635 2.3509545e-38
1.6041977 0.33811778 0.95953381 2.3509554e-38
1.5439479 0.38761243 1.0269176 2.3509562e-38
1.4875419 0.39295408 1.1296958 2.3509572e-38
1.4700248 0.37468034 1.1809129 2.350958e-38
1.4636848 0.36055729 1.2067207 2.3509589e-38
1.4519449 0.34716544 1.242155 2.3509597e-38
1.4429625 0.33894968 1.2672999 2.3509605e-38
1.4292216 0.32241058 1.3096112 2.3509615e-38
1.4228054 0.30837989 1.335475 2.3509624e-38
1.4152781 0.30124894 1.3567853 2.3509632e-38
1.3961356 0.27474502 1.4190819 2.350964e-38
1.385814 0.26626664 1.4470447 2.350965e-38
1.3713238 0.24932101 1.4911832 2.3509659e-38
1.356434 0.22295843 1.545204 2.3509667e-38
1.3521218 0.21708058 1.5591478 2.3509675e-38
1.3485082 0.21555868 1.5675372 2.3509684e-38
1.3456327 0.22155672 1.5672327 2.3509694e-38
1.3510884 0.23855872 1.5403298 2.3509702e-38
1.3693807 0.26218113 1.4824504 2.350971e-38
1.3749394 0.26598525 1.4681284 2.3509719e-38
1.3984839 0.28562662 1.4040523 2.3509729e-38
1.4105954 0.32151845 1.3461217 2.3509737e-38
1.4223508 0.33312955 1.3123821 2.3509745e-38
1.4458835 0.36274421 1.2386715 2.3509754e-38
1.4592117 0.38306373 1.1934901 2.3509762e-38
1.4420918 0.55393773 1.060809 2.3509772e-38
1.4390885 0.56709719 1.0538156 2.3509781e-38
1.4388397 0.60162848 1.020858 2.3509789e-38
1.4384416 0.60969651 1.0138078 2.3509797e-38
1.4621265 0.60735911 0.97074282 2.3509807e-38
1.4809598 0.60485297 0.93712634 2.3509816e-38
1.5101396 0.59462357 0.89118642 2.3509824e-38
1.6037388 0.57128119 0.73465711 2.3509832e-38
1.6178366 0.55325514 0.72512984 2.3509841e-38
1.6202478 0.54600531 0.72753495 2.3509851e-38
1.7095423 0.33636665 0.75962126 2.3509859e-38
1.7192645 0.31026748 0.76628453 2.3509867e-38
1.7236578 0.29677698 0.77093816 2.3509876e-38
