# .PCD v0.7 - Point Cloud Data file format
VERSION 0.7
FIELDS x y z rgb
SIZE 4 4 4 4
TYPE F F F F
COUNT 1 1 1 1
WIDTH 147
HEIGHT 1
VIEWPOINT 0 0 0 1 0 0 0
POINTS 147
DATA ascii
-1.116663 1.0955358 -2.7986209 2.3509528e-38
-1.1129141 1.1279697 -2.8021736 2.350953e-38
-1.1154175 1.1806448 -2.776 2.3509532e-38
-1.1188012 1.1944516 -2.7589991 2.3509535e-38
-1.1218117 1.2190734 -2.739923 2.3509537e-38
-1.1245942 1.2478447 -2.720365 2.3509539e-38
-1.1284916 1.2895489 -2.6925216 2.3509542e-38
-1.1263082 1.3344519 -2.6862624 2.3509545e-38
-1.1272159 1.3628905 -2.6737814 2.3509547e-38
-1.1322871 1.3934429 -2.6451447 2.3509549e-38
-1.1338123 1.4188609 -2.6313355 2.3509552e-38
-1.1380053 1.4613659 -2.6021369 2.3509555e-38
-1.1329497 1.518885 -2.6025155 2.3509556e-38
-1.1358274 1.5642912 -2.5772777 2.3509559e-38
-1.1358209 1.5755559 -2.5736954 2.3509562e-38
-1.1340225 1.6026745 -2.5716984 2.3509565e-38
-1.1372368 1.6175114 -2.5549972 2.3509566e-38
-1.1458784 1.6329119 -2.5179377 2.3509569e-38
-1.1610564 1.6512979 -2.455621 2.3509572e-38
-1.1619588 1.6594977 -2.4496405 2.3509573e-38
-1.1689506 1.6673321 -2.4211376 2.3509576e-38
-1.1719563 1.703117 -2.3985045 2.3509579e-38
-1.1648523 1.7803347 -2.4001913 2.3509582e-38
-1.1701517 1.8293009 -2.3648105 2.3509583e-38
-1.1851516 1.847103 -2.3033433 2.3509586e-38
-1.1860592 1.8554471 -2.2972968 2.3509589e-38
-1.186967 1.8637911 -2.29125 2.3509591e-38
-1.1967114 1.9029585 -2.242481 2.3509593e-38
-1.2157439 1.9248692 -2.164705 2.3509596e-38
-1.2198962 1.9021221 -2.1565511 2.3509598e-38
-1.2222813 1.8496684 -2.1644785 2.3509601e-38
-1.2242444 1.7873218 -2.1771429 2.3509603e-38
-1.2279941 1.76683 -2.1697633 2.3509605e-38
-1.2239786 1.7311436 -2.1961184 2.3509608e-38
-1.2242016 1.7081525 -2.2026513 2.350961e-38
-1.2259022 1.6752009 -2.2068796 2.3509612e-38
-1.225944 1.6647142 -2.2100816 2.3509615e-38
-1.2258185 1.6448652 -2.2169044 2.3509618e-38
-1.225556 1.6259785 -2.2239275 2.3509619e-38
-1.2390506 1.5525632 -2.197263 2.3509622e-38
-1.2466789 1.5378056 -2.1736274 2.3509625e-38
-1.2538608 1.5326413 -2.1485794 2.3509628e-38
-1.2577857 1.5254633 -2.1362865 2.3509629e-38
-1.2702395 1.5098134 -2.0949955 2.3509632e-38
-1.2762507 1.4972465 -2.0766706 2.3509635e-38
-1.2847158 1.4934764 -2.0464058 2.3509638e-38
-1.2924052 1.4791025 -2.0224197 2.3509639e-38
-1.296196 1.4720292 -2.0105913 2.3509642e-38
-1.2998742 1.4652303 -1.9990931 2.3509645e-38
-1.310461 1.460219 -1.961337 2.3509647e-38
-1.316029 1.4483175 -1.9444473 2.3509649e-38
-1.3239225 1.4397334 -1.9178487 2.3509652e-38
-1.327582 1.4348664 -1.9058013 2.3509654e-38
-1.3327358 1.4272343 -1.889084 2.3509656e-38
-1.336144 1.420881 -1.8784472 2.3509659e-38
-1.3441303 1.4123043 -1.8515012 2.3509661e-38
-1.3539009 1.3940681 -1.821015 2.3509664e-38
-1.3582011 1.3907797 -1.8060801 2.3509666e-38
-1.3617852 1.3903049 -1.7929072 2.3509668e-38
-1.3684945 1.3774642 -1.7720745 2.3509671e-38
-1.376206 1.3673587 -1.7466395 2.3509674e-38
-1.3808049 1.3688726 -1.7290567 2.3509675e-38
-1.3871742 1.3896197 -1.6987333 2.3509678e-38
-1.3896495 1.4101148 -1.6829687 2.3509681e-38
-1.3944795 1.4020674 -1.6675878 2.3509684e-38
-1.3942271 1.3843073 -1.6742128 2.3509685e-38
-1.3938431 1.3762465 -1.6782215 2.3509688e-38
-1.3947254 1.3473368 -1.6841978 2.3509691e-38
-1.3944271 1.330062 -1.6908382 2.3509692e-38
-1.3904493 1.3033805 -1.7141703 2.3509695e-38
-1.3923537 1.2702562 -1.7176958 2.3509698e-38
-1.3955146 1.2488414 -1.7128011 2.3509701e-38
-1.3982364 1.1974018 -1.7191523 2.3509702e-38
-1.4051714 1.173695 -1.7009598 2.3509705e-38
-1.3966087 1.0994947 -1.7565534 2.3509708e-38
-1.3965008 1.0922148 -1.7592854 2.350971e-38
-1.3935498 1.0824765 -1.7733754 2.3509712e-38
-1.3898233 1.0452023 -1.7991651 2.3509715e-38
-1.3902503 1.0362731 -1.800436 2.3509717e-38
-1.389582 1.0295916 -1.8050599 2.350972e-38
-1.388018 1.0007285 -1.8201166 2.3509722e-38
-1.3853741 0.95654261 -1.8440943 2.3509724e-38
-1.3856188 0.94167608 -1.8479446 2.3509727e-38
-1.3887413 0.90570503 -1.8478537 2.3509729e-38
-1.3878342 0.88450491 -1.8580137 2.3509731e-38
-1.3868251 0.87544948 -1.8646654 2.3509734e-38
-1.3816475 0.83768916 -1.8960059 2.3509737e-38
-1.3811669 0.81622207 -1.9046658 2.3509738e-38
-1.3805884 0.80942726 -1.9089921 2.3509741e-38
-1.3799251 0.80306947 -1.9134942 2.3509744e-38
-1.3792617 0.79671162 -1.9179959 2.3509747e-38
-1.3798707 0.76057971 -1.9273015 2.3509748e-38
-1.3714583 0.76327133 -1.9577161 2.3509751e-38
-1.3676268 0.76884401 -1.9701761 2.3509754e-38
-1.3638299 0.77180928 -1.9833426 2.3509757e-38
-1.3594034 0.77745265 -1.9979932 2.3509758e-38
-1.3576491 0.77961022 -2.0038249 2.3509761e-38
-1.3555434 0.7820307 -2.0108783 2.3509764e-38
-1.3528804 0.78531933 -2.0197263 2.3509767e-38
-1.3501183 0.78929168 -2.028723 2.3509768e-38
-1.3471627 0.7929396 -2.0385437 2.3509771e-38
-1.3432884 0.79723275 -2.0515733 2.3509774e-38
-1.3409879 0.80057281 -2.0590565 2.3509775e-38
-1.3374192 0.80461711 -2.0710294 2.3509778e-38
-1.3346192 0.80807722 -2.080332 2.3509781e-38
-1.3324239 0.81061977 -2.0876791 2.3509783e-38
-1.3291955 0.81461114 -2.0984039 2.3509785e-38
-1.3251926 0.82833296 -2.1088924 2.3509788e-38
-1.3121092 0.84391171 -2.1525466 2.350979e-38
-1.3082064 0.84105176 -2.1679723 2.3509793e-38
-1.3065695 0.84289223 -2.1734693 2.3509795e-38
-1.3033273 0.84689039 -2.184243 2.3509797e-38
-1.3000666 0.85091102 -2.1950786 2.35098e-38
-1.2967869 0.85495412 -2.2059772 2.3509803e-38
-1.2932487 0.85942781 -2.2177 2.3509804e-38
-1.2881148 0.865771 -2.2347558 2.3509807e-38
-1.2863643 0.86789709 -2.2405827 2.350981e-38
-1.28125 0.87421489 -2.2575743 2.3509811e-38
-1.2777448 0.87852621 -2.2692258 2.3509814e-38
-1.2723932 0.88508093 -2.2870235 2.3509817e-38
-1.2706176 0.88723648 -2.2929351 2.350982e-38
-1.2652615 0.89385122 -2.3107295 2.3509821e-38
-1.2616231 0.89832532 -2.322824 2.3509824e-38
-1.2579627 0.90282631 -2.3349922 2.3509827e-38
-1.2513623 0.91907269 -2.3543289 2.350983e-38
-1.2477052 0.92359805 -2.3664768 2.3509831e-38
-1.2401333 0.92498285 -2.3941851 2.3509834e-38
-1.2373265 0.92422777 -2.4048622 2.3509837e-38
-1.2334394 0.92902035 -2.417779 2.3509839e-38
-1.2294706 0.93401754 -2.4309342 2.3509841e-38
-1.2276881 0.93608767 -2.4368989 2.3509844e-38
-1.2207263 0.94476837 -2.4600027 2.3509846e-38
-1.2131934 0.95389897 -2.4850848 2.3509848e-38
-1.2069994 0.96177769 -2.5055909 2.3509851e-38
-1.2052054 0.963857 -2.5115948 2.3509853e-38
-1.1985583 0.97223568 -2.5336249 2.3509856e-38
-1.1967397 0.97434419 -2.5397115 2.3509858e-38
-1.1862016 0.98725426 -2.5747569 2.350986e-38
-1.1843816 0.98932457 -2.5808604 2.3509863e-38
-1.1805367 0.99403197 -2.5936475 2.3509866e-38
-1.1760039 0.99961621 -2.6087122 2.3509867e-38
-1.1694005 1.0079521 -2.6305935 2.350987e-38
-1.1540371 1.0267773 -2.681685 2.3509873e-38
-1.1442351 1.0388186 -2.7142723 2.3509876e-38
-1.1346841 1.0541486 -2.7448728 2.3509877e-38
-1.1273217 1.0593653 -2.770575 2.350988e-38
-1.1226562 1.0789635 -2.7816448 2.3509883e-38
