# .PCD v0.7 - Point Cloud Data file format
VERSION 0.7
FIELDS x y z rgb
SIZE 4 4 4 4
TYPE F F F F
COUNT 1 1 1 1
WIDTH 351
HEIGHT 1
VIEWPOINT 0 0 0 1 0 0 0
POINTS 351
DATA ascii
-1.7642661 1.4327171 -0.45868146 2.3509528e-38
-1.7709459 1.4782331 -0.4349224 2.3509528e-38
-1.7706316 1.5173433 -0.41199577 2.350953e-38
-1.7684047 1.5344054 -0.40112698 2.3509531e-38
-1.74554 1.5667375 -0.3727968 2.3509531e-38
-1.7864767 1.6308111 -0.35243148 2.3509532e-38
-1.7859453 1.6537293 -0.33885279 2.3509534e-38
-1.7916892 1.6684202 -0.33267254 2.3509535e-38
-1.7855341 1.6805955 -0.32302272 2.3509535e-38
-1.7863994 1.7180899 -0.30152714 2.3509537e-38
-1.7822127 1.7383051 -0.28800759 2.3509538e-38
-1.782521 1.7563841 -0.27759773 2.3509538e-38
-1.7841281 1.7701408 -0.27024609 2.3509539e-38
-1.7873449 1.7811204 -0.26518077 2.3509541e-38
-1.7853926 1.8023168 -0.25201622 2.3509542e-38
-1.7878648 1.8135842 -0.24647418 2.3509542e-38
-1.7873536 1.830704 -0.23628351 2.3509544e-38
-1.7871834 1.8404642 -0.23052394 2.3509545e-38
-1.7890371 1.8606509 -0.21952666 2.3509547e-38
-1.789457 1.8648945 -0.21722734 2.3509547e-38
-1.7687919 1.9084414 -0.18327282 2.3509548e-38
-1.7251661 1.9218442 -0.15736392 2.3509549e-38
-1.7476662 1.93369 -0.15979293 2.3509549e-38
-1.7707403 1.9176081 -0.17873812 2.3509551e-38
-1.7888758 1.8972726 -0.19811407 2.3509552e-38
-1.7906216 1.8892925 -0.20348968 2.3509554e-38
-1.7932999 1.8825206 -0.20854785 2.3509554e-38
-1.7996396 1.8694124 -0.2188179 2.3509555e-38
-1.7931653 1.8543938 -0.22488612 2.3509556e-38
-1.7904549 1.8429503 -0.230432 2.3509558e-38
-1.797026 1.8071588 -0.25401965 2.3509558e-38
-1.7996759 1.800454 -0.25902691 2.3509559e-38
-1.7992023 1.799853 -0.25918078 2.3509561e-38
-1.7878417 1.7817465 -0.26502186 2.3509561e-38
-1.2317252 0.34769908 -0.87019873 2.3509562e-38
-1.2167031 0.34513691 -0.86546057 2.3509563e-38
-1.2012644 0.34317318 -0.86020088 2.3509565e-38
-1.1864372 0.34128502 -0.85515094 2.3509565e-38
-1.1597617 0.33797178 -0.84601659 2.3509566e-38
-1.1346602 0.33474994 -0.83748192 2.3509568e-38
-1.1264677 0.33365831 -0.83471972 2.3509569e-38
-1.0956128 0.32986292 -0.8241328 2.3509569e-38
-1.0698876 0.32659316 -0.81536734 2.350957e-38
-1.054106 0.32789832 -0.80806005 2.3509572e-38
-1.0389607 0.3259356 -0.80292147 2.3509572e-38
-1.02643 0.32429343 -0.79868066 2.3509573e-38
-1.0140884 0.32267258 -0.79450589 2.3509575e-38
-1.0020241 0.32107574 -0.79043204 2.3509576e-38
-0.98465014 0.31885707 -0.7845183 2.3509576e-38
-0.97310311 0.31734046 -0.78061235 2.3509577e-38
-0.94812781 0.31430599 -0.77202082 2.3509579e-38
-0.9417541 0.31330436 -0.7699607 2.350958e-38
-0.92828429 0.31149453 -0.76542807 2.350958e-38
-0.91866285 0.31022012 -0.76217967 2.3509582e-38
-0.9004727 0.30599764 -0.75709522 2.3509583e-38
-0.89358187 0.30600169 -0.75423443 2.3509583e-38
-0.8788985 0.3031629 -0.74979812 2.3509584e-38
-0.80458981 0.29452583 -0.72400773 2.3509586e-38
-0.79189855 0.29294679 -0.71966356 2.3509587e-38
-0.78447002 0.2919535 -0.717161 2.3509587e-38
-0.77643675 0.29088679 -0.71445042 2.3509589e-38
-0.76302797 0.2892586 -0.7098372 2.350959e-38
-0.75404292 0.28807738 -0.70679855 2.3509591e-38
-0.73706985 0.28279692 -0.70283556 2.3509591e-38
-0.73597968 0.29299808 -0.69643742 2.3509593e-38
-0.73647076 0.29571724 -0.69505626 2.3509594e-38
-0.73714572 0.30161688 -0.69189739 2.3509594e-38
-0.73730922 0.30409545 -0.69052064 2.3509596e-38
-0.73763031 0.30907515 -0.68775123 2.3509597e-38
-0.73780006 0.3122693 -0.68595988 2.3509598e-38
-0.73780394 0.3204475 -0.68119466 2.3509598e-38
-0.73859984 0.32625538 -0.67813963 2.35096e-38
-0.73877233 0.32946885 -0.67633808 2.3509601e-38
-0.73920083 0.33781126 -0.67165333 2.3509603e-38
-0.738998 0.34635091 -0.66659158 2.3509603e-38
-0.73872668 0.35710081 -0.66021329 2.3509604e-38
-0.73866343 0.35790572 -0.65971786 2.3509605e-38
-0.7379325 0.36301529 -0.65643644 2.3509605e-38
-0.73804939 0.37744623 -0.64807355 2.3509607e-38
-0.73821455 0.38071331 -0.64623779 2.3509608e-38
-0.73970753 0.39559102 -0.63818532 2.350961e-38
-0.7400707 0.40146476 -0.63491237 2.350961e-38
-0.74045193 0.40445614 -0.63332695 2.3509611e-38
-0.74083042 0.40745592 -0.63173544 2.3509612e-38
-0.74078345 0.41611117 -0.62667108 2.3509614e-38
-0.74121118 0.41991165 -0.62463331 2.3509614e-38
-0.74193966 0.43832666 -0.6142019 2.3509615e-38
-0.74342567 0.44745675 -0.60949665 2.3509617e-38
-0.74385238 0.45664087 -0.60432053 2.3509617e-38
-0.74437344 0.46364892 -0.60045189 2.3509618e-38
-0.74553227 0.47387818 -0.59497023 2.3509619e-38
-0.74499083 0.48519513 -0.58814931 2.3509621e-38
-0.74643147 0.49657547 -0.58211362 2.3509621e-38
-0.74632812 0.49988082 -0.58014417 2.3509622e-38
-0.74717355 0.51260918 -0.57307583 2.3509624e-38
-0.74773085 0.51910412 -0.56952137 2.3509625e-38
-0.7488426 0.53600711 -0.56013024 2.3509625e-38
-0.74923724 0.5394702 -0.55827546 2.3509626e-38
-0.74971783 0.55624765 -0.54869574 2.3509628e-38
-0.74983233 0.56215918 -0.54529756 2.3509628e-38
-0.75243092 0.57703394 -0.53770542 2.3509629e-38
-0.7523762 0.5802452 -0.53581095 2.3509631e-38
-0.75193769 0.58681005 -0.53180259 2.3509632e-38
-0.75347346 0.59410197 -0.52818942 2.3509632e-38
-0.75420076 0.5972352 -0.52666485 2.3509633e-38
-0.76530707 0.6230824 -0.51620638 2.3509635e-38
-0.76568264 0.62732011 -0.51389211 2.3509636e-38
-0.77104229 0.66726434 -0.49283308 2.3509636e-38
-0.76946348 0.67720425 -0.48638448 2.3509638e-38
-0.75946331 0.69443887 -0.47219059 2.3509639e-38
-0.75348073 0.74099237 -0.44257426 2.3509639e-38
-0.75150722 0.74711466 -0.43818709 2.350964e-38
-0.75014323 0.75072044 -0.43551961 2.3509642e-38
-0.75107855 0.7542789 -0.43383345 2.3509643e-38
-0.75163215 0.77410913 -0.42250463 2.3509643e-38
-0.75199652 0.77916712 -0.41970766 2.3509645e-38
-0.75206321 0.78294843 -0.41753128 2.3509646e-38
-0.75141126 0.78904057 -0.41370997 2.3509647e-38
-0.75359428 0.80272299 -0.40664038 2.3509647e-38
-0.75355178 0.81836784 -0.39750385 2.3509649e-38
-0.7539438 0.82367319 -0.39457411 2.350965e-38
-0.75439602 0.82755131 -0.39250126 2.350965e-38
-0.75545031 0.83527285 -0.38843796 2.3509652e-38
-0.75571108 0.83908647 -0.38632324 2.3509653e-38
-0.75490957 0.85585338 -0.37621784 2.3509654e-38
-0.7566871 0.86528182 -0.37145963 2.3509654e-38
-0.75647348 0.88137269 -0.36199209 2.3509656e-38
-0.7568137 0.88534558 -0.35981756 2.3509657e-38
-0.75681996 0.89343143 -0.35510716 2.3509657e-38
-0.75419939 0.90413457 -0.34778154 2.3509659e-38
-0.75471359 0.91286927 -0.34290361 2.350966e-38
-0.75751495 0.93625045 -0.33043751 2.3509661e-38
-0.75691676 0.93972194 -0.32816589 2.3509661e-38
-0.7595005 0.9564755 -0.31947252 2.3509663e-38
-0.76010484 0.9691084 -0.31235984 2.3509664e-38
-0.76077747 0.9783653 -0.30724332 2.3509666e-38
-0.76344341 0.99386096 -0.29931721 2.3509666e-38
-0.76367843 0.99846756 -0.29672965 2.3509667e-38
-0.76317632 1.0066248 -0.29176676 2.3509668e-38
-0.7634005 1.0112565 -0.2891601 2.3509668e-38
-0.76375562 1.0233405 -0.28226396 2.350967e-38
-0.76369834 1.0241861 -0.28174728 2.3509671e-38
-0.76416022 1.0281845 -0.27960837 2.3509673e-38
-0.7648496 1.0330557 -0.27705511 2.3509673e-38
-0.76524788 1.037925 -0.27438205 2.3509674e-38
-0.76528668 1.0398308 -0.27328736 2.3509675e-38
-0.76582885 1.047491 -0.26904732 2.3509677e-38
-0.76498395 1.055756 -0.26387948 2.3509677e-38
-0.76358598 1.0697881 -0.25512061 2.3509678e-38
-0.76985943 1.0795498 -0.25203314 2.350968e-38
-0.79100358 1.1161889 -0.23944837 2.350968e-38
-0.81264347 1.1364865 -0.23659407 2.3509681e-38
-0.82079089 1.1434802 -0.23589733 2.3509682e-38
-0.83870506 1.1566594 -0.23564674 2.3509684e-38
-0.88085562 1.1676164 -0.24674511 2.3509684e-38
-0.89999878 1.184903 -0.24461013 2.3509685e-38
-0.92223072 1.2050176 -0.24210821 2.3509687e-38
-0.93926632 1.2202843 -0.24027635 2.3509688e-38
-0.95422465 1.2304099 -0.24057949 2.3509688e-38
-0.96484441 1.2396442 -0.23960237 2.3509689e-38
-0.98904181 1.2614321 -0.2369404 2.3509691e-38
-1.007267 1.2777286 -0.2350018 2.3509691e-38
-1.0194907 1.2884476 -0.23382461 2.3509692e-38
-1.0392679 1.3026558 -0.23374701 2.3509694e-38
-1.0557016 1.3171557 -0.23211247 2.3509695e-38
-1.0700896 1.3275106 -0.23204531 2.3509695e-38
-1.0869772 1.3419421 -0.23063892 2.3509696e-38
-1.1123701 1.3692001 -0.22528446 2.3509698e-38
-1.1247188 1.3812188 -0.22340161 2.3509699e-38
-1.1478257 1.403228 -0.22015825 2.3509699e-38
-1.1591833 1.4179182 -0.2163071 2.3509701e-38
-1.1819779 1.4397295 -0.21304961 2.3509702e-38
-1.1993946 1.4565507 -0.2104698 2.3509702e-38
-1.2241294 1.4802041 -0.20694339 2.3509703e-38
-1.236771 1.4964486 -0.20271891 2.3509705e-38
-1.2510781 1.5029964 -0.20483726 2.3509706e-38
-1.320191 1.5257112 -0.22026685 2.3509706e-38
-1.3281977 1.5547726 -0.20664911 2.3509708e-38
-1.3313581 1.5869564 -0.18920118 2.3509709e-38
-1.3427914 1.6023532 -0.1849695 2.350971e-38
-1.3635294 1.622559 -0.18179469 2.350971e-38
-1.3742669 1.6252606 -0.18467414 2.3509712e-38
-1.3996184 1.6347662 -0.18964988 2.3509713e-38
-1.4144955 1.6410184 -0.19217694 2.3509713e-38
-1.4207405 1.6392484 -0.19579923 2.3509715e-38
-1.4193386 1.6296475 -0.20081377 2.3509716e-38
-1.4180908 1.6208375 -0.2054313 2.3509717e-38
-1.421095 1.5864584 -0.22671601 2.3509717e-38
-1.4178165 1.5764159 -0.23120952 2.3509719e-38
-1.4210219 1.5184649 -0.26631716 2.350972e-38
-1.4239491 1.5143985 -0.2699016 2.3509722e-38
-1.4140829 1.4610313 -0.29691508 2.3509722e-38
-1.4092323 1.4123728 -0.32326457 2.3509723e-38
-1.4057924 1.3588637 -0.35302651 2.3509724e-38
-1.4048141 1.3523389 -0.35642385 2.3509724e-38
-1.396595 1.3374908 -0.36166894 2.3509726e-38
-1.3948361 1.3077722 -0.37826142 2.3509727e-38
-1.399 1.2907677 -0.38990018 2.3509729e-38
-1.3996737 1.26562 -0.40483746 2.3509729e-38
-1.403342 1.2371999 -0.42292434 2.350973e-38
-1.4038826 1.2093459 -0.43938389 2.3509731e-38
-1.393223 1.1898612 -0.44631922 2.3509733e-38
-1.4041953 1.1455448 -0.47670144 2.3509733e-38
-1.3987069 1.1101071 -0.49508035 2.3509734e-38
-1.3943865 1.1011128 -0.49853069 2.3509736e-38
-1.3861744 1.0701478 -0.51317275 2.3509736e-38
-1.3954911 1.0483539 -0.52974051 2.3509737e-38
-1.3812374 1.0344479 -0.53193319 2.3509738e-38
-1.3806914 0.96409744 -0.572712 2.350974e-38
-1.3852494 0.95539778 -0.57967353 2.350974e-38
-1.3822643 0.93137342 -0.59243834 2.3509741e-38
-1.3893361 0.90307242 -0.61186767 2.3509743e-38
-1.4370388 0.83848947 -0.6692993 2.3509744e-38
-1.4755614 0.84830743 -0.67955655 2.3509744e-38
-1.4927516 0.86047852 -0.67959327 2.3509745e-38
-1.5171378 0.8712045 -0.6834572 2.3509747e-38
-1.5445759 0.88978565 -0.68400866 2.3509747e-38
-1.5690286 0.92194271 -0.67540872 2.3509748e-38
-1.5841908 0.94330591 -0.66924632 2.350975e-38
-1.6009433 0.99996817 -0.64316881 2.3509751e-38
-1.5991923 1.0052199 -0.63938123 2.3509751e-38
-1.5558752 1.0553188 -0.59221137 2.3509752e-38
-1.5434669 1.0551851 -0.58714211 2.3509754e-38
-1.5312014 1.0544479 -0.58248383 2.3509755e-38
-1.525534 1.0578078 -0.57817441 2.3509755e-38
-1.5012863 1.0641768 -0.56440377 2.3509757e-38
-1.498737 1.0759435 -0.55648774 2.3509758e-38
-1.4970498 1.0810033 -0.55283874 2.3509758e-38
-1.5040056 1.0848621 -0.55347484 2.3509759e-38
-1.5287898 1.1106868 -0.54870337 2.3509761e-38
-1.5436468 1.1330043 -0.54185814 2.3509762e-38
-1.5500968 1.1636429 -0.52667534 2.3509762e-38
-1.5491012 1.1690732 -0.52309734 2.3509764e-38
-1.5579917 1.1830795 -0.51862133 2.3509765e-38
-1.5675212 1.2210008 -0.50047112 2.3509767e-38
-1.565473 1.2337945 -0.49216434 2.3509767e-38
-1.5811357 1.2644778 -0.4807772 2.3509768e-38
-1.595193 1.3222696 -0.45292327 2.3509769e-38
-1.6233472 1.3550819 -0.44547677 2.3509769e-38
-1.6350784 1.3951467 -0.42699057 2.3509771e-38
-1.6301719 1.4206157 -0.41011009 2.3509772e-38
-1.647097 1.4741219 -0.38594368 2.3509774e-38
-1.6657933 1.4940747 -0.38206938 2.3509774e-38
-1.6733661 1.5075855 -0.37733564 2.3509775e-38
-1.6854951 1.5315788 -0.3683821 2.3509776e-38
-1.6969134 1.5400329 -0.36819094 2.3509776e-38
-1.715432 1.5700656 -0.35836759 2.3509778e-38
-1.7234375 1.5990049 -0.34482056 2.3509779e-38
-1.7422385 1.6163864 -0.34248841 2.3509781e-38
-1.7559953 1.6708306 -0.31646097 2.3509781e-38
-1.7765682 1.7067027 -0.3040863 2.3509782e-38
-1.7812089 1.7370894 -0.2882998 2.3509783e-38
-1.7819759 1.7582849 -0.27626365 2.3509785e-38
-1.7837739 1.7688136 -0.27087268 2.3509785e-38
-1.2411493 0.35765603 -0.86830437 2.3509786e-38
-1.2388422 0.39276052 -0.84688592 2.3509788e-38
-1.2380081 0.40489593 -0.83946663 2.3509788e-38
-1.2378368 0.4157103 -0.83309215 2.3509789e-38
-1.2408625 0.4335596 -0.82394344 2.350979e-38
-1.2415795 0.43772912 -0.82181054 2.3509792e-38
-1.2472187 0.46781275 -0.80661488 2.3509792e-38
-1.2434081 0.49809605 -0.78738296 2.3509793e-38
-1.2439888 0.50217587 -0.78524578 2.3509795e-38
-1.2455199 0.51585096 -0.77791011 2.3509796e-38
-1.2433934 0.52853912 -0.76963246 2.3509796e-38
-1.2474408 0.54657978 -0.76079601 2.3509797e-38
-1.2481049 0.55865878 -0.75403094 2.3509799e-38
-1.248636 0.56692094 -0.74943554 2.3509799e-38
-1.2496045 0.57165176 -0.74707985 2.35098e-38
-1.249815 0.5894779 -0.73677677 2.3509802e-38
-1.2491835 0.60762912 -0.72593504 2.3509803e-38
-1.2521135 0.61764288 -0.72131371 2.3509803e-38
-1.2504812 0.63029426 -0.7132625 2.3509804e-38
-1.2504368 0.64085299 -0.70708966 2.3509806e-38
-1.2679094 0.67339331 -0.69537085 2.3509807e-38
-1.3234024 0.68870002 -0.70946854 2.3509807e-38
-1.3393528 0.68886513 -0.71598887 2.3509809e-38
-1.3636135 0.68200457 -0.73005152 2.350981e-38
-1.3797002 0.67733091 -0.73944867 2.350981e-38
-1.3867831 0.67446983 -0.7440545 2.3509811e-38
-1.403101 0.66345441 -0.75724405 2.3509813e-38
-1.4004526 0.60769284 -0.78864723 2.3509814e-38
-1.3958755 0.60153693 -0.79033667 2.3509814e-38
-1.3884435 0.5733099 -0.80370647 2.3509816e-38
-1.387807 0.56719214 -0.80700827 2.3509817e-38
-1.3894435 0.51723218 -0.83680737 2.3509818e-38
-1.4064199 0.4849374 -0.86267316 2.3509818e-38
-1.4023358 0.46153873 -0.8746174 2.350982e-38
-1.3783194 0.43460089 -0.88035625 2.3509821e-38
-1.3550303 0.39362782 -0.89457744 2.3509821e-38
-1.354767 0.38931346 -0.89698303 2.3509823e-38
-1.3614665 0.38455704 -0.90253448 2.3509824e-38
-1.3724308 0.37344453 -0.91355979 2.3509825e-38
-1.3784585 0.37039837 -0.91783565 2.3509825e-38
-1.3938806 0.37249506 -0.923011 2.3509827e-38
-1.4339676 0.37210464 -0.93986744 2.3509828e-38
-1.450102 0.37426963 -0.94529843 2.350983e-38
-1.4805179 0.37809762 -0.9556843 2.350983e-38
-1.5016856 0.38080004 -0.96288991 2.3509831e-38
-1.5389619 0.39109197 -0.97235405 2.3509832e-38
-1.5716133 0.38948679 -0.98683405 2.3509832e-38
-1.5755008 0.39011717 -0.98807925 2.3509834e-38
-1.5923973 0.39260009 -0.99364102 2.3509835e-38
-1.599984 0.3945595 -0.99564606 2.3509837e-38
-1.6485078 0.40545511 -1.0094239 2.3509837e-38
-1.6758335 0.40338612 -1.021965 2.3509838e-38
-1.6950619 0.4067634 -1.0279729 2.3509839e-38
-1.6999701 0.43404192 -1.014109 2.3509841e-38
-1.7041765 0.47183856 -0.99382335 2.3509841e-38
-1.7070194 0.5013116 -0.97782373 2.3509842e-38
-1.7072209 0.53416324 -0.95875901 2.3509844e-38
-1.6969597 0.56757873 -0.93502557 2.3509844e-38
-1.6938184 0.58883226 -0.92133439 2.3509845e-38
-1.6912518 0.60526723 -0.91069019 2.3509846e-38
-1.6933323 0.63116634 -0.89645743 2.3509848e-38
-1.6982949 0.64971536 -0.88770425 2.3509848e-38
-1.7014781 0.65621442 -0.88523668 2.3509849e-38
-1.7009811 0.66754448 -0.87842649 2.3509851e-38
-1.6953256 0.67837524 -0.86976761 2.3509852e-38
-1.6937643 0.7019037 -0.85540587 2.3509852e-38
-1.6955099 0.72028619 -0.84541529 2.3509853e-38
-1.7018063 0.73396653 -0.84005338 2.3509855e-38
-1.7008877 0.7452423 -0.8330999 2.3509855e-38
-1.7093095 0.77842641 -0.81725138 2.3509856e-38
-1.7178426 0.82652348 -0.7927568 2.3509858e-38
-1.7108827 0.86156768 -0.76944333 2.3509859e-38
-1.7106223 0.87951165 -0.75887626 2.3509859e-38
-1.7131726 0.91436571 -0.73961878 2.350986e-38
-1.7088809 0.93373793 -0.72654706 2.3509862e-38
-1.7076176 0.94568902 -0.71905714 2.3509863e-38
-1.7227339 0.97925395 -0.70576352 2.3509863e-38
-1.7171704 0.99832922 -0.69233733 2.3509865e-38
-1.7143681 1.023556 -0.67647082 2.3509866e-38
-1.7197838 1.0426238 -0.66760331 2.3509866e-38
-1.7183845 1.0682975 -0.65205848 2.3509867e-38
-1.7224628 1.0875325 -0.64253873 2.3509869e-38
-1.7270647 1.1072863 -0.6329338 2.350987e-38
-1.7263491 1.1207979 -0.6247614 2.350987e-38
-1.7290366 1.1361459 -0.61693025 2.3509872e-38
-1.7286612 1.1638525 -0.60062522 2.3509873e-38
-1.7269988 1.1981865 -0.57992339 2.3509874e-38
-1.7293062 1.2064804 -0.57604629 2.3509874e-38
-1.7264776 1.2200918 -0.56693918 2.3509876e-38
-1.7292172 1.243717 -0.55430514 2.3509877e-38
-1.7335789 1.2754556 -0.537615 2.3509877e-38
-1.73421 1.3207436 -0.51147968 2.3509879e-38
-1.7354456 1.3349526 -0.50371021 2.350988e-38
-1.7382333 1.3461728 -0.49832663 2.3509881e-38
-1.7341583 1.3665709 -0.48474675 2.3509881e-38
-1.7401695 1.386174 -0.47581434 2.3509883e-38
-1.2425652 0.35382986 -0.87112188 2.3509884e-38
