# .PCD v0.7 - Point Cloud Data file format
VERSION 0.7
FIELDS x y z rgb
SIZE 4 4 4 4
TYPE F F F F
COUNT 1 1 1 1
WIDTH 642
HEIGHT 1
VIEWPOINT 0 0 0 1 0 0 0
POINTS 642
DATA ascii
1.9618778 -0.085329093 0.083670333 2.3509528e-38
1.9579303 -0.090021066 0.095378868 2.3509528e-38
1.9561375 -0.092174664 0.10068519 2.3509528e-38
1.9520186 -0.097020216 0.11292627 2.350953e-38
1.9502329 -0.099166043 0.1182119 2.350953e-38
1.948446 -0.10131313 0.1235005 2.350953e-38
1.9466583 -0.10346129 0.12879179 2.3509531e-38
1.9448695 -0.10561079 0.13408618 2.3509531e-38
1.9430798 -0.1077615 0.13938342 2.3509532e-38
1.9410661 -0.11013381 0.14536543 2.3509532e-38
1.9392788 -0.11228183 0.15065534 2.3509532e-38
1.9365653 -0.11549249 0.15871103 2.3509534e-38
1.9345773 -0.11783525 0.16461694 2.3509534e-38
1.9327981 -0.11997396 0.16988267 2.3509535e-38
1.9307548 -0.12238262 0.17595324 2.3509535e-38
1.9291701 -0.12433329 0.18062076 2.3509535e-38
1.9271992 -0.12665641 0.18647604 2.3509537e-38
1.9254198 -0.12879519 0.19174203 2.3509537e-38
1.9234818 -0.13108505 0.19749676 2.3509538e-38
1.9214318 -0.13349479 0.20359015 2.3509538e-38
1.9188123 -0.13659449 0.21136613 2.3509538e-38
1.9152741 -0.14084797 0.22183704 2.3509539e-38
1.9062396 -0.15164128 0.24860719 2.3509539e-38
1.9041222 -0.15409328 0.25491884 2.3509541e-38
1.9017276 -0.1569697 0.26200762 2.3509541e-38
1.8999656 -0.15908854 0.26722068 2.3509541e-38
1.898203 -0.16120882 0.27243716 2.3509542e-38
1.8935497 -0.16662782 0.28629231 2.3509542e-38
1.8908459 -0.16994318 0.29426357 2.3509544e-38
1.8865477 -0.17505184 0.30701202 2.3509544e-38
1.8847941 -0.17716156 0.31220084 2.3509544e-38
1.8830394 -0.1792727 0.31739315 2.3509545e-38
1.8810515 -0.18157072 0.32332024 2.3509545e-38
1.8792305 -0.18372634 0.32872579 2.3509547e-38
1.8766185 -0.18672889 0.33652154 2.3509547e-38
1.8748423 -0.18868038 0.34186724 2.3509547e-38
1.8730875 -0.19094335 0.34698632 2.3509548e-38
1.8713548 -0.19303229 0.35211113 2.3509548e-38
1.8690659 -0.19578665 0.35888401 2.3509549e-38
1.8673319 -0.19787338 0.36401522 2.3509549e-38
1.8655964 -0.19996168 0.36915022 2.3509549e-38
1.8578039 -0.20406656 0.39473853 2.3509551e-38
1.8560548 -0.206177 0.39991164 2.3509551e-38
1.8543526 -0.20824818 0.40493709 2.3509552e-38
1.8525845 -0.21036772 0.41017267 2.3509552e-38
1.8509196 -0.21242438 0.41507342 2.3509552e-38
1.8487813 -0.21497145 0.42141321 2.3509554e-38
1.8469882 -0.21711786 0.42672449 2.3509554e-38
1.8452309 -0.21921504 0.43193209 2.3509555e-38
1.8434784 -0.22133075 0.43711415 2.3509555e-38
1.8417033 -0.22344784 0.4423762 2.3509555e-38
1.839653 -0.22594553 0.44842809 2.3509556e-38
1.8378989 -0.22804877 0.45362246 2.3509556e-38
1.83604 -0.22997534 0.45927131 2.3509558e-38
1.8298678 -0.23247939 0.47989798 2.3509558e-38
1.8280408 -0.23468643 0.48529977 2.3509558e-38
1.8262328 -0.23671769 0.49071923 2.3509559e-38
1.8244207 -0.23889294 0.49608406 2.3509559e-38
1.8225982 -0.2410998 0.50146967 2.3509561e-38
1.8207761 -0.24330656 0.50685477 2.3509561e-38
1.8189682 -0.24548292 0.51220363 2.3509561e-38
1.8171504 -0.24768437 0.51757544 2.3509562e-38
1.8143561 -0.25107682 0.52582914 2.3509562e-38
1.8116364 -0.25438938 0.5338577 2.3509563e-38
1.8098683 -0.25650966 0.5390926 2.3509563e-38
1.8080479 -0.25871503 0.54447234 2.3509563e-38
1.8062726 -0.26085454 0.54972351 2.3509565e-38
1.8044567 -0.2630538 0.55509043 2.3509565e-38
1.802587 -0.26533049 0.5606094 2.3509566e-38
1.7972125 -0.27182207 0.57650059 2.3509566e-38
1.7953956 -0.27402285 0.58186954 2.3509566e-38
1.7935789 -0.27622366 0.58723843 2.3509568e-38
1.791762 -0.27842447 0.59260726 2.3509568e-38
1.7899452 -0.28062534 0.59797615 2.3509568e-38
1.7880392 -0.28295225 0.60359991 2.3509569e-38
1.7862178 -0.28515959 0.60898173 2.3509569e-38
1.7843964 -0.28736687 0.61436325 2.350957e-38
1.78159 -0.29077882 0.62265122 2.350957e-38
1.7762351 -0.29970616 0.63730335 2.350957e-38
1.774417 -0.30190051 0.64267975 2.3509572e-38
1.7727318 -0.30389982 0.64768028 2.3509572e-38
1.7710506 -0.30588925 0.65267104 2.3509573e-38
1.7691022 -0.30827901 0.65841395 2.3509573e-38
1.7672875 -0.3104687 0.66378111 2.3509573e-38
1.7651583 -0.31307992 0.67005754 2.3509575e-38
1.7633327 -0.31528398 0.67545593 2.3509575e-38
1.761507 -0.31748825 0.68085456 2.3509576e-38
1.7596811 -0.31969264 0.68625367 2.3509576e-38
1.7580181 -0.32167462 0.69118381 2.3509576e-38
1.7561952 -0.32387474 0.69657457 2.3509577e-38
1.7543721 -0.3260752 0.70196587 2.3509577e-38
1.7525489 -0.32827586 0.70735753 2.3509579e-38
1.7506882 -0.33051699 0.7128616 2.3509579e-38
1.7488621 -0.33272138 0.7182616 2.3509579e-38
1.7470359 -0.33492604 0.72366214 2.350958e-38
1.7452093 -0.33713108 0.72906327 2.350958e-38
1.7423475 -0.34060264 0.73751837 2.3509582e-38
1.7393082 -0.34430188 0.74649024 2.3509582e-38
1.7374724 -0.34651971 0.75191891 2.3509582e-38
1.7347617 -0.34978452 0.75993782 2.3509583e-38
1.7329248 -0.35200357 0.765369 2.3509583e-38
1.7310878 -0.35422298 0.77080089 2.3509584e-38
1.7255751 -0.36088276 0.78710026 2.3509584e-38
1.7237365 -0.36310405 0.79253554 2.3509584e-38
1.722209 -0.36492956 0.79706186 2.3509586e-38
1.7200589 -0.36754781 0.80340874 2.3509586e-38
1.7137399 -0.37308383 0.82309878 2.3509587e-38
1.7100514 -0.37962782 0.83300197 2.3509587e-38
1.7082105 -0.38185298 0.83844477 2.3509587e-38
1.7066163 -0.3837536 0.84317082 2.3509589e-38
1.7047765 -0.38597593 0.84860986 2.3509589e-38
1.7025578 -0.38868177 0.85515815 2.350959e-38
1.6993532 -0.39259335 0.86461329 2.350959e-38
1.6974998 -0.39483398 0.87009287 2.350959e-38
1.6846207 -0.41033053 0.90820146 2.3509591e-38
1.6806465 -0.41516483 0.91993636 2.3509591e-38
1.678795 -0.41740233 0.92541003 2.3509593e-38
1.6769431 -0.41964057 0.93088514 2.3509593e-38
1.6741772 -0.42299777 0.93905526 2.3509593e-38
1.6694194 -0.42879826 0.95309764 2.3509594e-38
1.6632044 -0.43629172 0.97147977 2.3509594e-38
1.6528054 -0.4435114 1.0047909 2.3509596e-38
1.6507819 -0.44595981 1.0107725 2.3509596e-38
1.6488166 -0.4483563 1.0165725 2.3509596e-38
1.6467527 -0.45086873 1.0226653 2.3509597e-38
1.6424154 -0.45614919 1.0354698 2.3509597e-38
1.6385479 -0.46085045 1.0468906 2.3509598e-38
1.6355375 -0.46410066 1.0559776 2.3509598e-38
1.6336493 -0.46681866 1.0613502 2.3509598e-38
1.6319262 -0.46891132 1.0664396 2.35096e-38
1.6297719 -0.47153682 1.0727981 2.35096e-38
1.627207 -0.47465566 1.0803716 2.3509601e-38
1.625405 -0.47685149 1.0856909 2.3509601e-38
1.622604 -0.47991827 1.0941246 2.3509601e-38
1.6187985 -0.48392889 1.1056582 2.3509603e-38
1.6166703 -0.48718253 1.1116222 2.3509603e-38
1.6098067 -0.49847537 1.1304756 2.3509604e-38
1.6074365 -0.50137693 1.1374644 2.3509604e-38
1.605039 -0.5043025 1.1445395 2.3509604e-38
1.6025919 -0.5073002 1.1517547 2.3509605e-38
1.5996379 -0.51090598 1.1604708 2.3509605e-38
1.5977725 -0.51319188 1.1659703 2.3509607e-38
1.5953338 -0.5161677 1.173167 2.3509607e-38
1.5899178 -0.51934719 1.1907954 2.3509607e-38
1.5823839 -0.53196669 1.2113813 2.3509608e-38
1.5798753 -0.53502911 1.2187829 2.3509608e-38
1.5780187 -0.53729379 1.224262 2.3509608e-38
1.5761631 -0.5395574 1.2297381 2.350961e-38
1.5729806 -0.5414874 1.2400664 2.350961e-38
1.5666721 -0.55115539 1.2577361 2.3509611e-38
1.5621485 -0.55667877 1.2710829 2.3509611e-38
1.557043 -0.56152511 1.2868121 2.3509611e-38
1.5544204 -0.56541586 1.2942195 2.3509612e-38
1.551337 -0.56988966 1.3029768 2.3509612e-38
1.5494562 -0.57218546 1.3085259 2.3509614e-38
1.5467314 -0.57551539 1.3165642 2.3509614e-38
1.544145 -0.57868469 1.3241898 2.3509614e-38
1.5397688 -0.58309513 1.3375491 2.3509615e-38
1.536588 -0.58789754 1.3464934 2.3509615e-38
1.5339808 -0.59109259 1.3541803 2.3509617e-38
1.5313702 -0.59429187 1.3618772 2.3509617e-38
1.52858 -0.59603113 1.3709103 2.3509617e-38
1.5237565 -0.60214907 1.3850313 2.3509618e-38
1.5209012 -0.60647738 1.3930521 2.3509618e-38
1.5161048 -0.61241835 1.4071628 2.3509619e-38
1.5134444 -0.61610425 1.4148022 2.3509619e-38
1.5085145 -0.62233901 1.4292446 2.3509619e-38
1.5076506 -0.62329471 1.4318407 2.3509621e-38
1.5057211 -0.62565279 1.4375327 2.3509621e-38
1.5037923 -0.62801027 1.4432225 2.3509622e-38
1.5009903 -0.63142425 1.451493 2.3509622e-38
1.4924825 -0.64183432 1.476584 2.3509622e-38
1.4841036 -0.65208185 1.5012978 2.3509624e-38
1.4809668 -0.65592217 1.5105482 2.3509624e-38
1.4765871 -0.66128433 1.5234632 2.3509625e-38
1.4725993 -0.66533905 1.5356202 2.3509625e-38
1.4692972 -0.67049956 1.5448207 2.3509625e-38
1.4681517 -0.67161059 1.5483387 2.3509626e-38
1.4621185 -0.67860687 1.5663173 2.3509626e-38
1.4559181 -0.68765008 1.5839043 2.3509628e-38
1.4527832 -0.69041234 1.5936646 2.3509628e-38
1.4507923 -0.69284928 1.5995362 2.3509628e-38
1.4488019 -0.69528574 1.6054063 2.3509629e-38
1.4459734 -0.69875473 1.613744 2.3509629e-38
1.4418381 -0.70380944 1.6259422 2.3509631e-38
1.4347692 -0.71121573 1.6473868 2.3509631e-38
1.4327489 -0.71495318 1.652738 2.3509631e-38
1.4311808 -0.71685654 1.6573694 2.3509632e-38
1.4308398 -0.71728301 1.658371 2.3509632e-38
1.4283329 -0.72034991 1.6657645 2.3509633e-38
1.4235537 -0.72619033 1.6798627 2.3509633e-38
1.4191384 -0.73160946 1.6928768 2.3509633e-38
1.4155411 -0.73601919 1.7034823 2.3509635e-38
1.4078126 -0.73884594 1.7294577 2.3509635e-38
1.4054782 -0.7417171 1.7363355 2.3509636e-38
1.3990781 -0.75048012 1.7547628 2.3509636e-38
1.3959663 -0.75337315 1.7643796 2.3509636e-38
1.3910805 -0.75936192 1.7787838 2.3509638e-38
1.3865772 -0.7656635 1.7916849 2.3509638e-38
1.3847393 -0.7671383 1.7974771 2.3509639e-38
1.3802184 -0.77236545 1.8109571 2.3509639e-38
1.3765016 -0.77696747 1.8218923 2.3509639e-38
1.3735033 -0.78066027 1.8307228 2.350964e-38
1.3734932 -0.75585711 1.8426666 2.350964e-38
1.3735001 -0.69861311 1.8701247 2.3509642e-38
1.3756758 -0.66327554 1.8793945 2.3509642e-38
1.3752241 -0.65792382 1.8835614 2.3509642e-38
1.3735361 -0.64201468 1.8971692 2.3509643e-38
1.3760108 -0.58915144 1.9137956 2.3509643e-38
1.3676919 -0.5714466 1.9517159 2.3509645e-38
1.3741241 -0.53636986 1.9458086 2.3509645e-38
1.3761846 -0.51181215 1.9503111 2.3509645e-38
1.3769407 -0.50380206 1.9514821 2.3509646e-38
1.3797368 -0.4781639 1.953902 2.3509646e-38
1.3798816 -0.4546752 1.964666 2.3509647e-38
1.3790402 -0.44211352 1.9736724 2.3509647e-38
1.3798008 -0.43404615 1.9748555 2.3509647e-38
1.3802737 -0.41832009 1.9807328 2.3509649e-38
1.3794116 -0.39493209 1.9950105 2.3509649e-38
1.3788438 -0.38749996 2.0005865 2.3509649e-38
1.374535 -0.37307787 2.0227489 2.350965e-38
1.3754827 -0.3485333 2.0311809 2.350965e-38
1.3838763 -0.33134463 2.0097477 2.3509652e-38
1.3986845 -0.28237179 1.9808882 2.3509652e-38
1.3994366 -0.27449796 1.9820076 2.3509652e-38
1.400535 -0.26245099 1.983907 2.3509653e-38
1.4003965 -0.23327069 1.9984059 2.3509653e-38
1.3993094 -0.22232644 2.0075047 2.3509654e-38
1.4004132 -0.21021906 2.009413 2.3509654e-38
1.4013306 -0.19737579 2.0123346 2.3509654e-38
1.4001099 -0.16841251 2.0305562 2.3509656e-38
1.3991203 -0.15680724 2.0396278 2.3509656e-38
1.3976625 -0.12345374 2.0607958 2.3509657e-38
1.3974899 -0.10409283 2.0707014 2.3509657e-38
1.3916976 -0.061978403 2.1114049 2.3509657e-38
1.402264 0.0142949 2.1106536 2.3509659e-38
1.4027241 0.037399694 2.1201184 2.3509659e-38
1.4007741 0.052629888 2.1343269 2.350966e-38
1.4021013 0.075794294 2.140754 2.350966e-38
1.4033955 0.098991379 2.1473134 2.350966e-38
1.3999077 0.13648365 2.1776481 2.3509661e-38
1.4022272 0.16067247 2.1810579 2.3509661e-38
1.4004183 0.18808445 2.2006152 2.3509663e-38
1.4033234 0.22033384 2.2058234 2.3509663e-38
1.4068403 0.26073524 2.2127817 2.3509663e-38
1.4048716 0.28407404 2.2309484 2.3509664e-38
1.4046125 0.29062861 2.2350116 2.3509664e-38
1.4034572 0.30726096 2.2470829 2.3509666e-38
1.4040717 0.3155334 2.2488813 2.3509666e-38
1.4050597 0.31982988 2.2474496 2.3509666e-38
1.4168756 0.34039319 2.2155325 2.3509667e-38
1.4269546 0.36109495 2.1898263 2.3509667e-38
1.4312521 0.37864882 2.1830542 2.3509668e-38
1.438288 0.41769767 2.1769178 2.3509668e-38
1.4416858 0.45833859 2.184412 2.3509668e-38
1.4462759 0.46396482 2.1708796 2.350967e-38
1.453019 0.48038611 2.1549149 2.350967e-38
1.4652706 0.5093978 2.1255138 2.3509671e-38
1.4808999 0.53691715 2.0834503 2.3509671e-38
1.487451 0.55197263 2.0675089 2.3509671e-38
1.492175 0.57058525 2.0597377 2.3509673e-38
1.4966185 0.57044858 2.0439572 2.3509673e-38
1.5001307 0.57021058 2.0314212 2.3509674e-38
1.5052495 0.57373613 2.0150101 2.3509674e-38
1.5070958 0.57482725 2.0090048 2.3509674e-38
1.5181581 0.59465456 1.9793998 2.3509675e-38
1.5330878 0.60754943 1.9327892 2.3509675e-38
1.5371656 0.60929871 1.9192078 2.3509677e-38
1.5434521 0.61881405 1.9015427 2.3509677e-38
1.546164 0.62311208 1.8940146 2.3509677e-38
1.547393 0.62444901 1.8903112 2.3509678e-38
1.5516825 0.62588966 1.8758322 2.3509678e-38
1.5667932 0.6564489 1.8370612 2.350968e-38
1.5805141 0.67993987 1.7998135 2.350968e-38
1.5825856 0.68265855 1.7937924 2.350968e-38
1.5860643 0.68905717 1.7845609 2.3509681e-38
1.5922644 0.70213699 1.7689131 2.3509681e-38
1.5974386 0.70462757 1.7518098 2.3509682e-38
1.5993536 0.70330405 1.7444019 2.3509682e-38
1.601931 0.70314866 1.7352116 2.3509682e-38
1.6090609 0.70537299 1.7110639 2.3509684e-38
1.6161216 0.71463746 1.6905401 2.3509684e-38
1.6199415 0.71879572 1.679027 2.3509685e-38
1.6292473 0.72891754 1.6509753 2.3509685e-38
1.6406908 0.76261282 1.6266804 2.3509685e-38
1.6504223 0.77478147 1.5981048 2.3509687e-38
1.6589036 0.77232569 1.5669309 2.3509687e-38
1.65956 0.74236625 1.5502264 2.3509687e-38
1.6600986 0.73019338 1.5424773 2.3509688e-38
1.664788 0.70512921 1.5138595 2.3509688e-38
1.6694448 0.69431138 1.4921961 2.3509689e-38
1.6725109 0.68638468 1.4775478 2.3509689e-38
1.6757452 0.68362796 1.4647852 2.3509689e-38
1.6942427 0.70435041 1.4093148 2.3509691e-38
1.6962272 0.71161175 1.4057828 2.3509691e-38
1.7007469 0.7127527 1.3903455 2.3509692e-38
1.7070891 0.7194832 1.3711467 2.3509692e-38
1.7173692 0.74361277 1.3463743 2.3509692e-38
1.7210047 0.75410658 1.3385544 2.3509694e-38
1.7260833 0.76432455 1.3254997 2.3509694e-38
1.7285081 0.77119052 1.3202194 2.3509695e-38
1.7354712 0.80657876 1.3125833 2.3509695e-38
1.7410275 0.84410876 1.3109499 2.3509695e-38
1.7437041 0.85338259 1.3059356 2.3509696e-38
1.7491877 0.88022894 1.299431 2.3509696e-38
1.751192 0.88541228 1.2948304 2.3509698e-38
1.7555064 0.89620364 1.284753 2.3509698e-38
1.763696 0.90776122 1.2613387 2.3509698e-38
1.7708261 0.92564344 1.2447064 2.3509699e-38
1.7728121 0.92791319 1.2387725 2.3509699e-38
1.7789249 0.93031824 1.2183082 2.3509701e-38
1.782883 0.93485618 1.2064883 2.3509701e-38
1.7847265 0.93597764 1.2005068 2.3509701e-38
1.7918483 0.94585764 1.180063 2.3509702e-38
1.797634 0.94672984 1.1600193 2.3509702e-38
1.8076794 0.95830846 1.1300511 2.3509703e-38
1.8117011 0.96099466 1.1171176 2.3509703e-38
1.8136742 0.96327466 1.1112345 2.3509703e-38
1.8195314 0.96913469 1.0933322 2.3509705e-38
1.8234706 0.97066188 1.0801338 2.3509705e-38
1.8274562 0.97362339 1.0674608 2.3509706e-38
1.837445 0.98692161 1.0385183 2.3509706e-38
1.8394227 0.98922044 1.0326264 2.3509706e-38
1.8414009 0.99152112 1.0267352 2.3509708e-38
1.8430603 0.97846937 1.0146013 2.3509708e-38
1.8417903 0.96884125 1.0144699 2.3509709e-38
1.8418796 0.92943901 0.99523705 2.3509709e-38
1.8419199 0.92304736 0.99202621 2.3509709e-38
1.8449776 0.89962327 0.96996725 2.350971e-38
1.8473756 0.87998641 0.95205826 2.350971e-38
1.8509645 0.87166572 0.93537134 2.3509712e-38
1.8549554 0.8678177 0.91940928 2.3509712e-38
1.8575442 0.86778635 0.9102397 2.3509712e-38
1.8593456 0.86793077 0.9039374 2.3509713e-38
1.8650514 0.86545593 0.88256943 2.3509713e-38
1.8691387 0.86853963 0.8695944 2.3509715e-38
1.8731358 0.87190044 0.85707188 2.3509715e-38
1.8789062 0.87990934 0.84050924 2.3509715e-38
1.886629 0.88904375 0.81758142 2.3509716e-38
1.8928331 0.87559819 0.78918511 2.3509716e-38
1.8974694 0.87051535 0.77034736 2.3509717e-38
1.8989921 0.860641 0.76022208 2.3509717e-38
1.899128 0.79442495 0.72795194 2.3509717e-38
1.8984973 0.77836078 0.72247064 2.3509719e-38
1.8947552 0.76233667 0.72801155 2.3509719e-38
1.8920319 0.75027901 0.7318545 2.350972e-38
1.888396 0.7403295 0.73993695 2.350972e-38
1.8776762 0.69659692 0.7568534 2.350972e-38
1.8778439 0.65841186 0.73792845 2.3509722e-38
1.8859496 0.64713645 0.703848 2.3509722e-38
1.8860368 0.64126092 0.70071924 2.3509723e-38
1.8836303 0.63619035 0.70679545 2.3509723e-38
1.8736269 0.6041801 0.72680634 2.3509723e-38
1.870366 0.58991981 0.73149312 2.3509724e-38
1.8679675 0.5753901 0.73299992 2.3509724e-38
1.8660213 0.56191176 0.73341274 2.3509726e-38
1.8640867 0.52809596 0.72402 2.3509726e-38
1.854122 0.46628788 0.72958863 2.3509726e-38
1.8540716 0.46076033 0.72711265 2.3509727e-38
1.8540573 0.45551267 0.72464365 2.3509727e-38
1.853561 0.44377702 0.72076517 2.3509727e-38
1.8535008 0.43809038 0.71824825 2.3509729e-38
1.8540612 0.42618793 0.71055168 2.3509729e-38
1.853567 0.41450086 0.70668817 2.350973e-38
1.8535444 0.40918499 0.70421696 2.350973e-38
1.8534938 0.40365621 0.70174134 2.350973e-38
1.8552551 0.38020712 0.68425453 2.3509731e-38
1.8552406 0.37483236 0.68172574 2.3509731e-38
1.8552448 0.36592749 0.67743593 2.3509733e-38
1.8551412 0.35848579 0.67422944 2.3509733e-38
1.8556617 0.34804189 0.66737467 2.3509733e-38
1.8556134 0.34253845 0.6649037 2.3509734e-38
1.8568747 0.32418087 0.65162897 2.3509734e-38
1.8567996 0.31551024 0.64773214 2.3509736e-38
1.8568008 0.282572 0.63191473 2.3509736e-38
1.8568246 0.27587783 0.62861627 2.3509736e-38
1.8586758 0.25103924 0.61014527 2.3509737e-38
1.8697544 0.23381187 0.56269312 2.3509737e-38
1.8710448 0.2343933 0.55840939 2.3509738e-38
1.8827134 0.24815907 0.52374953 2.3509738e-38
1.8848053 0.25096524 0.51769841 2.3509738e-38
1.8871979 0.25392029 0.51065588 2.350974e-38
1.8964651 0.26909518 0.48516598 2.350974e-38
1.8983136 0.27277824 0.48039675 2.3509741e-38
1.9043778 0.28771517 0.46612081 2.3509741e-38
1.9133176 0.31047481 0.44543079 2.3509741e-38
1.917359 0.32068601 0.43604004 2.3509743e-38
1.9217232 0.33455637 0.42726424 2.3509743e-38
1.923496 0.3406837 0.42393616 2.3509744e-38
1.9256222 0.34897918 0.42039868 2.3509744e-38
1.9332777 0.38537899 0.41079968 2.3509744e-38
1.9407492 0.42590344 0.40383092 2.3509745e-38
1.9413238 0.43777254 0.40749636 2.3509745e-38
1.9414068 0.44129151 0.4088923 2.3509747e-38
1.9431562 0.46272749 0.41299602 2.3509747e-38
1.9426386 0.4781529 0.42223278 2.3509747e-38
1.9426403 0.48407304 0.42506891 2.3509748e-38
1.9429183 0.49635938 0.42998427 2.3509748e-38
1.9433913 0.51836324 0.43887442 2.350975e-38
1.9454844 0.55990386 0.4514156 2.350975e-38
1.9464885 0.57369155 0.45448396 2.350975e-38
1.9466373 0.58086759 0.45740223 2.3509751e-38
1.9465507 0.58832294 0.46128789 2.3509751e-38
1.9475747 0.60425431 0.4653151 2.3509752e-38
1.9478343 0.62522483 0.47446418 2.3509752e-38
1.9476335 0.6300326 0.47748303 2.3509752e-38
1.9476559 0.63899249 0.48170537 2.3509754e-38
1.9504102 0.67351913 0.48853984 2.3509754e-38
1.9494718 0.7035948 0.50629693 2.3509755e-38
1.9501681 0.71662474 0.51009065 2.3509755e-38
1.9503304 0.72409886 0.51310444 2.3509755e-38
1.9546582 0.75317895 0.51175988 2.3509757e-38
1.9553956 0.76493925 0.51479751 2.3509757e-38
1.958492 0.78231919 0.51219082 2.3509758e-38
1.9607899 0.78750437 0.50655323 2.3509758e-38
1.9679599 0.80490863 0.48955056 2.3509758e-38
1.9731576 0.81788671 0.47739914 2.3509759e-38
1.9804138 0.84148991 0.46306774 2.3509759e-38
1.9851581 0.89070952 0.46991965 2.3509761e-38
1.9854492 0.90392697 0.47523552 2.3509761e-38
1.9853342 0.91036421 0.47873208 2.3509761e-38
1.9857129 0.92043328 0.48222733 2.3509762e-38
1.9891343 0.96323931 0.49067649 2.3509762e-38
1.9889188 0.969657 0.49452052 2.3509764e-38
1.9878404 0.98041236 0.50349718 2.3509764e-38
1.9876685 0.98673481 0.50714052 2.3509764e-38
1.9870296 1.0272564 0.52885383 2.3509765e-38
1.9886169 1.0459452 0.5322122 2.3509765e-38
1.9914157 1.0863013 0.5416891 2.3509767e-38
1.9930612 1.1106397 0.54755324 2.3509767e-38
1.9937092 1.1679823 0.57279181 2.3509767e-38
1.9937521 1.1756927 0.57634109 2.3509768e-38
1.9940634 1.1838309 0.57914805 2.3509768e-38
2.0009615 1.219496 0.57187307 2.3509768e-38
2.0038047 1.247924 0.57546604 2.3509769e-38
2.0022204 1.2710536 0.59217441 2.3509769e-38
2.0032599 1.2814975 0.59351045 2.3509771e-38
2.0006955 1.3168854 0.61956882 2.3509771e-38
2.0031824 1.3269111 0.61558795 2.3509771e-38
2.0078111 1.3599516 0.61508036 2.3509772e-38
2.0137479 1.4024873 0.6145038 2.3509772e-38
2.0138381 1.4125781 0.61902952 2.3509774e-38
2.0139744 1.422412 0.6232686 2.3509774e-38
2.0168405 1.444424 0.62370008 2.3509774e-38
2.031373 1.4270611 0.56396902 2.3509775e-38
2.0371017 1.4319546 0.54605669 2.3509775e-38
2.0445013 1.4426483 0.52502054 2.3509776e-38
2.0510323 1.447863 0.50442642 2.3509776e-38
2.052778 1.4412435 0.49507517 2.3509776e-38
2.0549457 1.4351525 0.48448521 2.3509778e-38
2.0556464 1.4259646 0.47759479 2.3509778e-38
2.055526 1.4188771 0.47461876 2.3509779e-38
2.0528784 1.3944666 0.47226328 2.3509779e-38
2.0480552 1.3627787 0.47410798 2.3509779e-38
2.0453937 1.3373311 0.47130477 2.3509781e-38
2.0429432 1.3217332 0.47248167 2.3509781e-38
2.0421252 1.3156502 0.47245532 2.3509782e-38
2.039145 1.2860616 0.46878982 2.3509782e-38
2.0369091 1.2701405 0.46905297 2.3509782e-38
2.033417 1.2412722 0.46754479 2.3509783e-38
2.029001 1.2159837 0.4710221 2.3509783e-38
2.0266306 1.2018386 0.47261503 2.3509785e-38
2.0227289 1.1784192 0.47517002 2.3509785e-38
2.0218139 1.1660367 0.47246188 2.3509785e-38
2.02127 1.1560509 0.46959001 2.3509786e-38
2.0211427 1.1518242 0.46801057 2.3509786e-38
2.0181928 1.1351919 0.4704594 2.3509788e-38
2.0148013 1.1189005 0.47463295 2.3509788e-38
2.0220003 1.0588033 0.42032063 2.3509788e-38
2.0235188 1.0511693 0.41128549 2.3509789e-38
2.0236669 1.0433234 0.4069958 2.3509789e-38
2.0253031 1.0292108 0.39443302 2.350979e-38
2.0386143 1.0198828 0.34287772 2.350979e-38
2.0432181 1.0146623 0.32408932 2.350979e-38
2.0358 0.9701826 0.32897037 2.3509792e-38
2.033668 0.96110499 0.33215213 2.3509792e-38
2.0286939 0.93567675 0.33753562 2.3509793e-38
2.0257697 0.90600002 0.33363065 2.3509793e-38
2.0213706 0.88013238 0.33676973 2.3509793e-38
2.0183904 0.86715484 0.3410804 2.3509795e-38
2.015095 0.83928758 0.33935508 2.3509795e-38
2.0110679 0.81432927 0.34161648 2.3509796e-38
2.0065286 0.78953272 0.34576535 2.3509796e-38
2.002404 0.76140064 0.34684768 2.3509796e-38
2.0014265 0.75055134 0.34509552 2.3509797e-38
2.0003369 0.73893225 0.34337139 2.3509797e-38
2.0000269 0.70688635 0.32908201 2.3509799e-38
1.9999712 0.70135731 0.32662481 2.3509799e-38
2.0001783 0.67837387 0.3148582 2.3509799e-38
1.9985521 0.65904075 0.31132805 2.35098e-38
1.9981728 0.64729488 0.30703104 2.35098e-38
1.9981331 0.64083916 0.30407152 2.3509802e-38
1.9982845 0.63399923 0.30025274 2.3509802e-38
1.9981019 0.61163133 0.29015943 2.3509802e-38
1.9980289 0.598773 0.28424525 2.3509803e-38
1.9978538 0.59049392 0.2808893 2.3509803e-38
1.997754 0.57988697 0.27615052 2.3509804e-38
1.997437 0.57186759 0.27342111 2.3509804e-38
1.996751 0.55536652 0.26792589 2.3509804e-38
1.9969535 0.53772545 0.2587404 2.3509806e-38
1.9964721 0.5260796 0.25485197 2.3509806e-38
1.996713 0.51425278 0.24832197 2.3509806e-38
1.9962021 0.49944344 0.24301907 2.3509807e-38
1.9968172 0.47676665 0.22995657 2.3509807e-38
1.9959985 0.45734376 0.22352754 2.3509809e-38
1.9958689 0.44515452 0.21813399 2.3509809e-38
1.9955639 0.43776542 0.21566556 2.3509809e-38
1.9960839 0.42156133 0.20604658 2.350981e-38
1.9953279 0.40230811 0.19947755 2.350981e-38
1.9945495 0.39333808 0.19792393 2.3509811e-38
1.9942206 0.38608205 0.19560356 2.3509811e-38
1.9933726 0.37446508 0.19302568 2.3509811e-38
1.9930644 0.36424401 0.18920836 2.3509813e-38
1.9931653 0.35848719 0.18608801 2.3509813e-38
1.9928665 0.35134116 0.18371333 2.3509814e-38
1.993309 0.33655781 0.1750512 2.3509814e-38
1.9926289 0.32709464 0.17291361 2.3509814e-38
1.9922706 0.30875516 0.16537653 2.3509816e-38
1.9923936 0.3032507 0.16229925 2.3509816e-38
1.9920012 0.29587549 0.16014639 2.3509817e-38
1.9920335 0.28502452 0.15482192 2.3509817e-38
1.9921319 0.27935928 0.1517543 2.3509817e-38
1.9926882 0.26858887 0.14461622 2.3509818e-38
1.9911569 0.24982148 0.14102145 2.3509818e-38
1.9912171 0.23108934 0.1318163 2.350982e-38
1.9907737 0.22103083 0.12855555 2.350982e-38
1.9905313 0.20884293 0.12356113 2.350982e-38
1.9899205 0.19580299 0.11946139 2.3509821e-38
1.9897809 0.18852021 0.11645857 2.3509821e-38
1.9896014 0.17673303 0.11143441 2.3509823e-38
1.9895388 0.16724043 0.10709928 2.3509823e-38
1.9896346 0.16174024 0.10411923 2.3509823e-38
1.9894025 0.1506204 0.099601381 2.3509824e-38
1.9893302 0.14790219 0.098552264 2.3509824e-38
1.9890445 0.13681148 0.094238393 2.3509825e-38
1.9889433 0.12684986 0.089813933 2.3509825e-38
1.9888625 0.125202 0.089308321 2.3509825e-38
1.9886262 0.11912941 0.087228872 2.3509827e-38
1.988387 0.1094505 0.0834281 2.3509827e-38
1.9884878 0.10401481 0.080461495 2.3509828e-38
1.9884623 0.097044945 0.07720542 2.3509828e-38
1.9890479 0.086909339 0.070269421 2.3509828e-38
1.9891422 0.0814806 0.067329183 2.350983e-38
1.9888405 0.075387739 0.065471262 2.350983e-38
1.9881673 0.068709381 0.064646162 2.3509831e-38
1.9876063 0.051508293 0.058371946 2.3509831e-38
1.9877 0.04612121 0.055453934 2.3509831e-38
1.987559 0.034876995 0.050554771 2.3509832e-38
1.9876523 0.029501667 0.047643982 2.3509832e-38
1.9877458 0.024126332 0.044733215 2.3509834e-38
1.987445 0.012978695 0.040445037 2.3509834e-38
1.9870427 0.0013682959 0.036293652 2.3509834e-38
1.9869502 -0.0041486761 0.033972263 2.3509835e-38
1.9870634 -0.014849218 0.028434044 2.3509835e-38
1.9863514 -0.026529744 0.025345491 2.3509837e-38
1.9858896 -0.037994504 0.02147471 2.3509837e-38
1.9858761 -0.04253567 0.019342059 2.3509837e-38
1.9857069 -0.048985355 0.016843937 2.3509838e-38
1.9858 -0.05569829 0.013291846 2.3509838e-38
1.9854518 -0.056683768 0.014050179 2.3509839e-38
1.9847113 -0.058112934 0.015983028 2.3509839e-38
1.9805056 -0.06321384 0.028408149 2.3509839e-38
1.9764864 -0.067991965 0.040328551 2.3509841e-38
1.9735711 -0.071439512 0.048984066 2.3509841e-38
1.971382 -0.074019447 0.055487502 2.3509842e-38
1.9692518 -0.076521404 0.061820138 2.3509842e-38
1.9674548 -0.078679413 0.067139022 2.3509842e-38
1.9656572 -0.080838419 0.072460197 2.3509844e-38
1.9635808 -0.083282821 0.078630239 2.3509844e-38
1.5192333 -0.0007457789 1.6897539 2.3509845e-38
1.5168082 0.0043286644 1.7007669 2.3509845e-38
1.5078868 0.0098118857 1.7349511 2.3509845e-38
1.5050092 0.0224429 1.7511925 2.3509846e-38
1.5033079 0.034782331 1.763133 2.3509846e-38
1.5025489 0.054440249 1.775255 2.3509846e-38
1.5041132 0.068940371 1.7766838 2.3509848e-38
1.5046777 0.075907707 1.7780325 2.3509848e-38
1.5047772 0.11047049 1.7942735 2.3509849e-38
1.5026406 0.12195424 1.8073434 2.3509849e-38
1.5003259 0.14086369 1.8246077 2.3509849e-38
1.484063 0.14006875 1.8817424 2.3509851e-38
1.4689462 0.095700592 1.9139038 2.3509851e-38
1.4650763 0.043289937 1.9024291 2.3509852e-38
1.4656968 0.036715187 1.8970788 2.3509852e-38
1.4653546 0.0024755336 1.8818506 2.3509852e-38
1.4682881 -0.020497687 1.8604466 2.3509853e-38
1.4691435 -0.053387679 1.8416311 2.3509853e-38
1.4685562 -0.060523078 1.8402827 2.3509855e-38
1.469206 -0.08759322 1.8249888 2.3509855e-38
1.4691056 -0.10021994 1.8192821 2.3509855e-38
1.468135 -0.11582877 1.8152204 2.3509856e-38
1.4677848 -0.13633958 1.8066124 2.3509856e-38
1.4702424 -0.15402047 1.7894328 2.3509858e-38
1.4705617 -0.17519511 1.7781371 2.3509858e-38
1.4755747 -0.21189049 1.7427917 2.3509858e-38
1.5038204 -0.19346948 1.65174 2.3509859e-38
1.5076469 -0.13806862 1.6648047 2.3509859e-38
1.5064292 -0.12629923 1.6747611 2.350986e-38
1.516378 -0.087031268 1.658428 2.350986e-38
1.5169802 -0.081669614 1.6588717 2.350986e-38
1.5177106 -0.072681285 1.660604 2.3509862e-38
1.5182185 -0.068130359 1.6609926 2.3509862e-38
1.5189433 -0.062383518 1.6611884 2.3509863e-38
1.5204036 -0.053794853 1.6601472 2.3509863e-38
1.6965628 0.51690513 1.3111197 2.3509863e-38
1.7037989 0.58608025 1.3187382 2.3509865e-38
1.6979194 0.60543299 1.3488232 2.3509865e-38
1.6962962 0.60979849 1.3566589 2.3509866e-38
1.6943866 0.61482167 1.3658247 2.3509866e-38
1.66872 0.5973205 1.4481961 2.3509866e-38
1.665656 0.57676101 1.4491621 2.3509867e-38
1.6640631 0.55745083 1.4455248 2.3509867e-38
1.6624711 0.54969895 1.4474341 2.3509869e-38
1.6660218 0.48423481 1.4034479 2.3509869e-38
1.6754878 0.47720999 1.3665973 2.3509869e-38
1.6914028 0.49981797 1.3211648 2.350987e-38
1.6943479 0.50884485 1.3150834 2.350987e-38
1.7654434 0.4307822 1.0261669 2.3509872e-38
1.7798045 0.5075298 1.0122229 2.3509872e-38
1.7818513 0.55222887 1.0264434 2.3509872e-38
1.7821937 0.55709749 1.0275694 2.3509873e-38
1.7828945 0.56902784 1.0308187 2.3509873e-38
1.7832487 0.62999898 1.0588375 2.3509874e-38
1.781517 0.63350284 1.0666442 2.3509874e-38
1.7819085 0.66255766 1.0792077 2.3509874e-38
1.7817614 0.67192942 1.0842276 2.3509876e-38
1.7705927 0.69479895 1.1347064 2.3509876e-38
1.7587185 0.67925382 1.1692382 2.3509877e-38
1.7454916 0.65617293 1.2049366 2.3509877e-38
1.7383754 0.62671059 1.2159591 2.3509877e-38
1.735482 0.60071725 1.2137133 2.3509879e-38
1.7385145 0.56036991 1.1836178 2.3509879e-38
1.7392763 0.55450052 1.1781065 2.350988e-38
1.7386436 0.53627759 1.1715956 2.350988e-38
1.7383977 0.53033215 1.1696104 2.350988e-38
1.7379663 0.50653332 1.1597108 2.3509881e-38
1.736714 0.492513 1.1574092 2.3509881e-38
1.7363029 0.48476279 1.1551422 2.3509883e-38
1.736039 0.47881436 1.1532193 2.3509883e-38
1.7360893 0.46069244 1.1443409 2.3509883e-38
1.7493992 0.43233573 1.0836556 2.3509884e-38
1.7519883 0.43078211 1.0737529 2.3509884e-38
