# .PCD v0.7 - Point Cloud Data file format
VERSION 0.7
FIELDS x y z rgb
SIZE 4 4 4 4
TYPE F F F F
COUNT 1 1 1 1
WIDTH 209
HEIGHT 1
VIEWPOINT 0 0 0 1 0 0 0
POINTS 209
DATA ascii
1.8570951 -0.029590279 -0.036144204 2.3509528e-38
1.8835778 -0.012826491 -0.019490622 2.350953e-38
1.8855751 -0.0078724818 -0.016697779 2.3509531e-38
1.890034 0.012669889 -0.0065130903 2.3509532e-38
1.8992126 0.043787438 0.0097999731 2.3509534e-38
1.8922194 0.082716584 0.023461001 2.3509537e-38
1.898683 0.13233463 0.04648849 2.3509538e-38
1.8954782 0.17237546 0.061996121 2.3509539e-38
1.8914332 0.18395953 0.065343954 2.3509541e-38
1.8894088 0.18975157 0.067017183 2.3509542e-38
1.8861117 0.2072708 0.073110357 2.3509545e-38
1.8862646 0.21887372 0.077999063 2.3509547e-38
1.8860294 0.24225457 0.087651812 2.3509548e-38
1.8886865 0.25995177 0.095993407 2.3509549e-38
1.8913003 0.28988194 0.10941456 2.3509552e-38
1.8983867 0.30828965 0.11966964 2.3509554e-38
1.9070303 0.32100099 0.12812075 2.3509555e-38
1.9102609 0.37717709 0.15269917 2.3509556e-38
1.9126318 0.38371471 0.15628797 2.3509558e-38
1.9249948 0.42983606 0.18001348 2.3509561e-38
1.9250917 0.4428578 0.18547268 2.3509562e-38
1.9125094 0.44808647 0.18305568 2.3509563e-38
1.8868004 0.51133883 0.20001319 2.3509565e-38
1.8847998 0.51738411 0.20180061 2.3509568e-38
1.8813202 0.54993516 0.2140882 2.3509569e-38
1.8828014 0.55672884 0.21745878 2.350957e-38
1.8842747 0.56354982 0.22083792 2.3509572e-38
1.9050206 0.60434574 0.24540645 2.3509573e-38
1.9138552 0.65938312 0.27155703 2.3509576e-38
1.8963948 0.68349212 0.27522269 2.3509577e-38
1.893259 0.72547889 0.29156601 2.3509579e-38
1.8964595 0.73469037 0.29657152 2.350958e-38
1.8902869 0.73978609 0.29643995 2.3509583e-38
1.8781768 0.7443006 0.2938979 2.3509584e-38
1.8329347 0.75295639 0.28098154 2.3509586e-38
1.8133066 0.75307512 0.27386305 2.3509587e-38
1.8007262 0.75670165 0.27077937 2.3509589e-38
1.7863655 0.75893885 0.26646695 2.3509591e-38
1.7673498 0.76012313 0.26001596 2.3509593e-38
1.7469579 0.76376981 0.25408804 2.3509594e-38
1.7178228 0.76193196 0.24268278 2.3509596e-38
1.6982031 0.76884949 0.23839927 2.3509598e-38
1.6802824 0.77615726 0.23489875 2.35096e-38
1.6346014 0.79262489 0.22507589 2.3509601e-38
1.5929391 0.79511809 0.21089992 2.3509603e-38
1.579101 0.79047501 0.20391247 2.3509604e-38
1.5643555 0.79026979 0.19844218 2.3509607e-38
1.5496881 0.79129195 0.19351159 2.3509608e-38
1.5282979 0.79935944 0.18906051 2.350961e-38
1.4839762 0.80607116 0.17567049 2.3509611e-38
1.4744371 0.8086555 0.17326334 2.3509614e-38
1.4620758 0.80995053 0.16928856 2.3509615e-38
1.4486812 0.81275183 0.16556388 2.3509617e-38
1.3967086 0.81881994 0.14911178 2.3509618e-38
1.3752071 0.81853169 0.14113963 2.3509619e-38
1.3498005 0.82519317 0.13463618 2.3509622e-38
1.3277973 0.83433008 0.13040668 2.3509624e-38
1.2835102 0.84030426 0.11672207 2.3509625e-38
1.2679259 0.83590251 0.10919746 2.3509626e-38
1.2566928 0.83599156 0.10513239 2.3509628e-38
1.2319076 0.84435368 0.099564187 2.3509631e-38
1.1954876 0.84965903 0.088473961 2.3509632e-38
1.1828839 0.85056233 0.084247477 2.3509633e-38
1.1643102 0.85510486 0.079356767 2.3509635e-38
1.1461276 0.85747498 0.0737039 2.3509638e-38
1.1335152 0.86117953 0.070641086 2.3509639e-38
1.1181254 0.8598814 0.064480305 2.350964e-38
1.0994774 0.86303967 0.058985751 2.3509642e-38
1.0923016 0.86432868 0.056902189 2.3509643e-38
1.0485469 0.90115738 0.056263622 2.3509646e-38
1.0458651 0.92049217 0.063337609 2.3509647e-38
1.0449185 0.92976201 0.066853046 2.3509649e-38
1.0446838 0.92449874 0.064575076 2.350965e-38
1.0445929 0.9143635 0.060320321 2.3509653e-38
1.0450538 0.90919739 0.058336832 2.3509654e-38
1.0459946 0.90259981 0.055932339 2.3509656e-38
1.047734 0.88565695 0.049510475 2.3509657e-38
1.0480568 0.88097566 0.047678489 2.3509659e-38
1.0497984 0.86844647 0.043095775 2.3509661e-38
1.0481287 0.85104227 0.035236765 2.3509663e-38
1.0446868 0.83468843 0.027168073 2.3509664e-38
1.0449631 0.83011401 0.025363648 2.3509666e-38
1.0435934 0.81019789 0.016567938 2.3509668e-38
1.0453126 0.79650742 0.011493392 2.350967e-38
1.0444694 0.78204608 0.0051619634 2.3509671e-38
1.0447061 0.77758837 0.0033916505 2.3509673e-38
1.044577 0.77288771 0.0013865735 2.3509674e-38
1.0447642 0.7573837 -0.0050028739 2.3509677e-38
1.0454042 0.74872619 -0.0083751809 2.3509678e-38
1.0395355 0.7274152 -0.01939483 2.350968e-38
1.0405738 0.71506631 -0.024159253 2.3509681e-38
1.0417351 0.71136713 -0.02527602 2.3509684e-38
1.0439091 0.6857903 -0.035135414 2.3509685e-38
1.0422547 0.66672891 -0.043679096 2.3509687e-38
1.0418478 0.65156585 -0.050143443 2.3509688e-38
1.0418171 0.64318573 -0.053645216 2.3509689e-38
1.0420933 0.63912719 -0.055234775 2.3509692e-38
1.0424672 0.63513023 -0.056763034 2.3509694e-38
1.043389 0.63081729 -0.05822292 2.3509695e-38
1.0435916 0.61438012 -0.064995304 2.3509696e-38
1.041615 0.60159248 -0.071043469 2.3509699e-38
1.0410913 0.59726483 -0.073037311 2.3509701e-38
1.0422052 0.5937137 -0.074109674 2.3509702e-38
1.0430757 0.5724144 -0.082663439 2.3509703e-38
1.0412323 0.56238091 -0.087515786 2.3509705e-38
1.0410799 0.55044299 -0.09254384 2.3509708e-38
1.0380294 0.53403074 -0.10049396 2.3509709e-38
1.0372317 0.51065433 -0.11052207 2.350971e-38
1.0379099 0.50663781 -0.11194741 2.3509712e-38
1.0382704 0.49072495 -0.11844382 2.3509713e-38
1.0381489 0.46791312 -0.12798978 2.3509716e-38
1.0394667 0.45543501 -0.13270603 2.3509717e-38
1.0401356 0.44035369 -0.13874345 2.3509719e-38
1.0380038 0.42326212 -0.14664097 2.350972e-38
1.036095 0.41804582 -0.14951077 2.3509723e-38
1.0361925 0.4145104 -0.15094769 2.3509724e-38
1.0386837 0.3997694 -0.15617797 2.3509726e-38
1.03901 0.3823725 -0.163305 2.3509727e-38
1.0389218 0.37171382 -0.16777678 2.3509729e-38
1.0405784 0.36169651 -0.17134428 2.3509731e-38
1.0398016 0.34632504 -0.17803054 2.3509733e-38
1.0400435 0.34356996 -0.17908971 2.3509734e-38
1.0404691 0.33911648 -0.18078932 2.3509736e-38
1.0414845 0.3201215 -0.18833037 2.3509738e-38
1.0409603 0.3167454 -0.18992801 2.350974e-38
1.0409092 0.30498791 -0.19484392 2.3509741e-38
1.0383444 0.29186767 -0.20124547 2.3509743e-38
1.0397856 0.27250764 -0.208783 2.3509744e-38
1.0398792 0.26932147 -0.21007594 2.3509747e-38
1.0372741 0.2479182 -0.21994223 2.3509748e-38
1.0376433 0.23090395 -0.22689421 2.350975e-38
1.0360219 0.21996303 -0.23204352 2.3509751e-38
1.0363697 0.21690904 -0.2331885 2.3509754e-38
1.0359018 0.18665068 -0.24596268 2.3509755e-38
1.0335213 0.18082739 -0.24925752 2.3509757e-38
1.0375594 0.16553286 -0.25415346 2.3509758e-38
1.0384549 0.16249532 -0.25509164 2.3509759e-38
1.0378047 0.13485567 -0.26684162 2.3509762e-38
1.0364873 0.11775517 -0.27444544 2.3509764e-38
1.039211 0.093483411 -0.28356051 2.3509765e-38
1.0442311 0.092712753 -0.28204831 2.3509767e-38
1.0510589 0.091638878 -0.28000224 2.3509769e-38
1.0563627 0.090820104 -0.27840632 2.3509771e-38
1.0599636 0.090288393 -0.27731282 2.3509772e-38
1.0662683 0.089303397 -0.2754207 2.3509774e-38
1.0728674 0.08827164 -0.27344057 2.3509775e-38
1.0765036 0.087735251 -0.27233607 2.3509778e-38
1.0843678 0.086492054 -0.2699821 2.3509779e-38
1.0903465 0.085564725 -0.26818496 2.3509781e-38
1.0964481 0.084618151 -0.26635101 2.3509782e-38
1.1054598 0.083219185 -0.26364276 2.3509785e-38
1.1143209 0.081851766 -0.2609764 2.3509786e-38
1.1595079 0.074592963 -0.24749817 2.3509788e-38
1.164252 0.073876187 -0.24606425 2.3509789e-38
1.1792805 0.071528576 -0.24155393 2.350979e-38
1.1856582 0.070543751 -0.23963502 2.3509793e-38
1.1914235 0.069661826 -0.23789701 2.3509795e-38
1.1997979 0.06834694 -0.23538654 2.3509796e-38
1.2058042 0.067423932 -0.23357756 2.3509797e-38
1.2128098 0.066338092 -0.23147146 2.3509799e-38
1.2255925 0.064330623 -0.22763956 2.3509802e-38
1.2321163 0.063325673 -0.22567575 2.3509803e-38
1.2414082 0.061865937 -0.2228905 2.3509804e-38
1.2491442 0.060661908 -0.22056694 2.3509806e-38
1.2574542 0.05936427 -0.21807273 2.3509809e-38
1.2652005 0.058161102 -0.21574502 2.350981e-38
1.2735655 0.056856032 -0.21323383 2.3509811e-38
1.2819554 0.055547722 -0.21071498 2.3509813e-38
1.2875375 0.054701954 -0.20902872 2.3509814e-38
1.2985172 0.053000171 -0.20572788 2.3509817e-38
1.309052 0.051341359 -0.2025717 2.3509818e-38
1.3164042 0.050207317 -0.20035912 2.350982e-38
1.3371201 0.046984658 -0.19413634 2.3509821e-38
1.3522862 0.044616763 -0.18958414 2.3509824e-38
1.3655175 0.042552222 -0.18561217 2.3509825e-38
1.382991 0.039839223 -0.18036117 2.3509827e-38
1.4047177 0.040175691 -0.17228675 2.3509828e-38
1.4134314 0.038840096 -0.16966093 2.350983e-38
1.4201528 0.0378238 -0.16762967 2.3509832e-38
1.4362673 0.035333965 -0.16278191 2.3509834e-38
1.4466909 0.033727545 -0.15964451 2.3509835e-38
1.4581081 0.031962544 -0.15621029 2.3509837e-38
1.4718353 0.02984605 -0.1520789 2.3509839e-38
1.4751623 0.029556451 -0.15098457 2.3509841e-38
1.4905428 0.026976278 -0.1464425 2.3509842e-38
1.5058874 0.024588438 -0.14183348 2.3509844e-38
1.5170826 0.022862138 -0.13846415 2.3509845e-38
1.5236994 0.021864017 -0.1364636 2.3509848e-38
1.5378207 0.019670699 -0.13222025 2.3509849e-38
1.5517578 0.017545843 -0.12801567 2.3509851e-38
1.5675491 0.015088385 -0.12327252 2.3509852e-38
1.5806663 0.01307681 -0.11932017 2.3509855e-38
1.5948018 0.010886613 -0.11507038 2.3509856e-38
1.6028624 0.009668217 -0.11263425 2.3509858e-38
1.6190616 0.0071506845 -0.10776712 2.3509859e-38
1.6339474 0.0048438911 -0.10329188 2.350986e-38
1.6481742 0.0026438395 -0.099012874 2.3509863e-38
1.6668537 -0.00026749674 -0.093404025 2.3509865e-38
1.6738685 -0.0013140412 -0.091278121 2.3509866e-38
1.6877831 -0.003366417 -0.087051645 2.3509867e-38
1.6985568 -0.0050153551 -0.083804056 2.350987e-38
1.71524 -0.0076055578 -0.078790471 2.3509872e-38
1.7331874 -0.010395446 -0.073398359 2.3509873e-38
1.7452942 -0.01226074 -0.069754176 2.3509874e-38
1.7597092 -0.014487117 -0.065417312 2.3509876e-38
1.7813039 -0.017845364 -0.058930121 2.3509879e-38
1.8006023 -0.020826627 -0.053124312 2.350988e-38
1.820606 -0.023934668 -0.047113821 2.3509881e-38
1.8444741 -0.027648211 -0.039944302 2.3509883e-38
