# .PCD v0.7 - Point Cloud Data file format
VERSION 0.7
FIELDS x y z rgb
SIZE 4 4 4 4
TYPE F F F F
COUNT 1 1 1 1
WIDTH 1047
HEIGHT 1
VIEWPOINT 0 0 0 1 0 0 0
POINTS 1047
DATA ascii
0.4427036 1.2897427 -2.5466387 2.3509886e-38
0.44019455 1.2980837 -2.5431151 2.3509886e-38
0.43792886 1.307206 -2.5390732 2.3509886e-38
0.43876848 1.3145667 -2.5347667 2.3509886e-38
0.4404417 1.3234842 -2.5292914 2.3509886e-38
0.44077966 1.3323328 -2.5243776 2.3509886e-38
0.43523329 1.3399704 -2.5224245 2.3509886e-38
0.43739104 1.3482847 -2.5170856 2.3509886e-38
0.43197173 1.3569964 -2.5145023 2.3509886e-38
0.4317098 1.3819748 -2.5011067 2.3509886e-38
0.43301103 1.3897109 -2.4964163 2.3509886e-38
0.42783758 1.3989173 -2.4934697 2.3509886e-38
0.42731491 1.4089531 -2.488251 2.3509886e-38
0.43008858 1.4168972 -2.4828706 2.3509886e-38
0.42865354 1.4250842 -2.4790092 2.3509886e-38
0.42448145 1.4339544 -2.4758515 2.3509886e-38
0.42485198 1.4422991 -2.4711967 2.3509886e-38
0.42522258 1.4506437 -2.4665422 2.3509886e-38
0.42343208 1.4597639 -2.4623156 2.3509886e-38
0.41998962 1.4685621 -2.4589109 2.3509886e-38
0.42749152 1.4750193 -2.4524806 2.3509886e-38
0.42055956 1.502525 -2.4403343 2.3509886e-38
0.41661778 1.5128313 -2.4363101 2.3509886e-38
0.41699567 1.5212773 -2.4315975 2.3509886e-38
0.41737372 1.5297235 -2.4268854 2.3509886e-38
0.41296214 1.5390449 -2.4235778 2.3509886e-38
0.41334072 1.5474908 -2.418865 2.3509886e-38
0.41371945 1.5559373 -2.4141526 2.3509886e-38
0.41627914 1.5636028 -2.4090066 2.3509886e-38
0.41697165 1.5717975 -2.4043069 2.3509886e-38
0.41266939 1.5825477 -2.4001839 2.3509886e-38
0.41343424 1.5995085 -2.3907185 2.3509886e-38
0.4145568 1.6085938 -2.3853691 2.3509886e-38
0.40490457 1.6201706 -2.3828969 2.3509886e-38
0.40529078 1.62872 -2.3781252 2.3509886e-38
0.41004035 1.6307076 -2.3751895 2.3509886e-38
0.40556389 1.6412817 -2.3712301 2.3509886e-38
0.40594918 1.6498309 -2.3664594 2.3509886e-38
0.40683571 1.6629176 -2.3590398 2.3509886e-38
0.40722182 1.6714669 -2.3542686 2.3509886e-38
0.4063738 1.6758225 -2.352247 2.3509886e-38
0.40945992 1.6838143 -2.3467185 2.341805e-38
0.40300524 1.6934667 -2.3440332 2.3509886e-38
0.40515733 1.6996914 -2.3398254 2.3509886e-38
0.39931381 1.7141018 -2.3343291 2.3049628e-38
0.39764917 1.724358 -2.3294394 2.2036556e-38
0.39594662 1.7343255 -2.3247204 1.9457594e-38
0.39602011 1.7437073 -2.3196218 2.0102233e-38
0.39544722 1.7516743 -2.3155413 1.8260149e-38
0.3850123 1.777077 -2.3059046 2.3509886e-38
0.38669434 1.7841176 -2.3014405 2.3509886e-38
0.3850548 1.7948357 -2.2962911 2.3509886e-38
0.37927401 1.8098979 -2.2904181 2.3509886e-38
0.3747915 1.8234278 -2.2848637 2.3509886e-38
0.37257287 1.8349752 -2.2794938 2.3509886e-38
0.37759492 1.844366 -2.27245 2.3509886e-38
0.37379807 1.895789 -2.24615 2.1114247e-38
0.3697083 1.9070671 -2.2416589 2.1020974e-38
0.46589795 1.0593249 -2.662061 2.3509886e-38
0.46527803 1.0671517 -2.6580746 2.3509886e-38
0.45413536 1.1753045 -2.6039984 2.3509886e-38
0.44855443 1.2207114 -2.5816483 2.3509886e-38
0.44688255 1.2276835 -2.5785363 2.3509886e-38
0.44409445 1.2385952 -2.5737326 2.3509886e-38
0.44317082 1.2462952 -2.5699339 2.3509886e-38
0.44549048 1.2520844 -2.5658965 2.3509886e-38
0.44407994 1.258533 -2.5629642 2.3509886e-38
0.44124484 1.2666224 -2.5597043 2.3509886e-38
0.43455258 1.2754271 -2.5575697 2.3509886e-38
0.43375114 1.2833214 -2.553618 2.3509886e-38
0.4306027 1.2913977 -2.550488 2.3509886e-38
0.4291181 1.2996595 -2.5466053 2.3509886e-38
0.42948455 1.3078461 -2.5420375 2.3509886e-38
0.42985135 1.3160328 -2.5374701 2.3509886e-38
0.432087 1.3249608 -2.531769 2.3509886e-38
0.43058452 1.332406 -2.5283351 2.3509886e-38
0.42630705 1.341439 -2.5251303 2.3509886e-38
0.42456424 1.3499399 -2.5212195 2.3509886e-38
0.42298165 1.3584762 -2.5172269 2.3509886e-38
0.42520988 1.374709 -2.5075815 2.3509886e-38
0.42230999 1.391584 -2.4995992 2.3509886e-38
0.41936329 1.400408 -2.4959857 2.3509886e-38
0.42074594 1.4076781 -2.4915154 2.3509886e-38
0.41943869 1.4188968 -2.4859653 2.3509886e-38
0.41539699 1.4354509 -2.4786043 2.3509886e-38
0.41576961 1.4437953 -2.473949 2.3509886e-38
0.41614202 1.4521399 -2.4692938 2.3509886e-38
0.42050895 1.47595 -2.454715 2.3509886e-38
0.41949192 1.4847095 -2.4503803 2.3509886e-38
0.41501281 1.4938208 -2.4472125 2.3509886e-38
0.41143173 1.5040324 -2.4430981 2.3509886e-38
0.40741888 1.514351 -2.439095 2.3509886e-38
0.40779874 1.5227969 -2.434382 2.3509886e-38
0.40817872 1.5312431 -2.4296689 2.3509886e-38
0.403754 1.5405669 -2.4263649 2.3509886e-38
0.40413457 1.5490128 -2.4216516 2.3509886e-38
0.40451515 1.557459 -2.4169383 2.3509886e-38
0.40614516 1.5654786 -2.4119654 2.3509886e-38
0.40675348 1.5767226 -2.4056509 2.3509886e-38
0.40419587 1.6010412 -2.393512 2.3509886e-38
0.40330738 1.606258 -2.3910413 2.3509886e-38
0.3955797 1.6217189 -2.3857157 2.3509886e-38
0.39596796 1.6302681 -2.3809435 2.3509886e-38
0.39624327 1.6428158 -2.3740554 2.3509886e-38
0.39747745 1.6504356 -2.3694537 2.3509886e-38
0.39484188 1.6614037 -2.3645599 2.3509886e-38
0.39522842 1.6699857 -2.3597705 2.3509886e-38
0.39961195 1.6854882 -2.3496745 2.1669213e-38
0.3982574 1.6941398 -2.3455305 1.9919636e-38
0.38952833 1.7070329 -2.3419855 1.8348016e-38
0.3899194 1.7156514 -2.3371747 1.8992314e-38
0.38576734 1.7278953 -2.3321855 2.0282332e-38
0.38388151 1.7384096 -2.3272431 2.1205361e-38
0.38670886 1.7460742 -2.3219931 2.1575226e-38
0.3800649 1.7689464 -2.3122377 2.3048907e-38
0.38387567 1.7731003 -2.3084991 2.3509886e-38
0.37721714 1.786014 -2.3041308 2.3509886e-38
0.37529486 1.7962561 -2.2993498 2.3509886e-38
0.36688343 1.8140039 -2.2930565 2.3509886e-38
0.36232555 1.827589 -2.2875021 2.3509886e-38
0.36761913 1.8288426 -2.2847495 2.3509886e-38
0.35783598 1.8998371 -2.2502201 2.0560346e-38
0.45665807 1.0682719 -2.6608484 2.3509886e-38
0.45654827 1.0828778 -2.6529987 2.3509886e-38
0.44570449 1.1537492 -2.6189516 2.3509886e-38
0.44632521 1.1613783 -2.6145854 2.3509886e-38
0.44420418 1.1765428 -2.6072221 2.3509886e-38
0.44517791 1.1856477 -2.6019204 2.3509886e-38
0.44580331 1.1933044 -2.5975373 2.3509886e-38
0.4376193 1.2166715 -2.5881186 2.3509886e-38
0.43463269 1.2245129 -2.5850523 2.3509886e-38
0.43198887 1.2316881 -2.582211 2.3509886e-38
0.43216038 1.2398149 -2.5777521 2.3509886e-38
0.43342447 1.2456387 -2.5741096 2.3509886e-38
0.43096754 1.2524018 -2.571418 2.3509886e-38
0.43014714 1.2602069 -2.5675218 2.3509886e-38
0.42913848 1.2680447 -2.5636818 2.3509886e-38
0.42404002 1.2769083 -2.5608904 2.3509886e-38
0.42445394 1.2851042 -2.5562992 2.3509886e-38
0.41982979 1.2929404 -2.5538778 2.3509886e-38
0.42019811 1.3011266 -2.5493093 2.3509886e-38
0.41859084 1.3094563 -2.5454383 2.3509886e-38
0.41895849 1.3176725 -2.5408542 2.3509886e-38
0.4193261 1.3258886 -2.5362701 2.3509886e-38
0.41969371 1.3341048 -2.5316861 2.3509886e-38
0.41772413 1.3436071 -2.5273232 2.3509886e-38
0.41399279 1.3599572 -2.5199509 2.3509886e-38
0.41228577 1.3685738 -2.5159633 2.3509886e-38
0.41302764 1.3851339 -2.5067236 2.3509886e-38
0.41402879 1.4112923 -2.4921954 2.3509886e-38
0.41029704 1.4193964 -2.489279 2.3509886e-38
0.40593952 1.428604 -2.486012 2.3509886e-38
0.40631396 1.4369479 -2.4813559 2.3509886e-38
0.40668839 1.4452921 -2.4766998 2.3509886e-38
0.40480983 1.4543961 -2.4725165 2.3509886e-38
0.40518817 1.462775 -2.4678404 2.3509886e-38
0.40315545 1.4796711 -2.459507 2.3509886e-38
0.40581489 1.4872283 -2.4543808 2.3509886e-38
0.40192622 1.497162 -2.4505365 2.3509886e-38
0.4002161 1.5064043 -2.4462128 2.3509886e-38
0.39822075 1.5158713 -2.441879 2.3509886e-38
0.39651197 1.5252428 -2.437485 2.3509886e-38
0.39689296 1.5337199 -2.4327548 2.3509886e-38
0.392838 1.5515532 -2.4247072 2.3509886e-38
0.39321971 1.5600303 -2.4199767 2.3509886e-38
0.39360127 1.5685076 -2.4152462 2.3509886e-38
0.39386269 1.5809772 -2.4084055 2.3509886e-38
0.39247596 1.5952667 -2.4012268 2.3509886e-38
0.38968235 1.6017281 -2.3988304 2.3509886e-38
0.38943645 1.6102663 -2.3943126 2.3509886e-38
0.38394395 1.6286105 -2.3865528 2.2496441e-38
0.38433251 1.6371927 -2.381763 2.2403886e-38
0.38510934 1.6543565 -2.3721833 2.065288e-38
0.38100561 1.6660122 -2.3674936 2.0007158e-38
0.38139728 1.6746614 -2.3626659 2.028268e-38
0.38178897 1.6833106 -2.3578386 2.0928042e-38
0.37471515 1.6947098 -2.3544517 2.3509886e-38
0.37511149 1.7033969 -2.349602 2.3509886e-38
0.37320083 1.7138087 -2.3447244 2.3509886e-38
0.37108171 1.7244939 -2.339781 2.3509886e-38
0.3666532 1.7370564 -2.3347282 2.3509886e-38
0.3670564 1.7458878 -2.3297982 2.3509886e-38
0.36484861 1.7568872 -2.3247197 2.3509886e-38
0.36294436 1.7676519 -2.3196487 2.3509886e-38
0.3633509 1.7765567 -2.3146772 2.3509886e-38
0.36615843 1.7841159 -2.3094916 2.3509886e-38
0.36148128 1.7899263 -2.3081856 2.3509886e-38
0.3645516 1.800024 -2.3015254 2.3509886e-38
0.35154206 1.8153603 -2.2983377 2.3509886e-38
0.35509497 1.8242996 -2.2921143 2.3509886e-38
0.35706636 1.8320808 -2.2871363 2.3326215e-38
0.35058865 1.8982751 -2.2539053 2.0837296e-38
0.37703899 1.9280373 -2.227453 1.8069632e-38
0.44635296 1.0439559 -2.6780283 2.3509886e-38
0.44740322 1.0618808 -2.6679304 2.3509886e-38
0.44801089 1.0694354 -2.6636095 2.3509886e-38
0.44795671 1.0767176 -2.6596954 2.3509886e-38
0.44279623 1.1003406 -2.648953 2.3509886e-38
0.44211626 1.1078062 -2.6451855 2.3509886e-38
0.44282651 1.1234064 -2.6364765 2.3509886e-38
0.43683884 1.1602122 -2.6189346 2.3509886e-38
0.43169233 1.1695685 -2.6158957 2.3509886e-38
0.43127167 1.1771213 -2.6119795 2.3509886e-38
0.42974576 1.1847565 -2.6084516 2.3509886e-38
0.43010485 1.1927283 -2.604003 2.3509886e-38
0.43177375 1.2020066 -2.598335 2.3509886e-38
0.43240863 1.2097379 -2.5939081 2.3509886e-38
0.42564079 1.2138857 -2.5943196 2.3509886e-38
0.42263409 1.2256352 -2.5891492 2.3509886e-38
0.42328075 1.2334558 -2.5846694 2.3509886e-38
0.42371014 1.2392581 -2.5813658 2.3509886e-38
0.4205873 1.2459656 -2.5789652 2.3509886e-38
0.42123714 1.2538161 -2.5744679 2.3509886e-38
0.41613317 1.2619594 -2.5720685 2.3509886e-38
0.4186309 1.269013 -2.5672774 2.3509886e-38
0.41490844 1.2863047 -2.5593929 2.3509886e-38
0.41127935 1.302595 -2.5520122 2.3509886e-38
0.41291878 1.3105338 -2.5470793 2.3509886e-38
0.41001818 1.3191446 -2.5435634 2.3509886e-38
0.41038778 1.3273605 -2.5389786 2.3509886e-38
0.41152483 1.336562 -2.5335608 2.3509886e-38
0.40645543 1.3446445 -2.5311799 2.3509886e-38
0.40933952 1.3523312 -2.5258958 2.3509886e-38
0.40290043 1.3617791 -2.5233147 2.3509886e-38
0.40327328 1.3700589 -2.5186939 2.3509886e-38
0.40364626 1.3783389 -2.5140736 2.3509886e-38
0.40210697 1.3954177 -2.5054474 2.3509886e-38
0.40248373 1.4037322 -2.5008066 2.3509886e-38
0.39811027 1.4129137 -2.4975598 2.3509886e-38
0.39848769 1.4212282 -2.4929187 2.3509886e-38
0.39886507 1.4295428 -2.4882777 2.3509886e-38
0.39723229 1.4384462 -2.4841065 2.3509886e-38
0.39926776 1.4471515 -2.4786041 2.3509886e-38
0.39606807 1.4642819 -2.4706016 2.3509886e-38
0.39433387 1.4734029 -2.4663525 2.3509886e-38
0.39203712 1.4819142 -2.4626534 2.3509886e-38
0.39241803 1.4902928 -2.4579763 2.3509886e-38
0.39068407 1.4995059 -2.4536774 2.3509886e-38
0.39106396 1.5079153 -2.4489841 2.3509886e-38
0.38729039 1.5267658 -2.4402766 2.3509886e-38
0.38767341 1.5352427 -2.4355457 2.3509886e-38
0.38805631 1.5437194 -2.4308152 2.3509886e-38
0.38145947 1.5604116 -2.424381 2.3509886e-38
0.38121369 1.5689499 -2.4198635 2.3509886e-38
0.38072211 1.5860267 -2.4108281 2.3509886e-38
0.38047621 1.594565 -2.4063103 2.3509886e-38
0.37872264 1.6120893 -2.3975279 2.3049259e-38
0.37495372 1.6230307 -2.3930929 2.3509886e-38
0.37214291 1.6316659 -2.3895283 2.3509886e-38
0.37040874 1.6416128 -2.3848329 2.3509886e-38
0.36824897 1.651926 -2.3801064 2.3509886e-38
0.36864659 1.6606131 -2.3752561 2.3509886e-38
0.3690443 1.6693003 -2.3704057 2.3509886e-38
0.36710727 1.6795781 -2.3656111 2.3509886e-38
0.36750415 1.6882992 -2.3607428 2.3509886e-38
0.360331 1.6997931 -2.3573434 2.3509886e-38
0.35581544 1.7121532 -2.3524344 2.3509886e-38
0.35622045 1.7209845 -2.3475034 2.3509886e-38
0.35780579 1.7285639 -2.3427861 2.3509886e-38
0.35436031 1.7407501 -2.3375514 2.3509886e-38
0.35243073 1.7514466 -2.3325276 2.3509886e-38
0.35201222 1.7590114 -2.3286035 2.3509886e-38
0.35175642 1.7679008 -2.3239005 2.3509886e-38
0.35150039 1.77679 -2.3191969 2.3509886e-38
0.35213837 1.7829626 -2.3156114 2.3509886e-38
0.35275728 1.7914242 -2.310796 2.3509886e-38
0.35414749 1.8031073 -2.3039377 2.3509886e-38
0.34543204 1.816781 -2.2999649 2.3509886e-38
0.34766275 1.8250804 -2.2946057 2.3509886e-38
0.44010234 1.0635337 -2.6698992 2.3509886e-38
0.43845275 1.069749 -2.667187 2.3509886e-38
0.4387109 1.0784231 -2.6623988 2.3509886e-38
0.43932682 1.0859835 -2.6580715 2.3509886e-38
0.43361032 1.1092126 -2.6477597 2.3509886e-38
0.43360299 1.1255983 -2.6389081 2.3509886e-38
0.42934629 1.1389987 -2.6333356 2.3509886e-38
0.42847356 1.1538526 -2.6256502 2.3509886e-38
0.42442444 1.1636034 -2.6219685 2.3509886e-38
0.4201552 1.1702229 -2.6200652 2.3509886e-38
0.42052084 1.1781982 -2.6156123 2.3509886e-38
0.41897649 1.1858702 -2.6120713 2.3509886e-38
0.42064214 1.1953912 -2.6062732 2.3509886e-38
0.4177942 1.2016294 -2.6040189 2.3509886e-38
0.41286561 1.2066752 -2.6032243 2.3509886e-38
0.41263267 1.2147681 -2.5989425 2.3509886e-38
0.41239962 1.2228605 -2.5946605 2.3509886e-38
0.41193378 1.2390461 -2.5860972 2.3509886e-38
0.4123297 1.247431 -2.5814104 2.3509886e-38
0.409051 1.2542207 -2.5790265 2.3509886e-38
0.4094201 1.2623446 -2.574492 2.3509886e-38
0.41179684 1.2709665 -2.5689011 2.3509886e-38
0.41104698 1.2791849 -2.564754 2.3509886e-38
0.40999359 1.2879475 -2.5604312 2.3509886e-38
0.40667278 1.2950242 -2.5579093 2.3509886e-38
0.40297547 1.3310111 -2.5399115 2.3509886e-38
0.40471831 1.3378651 -2.5355246 2.3509886e-38
0.39940938 1.3550026 -2.5283449 2.3509886e-38
0.39562392 1.3801123 -2.5162599 2.3509886e-38
0.3963097 1.3881456 -2.5116498 2.3509886e-38
0.39699551 1.3961791 -2.5070398 2.3509886e-38
0.39768094 1.4042128 -2.5024297 2.3509886e-38
0.38942853 1.4227248 -2.4956613 2.3509886e-38
0.39165246 1.4401177 -2.4853904 2.3509886e-38
0.38656658 1.4574111 -2.4780393 2.3509886e-38
0.38694885 1.4657898 -2.4733615 2.3509886e-38
0.38733119 1.4741684 -2.4686842 2.3509886e-38
0.38081107 1.4927725 -2.4611869 2.3509886e-38
0.37905645 1.5020233 -2.4568751 2.3509886e-38
0.37944236 1.5104693 -2.4521596 2.3509886e-38
0.37807035 1.5282899 -2.443068 2.3509886e-38
0.37712336 1.5425763 -2.435719 2.3509886e-38
0.37176177 1.5703254 -2.4228253 2.3509886e-38
0.36573279 1.589218 -2.4149792 2.3509886e-38
0.36354443 1.5992754 -2.4104025 2.3509886e-38
0.36394441 1.6079317 -2.4055679 2.3509886e-38
0.36434445 1.6165882 -2.4007332 2.3509886e-38
0.35798156 1.6361133 -2.3926764 2.3509886e-38
0.360284 1.6444974 -2.387243 2.3509886e-38
0.35617873 1.6551645 -2.3830881 2.3509886e-38
0.35422054 1.6654127 -2.3783176 2.3509886e-38
0.35236323 1.6756606 -2.3735077 2.3509886e-38
0.35276532 1.6844519 -2.3685994 2.3509886e-38
0.35316753 1.6932434 -2.3636911 2.3509886e-38
0.3430419 1.7068712 -2.360296 2.3509886e-38
0.34345341 1.7157425 -2.3553412 2.3509886e-38
0.34149936 1.7263371 -2.3503819 2.3509886e-38
0.34293967 1.7337755 -2.3457975 2.3509886e-38
0.34242782 1.7515541 -2.3363907 2.3509886e-38
0.34217194 1.7604433 -2.3316875 2.3509886e-38
0.34140414 1.7871113 -2.3175774 2.3509886e-38
0.34405091 1.7929237 -2.3133991 2.3509886e-38
0.34089226 1.8048897 -2.3081706 2.3509886e-38
0.33551124 1.8182248 -2.3030741 2.3509886e-38
0.35423195 1.9250444 -2.2380111 1.7335301e-38
0.43065116 1.0412382 -2.685652 2.3509886e-38
0.43118483 1.0559932 -2.6774695 2.3509886e-38
0.43011689 1.0722749 -2.6690898 2.3509886e-38
0.43073699 1.0798335 -2.6647623 2.3509886e-38
0.42969006 1.0868043 -2.661406 2.3509886e-38
0.42474636 1.1028199 -2.6546888 2.3509886e-38
0.4242458 1.1192098 -2.6460285 2.3509886e-38
0.4248758 1.1268189 -2.6416695 2.3509886e-38
0.42239967 1.1336302 -2.6389596 2.3509886e-38
0.42303133 1.1412851 -2.6345751 2.3509886e-38
0.41995856 1.1486965 -2.6317747 2.3509886e-38
0.42059761 1.1563843 -2.6273699 2.3509886e-38
0.4146373 1.1647158 -2.6252041 2.3509886e-38
0.41303486 1.172004 -2.6218941 2.3509886e-38
0.40968916 1.1792858 -2.6192706 2.3509886e-38
0.40955859 1.185124 -2.6161668 2.3509886e-38
0.40927729 1.1964061 -2.6101801 2.3509886e-38
0.40693232 1.2028228 -2.6076319 2.3509886e-38
0.40390736 1.207979 -2.6060319 2.3509886e-38
0.40570322 1.2163349 -2.6008122 2.3509886e-38
0.40113801 1.2276918 -2.5964649 2.3509886e-38
0.40732756 1.2343482 -2.5904417 2.3509886e-38
0.4014082 1.2395332 -2.5899599 2.3509886e-38
0.40020645 1.2556772 -2.5817065 2.3509886e-38
0.40285262 1.2645503 -2.5758746 2.3509886e-38
0.40351534 1.2724336 -2.5713549 2.3509886e-38
0.40276158 1.2806525 -2.5672088 2.3509886e-38
0.39838207 1.2895302 -2.5641282 2.3509886e-38
0.39193705 1.3221118 -2.5490482 2.3509886e-38
0.39355588 1.3299598 -2.5441723 2.3509886e-38
0.39475793 1.3374426 -2.5396576 2.3509886e-38
0.39545894 1.3475105 -2.5339422 2.3509886e-38
0.39103949 1.3564913 -2.5308216 2.3509886e-38
0.39171872 1.3644606 -2.5262489 2.3509886e-38
0.39089134 1.3727238 -2.5221078 2.3509886e-38
0.38901395 1.3812531 -2.5182347 2.3509886e-38
0.38940659 1.3890222 -2.5138824 2.3509886e-38
0.38616925 1.397936 -2.5103347 2.3509886e-38
0.38655102 1.4062198 -2.5057087 2.3509886e-38
0.3847698 1.4150355 -2.5016429 2.3509886e-38
0.38893443 1.4303946 -2.4917104 2.3509886e-38
0.38594371 1.4377533 -2.4889061 2.3509886e-38
0.37912363 1.4499182 -2.4850061 2.3509886e-38
0.37739721 1.4674783 -2.4761937 2.3509886e-38
0.37611094 1.4849902 -2.4672346 2.3509886e-38
0.37163696 1.4942942 -2.4639609 2.3509886e-38
0.37202558 1.502709 -2.4592609 2.3509886e-38
0.37013048 1.5159146 -2.452868 2.3509886e-38
0.37051743 1.5243604 -2.4481523 2.3509886e-38
0.36304754 1.5460855 -2.4393404 2.3509886e-38
0.36301205 1.5713521 -2.4257004 2.3509886e-38
0.35594466 1.5821468 -2.4226379 2.3509886e-38
0.35370508 1.5921777 -2.4180949 2.3509886e-38
0.35192785 1.6020112 -2.4134781 2.3509886e-38
0.35232896 1.6106983 -2.4086263 2.3509886e-38
0.35491091 1.6181475 -2.4035888 2.3509886e-38
0.35313135 1.6280731 -2.3989227 2.3509886e-38
0.35093147 1.6372203 -2.3948419 2.3509886e-38
0.34625676 1.6480145 -2.3908417 2.3509886e-38
0.34150594 1.6599919 -2.3862314 2.3509886e-38
0.3396284 1.6702476 -2.3814256 2.3509886e-38
0.34003693 1.6790788 -2.376493 2.3509886e-38
0.33955541 1.6873214 -2.3722274 2.3509886e-38
0.33810481 1.6986639 -2.3666668 2.3509886e-38
0.3297314 1.7479728 -2.3433034 2.3509886e-38
0.33014852 1.7569193 -2.3383052 2.3509886e-38
0.32662275 1.7838206 -2.3251505 2.3509886e-38
0.33156398 1.7885432 -2.3206613 2.3509886e-38
0.33130807 1.7974325 -2.3159578 2.3509886e-38
0.32559067 1.8196684 -2.3061831 2.3509886e-38
0.32607737 1.8369689 -2.2966435 2.2772325e-38
0.34375399 1.9296987 -2.2396035 1.0246603e-38
0.42260286 1.0498487 -2.6841543 2.3509886e-38
0.42154557 1.0588111 -2.6797256 2.3509886e-38
0.42152491 1.0661319 -2.6757777 2.3509886e-38
0.42029938 1.0958508 -2.6601982 2.3509886e-38
0.41279402 1.1108236 -2.6550496 2.3509886e-38
0.41019675 1.1236024 -2.6491621 2.3509886e-38
0.41057882 1.1347656 -2.6429799 2.3509886e-38
0.40960002 1.1449755 -2.6378465 2.3509886e-38
0.40505043 1.1543796 -2.6345484 2.3509886e-38
0.4042339 1.1657119 -2.6287446 2.3509886e-38
0.40459132 1.1703247 -2.6261115 2.3509886e-38
0.4017055 1.1811079 -2.6214154 2.3509886e-38
0.40002725 1.1885208 -2.6180675 2.3509886e-38
0.40106097 1.1978763 -2.6126068 2.3509886e-38
0.40019628 1.2054971 -2.6088278 2.3509886e-38
0.39852977 1.2123439 -2.6057813 2.3509886e-38
0.39878097 1.224143 -2.5993063 2.3509886e-38
0.39606404 1.2439125 -2.5896883 2.3509886e-38
0.39476854 1.2503129 -2.5867374 2.3509886e-38
0.39314771 1.2663628 -2.5786996 2.3509886e-38
0.39168656 1.3145577 -2.5532281 2.3509886e-38
0.38826025 1.3230044 -2.5500071 2.3509886e-38
0.38878557 1.3307614 -2.545609 2.3509886e-38
0.38915041 1.3390183 -2.5410047 2.3509886e-38
0.38870814 1.3487856 -2.5358994 2.3509886e-38
0.37766838 1.357641 -2.5354421 2.3509886e-38
0.38073319 1.3663865 -2.5295146 2.3509886e-38
0.37697926 1.3816978 -2.5227125 2.3509886e-38
0.37292737 1.4087967 -2.5096567 2.3509886e-38
0.37128386 1.4159614 -2.5064294 2.3509886e-38
0.37370047 1.4254949 -2.50033 2.3509886e-38
0.37727639 1.4312977 -2.4957926 2.3509886e-38
0.37782615 1.4391596 -2.4913285 2.3509886e-38
0.37701461 1.4473863 -2.4872012 2.3509886e-38
0.36617008 1.4696798 -2.4794049 2.3509886e-38
0.36656043 1.4780951 -2.4747047 2.3509886e-38
0.36695072 1.48651 -2.4700043 2.3509886e-38
0.36246344 1.4958168 -2.4667342 2.3509886e-38
0.36285427 1.5042318 -2.4620337 2.3509886e-38
0.35873541 1.5183276 -2.4560311 2.3509886e-38
0.35480231 1.5460984 -2.4425657 2.3509886e-38
0.350346 1.5569301 -2.4384594 2.3509886e-38
0.35074523 1.5655485 -2.4336455 2.3509886e-38
0.34125537 1.5775098 -2.4309018 2.3509886e-38
0.347606 1.5841508 -2.4248238 2.3509886e-38
0.34206164 1.5948846 -2.4211969 2.3509886e-38
0.34246472 1.6035718 -2.4163439 2.3509886e-38
0.34286785 1.6122591 -2.4114914 2.3509886e-38
0.3432712 1.6209466 -2.4066391 2.3509886e-38
0.3415786 1.6299431 -2.4024408 2.3509886e-38
0.3335042 1.642561 -2.3987877 2.3509886e-38
0.3358309 1.6504525 -2.3936112 2.3509886e-38
0.32959694 1.6630067 -2.3892708 2.3509886e-38
0.33030292 1.6711085 -2.3846157 2.3509886e-38
0.33004928 1.6799252 -2.379951 2.3509886e-38
0.32643032 1.7107959 -2.3646874 2.3509886e-38
0.31872019 1.7227545 -2.3612475 2.3509886e-38
0.32300296 1.7455285 -2.3472617 2.3509886e-38
0.32496566 1.7535635 -2.3421504 2.3509886e-38
0.31738022 1.7882953 -2.3263555 2.3509886e-38
0.31817368 1.7970544 -2.321311 2.3509886e-38
0.3196454 1.8018528 -2.3181412 2.3509886e-38
0.31243294 1.8130523 -2.3149166 2.341805e-38
0.31522229 1.840384 -2.2990534 2.2772325e-38
0.30209839 1.9109529 -2.2660632 1.9638391e-38
0.33168101 1.924907 -2.2469258 1.8440903e-38
0.41782442 1.043244 -2.6895969 2.3509886e-38
0.41564804 1.0505056 -2.6865258 2.3509886e-38
0.41212827 1.0656613 -2.6797156 2.3509886e-38
0.41298869 1.089368 -2.6665678 2.3509886e-38
0.41155565 1.0970112 -2.6629992 2.3509886e-38
0.40618527 1.1023558 -2.6622164 2.3509886e-38
0.40625963 1.1106371 -2.657712 2.3509886e-38
0.40216398 1.1195233 -2.6545157 2.3509886e-38
0.40342844 1.1250972 -2.6510077 2.3509886e-38
0.4000015 1.1355932 -2.6466794 2.3509886e-38
0.39711228 1.1454761 -2.6424713 2.3509886e-38
0.39796168 1.1577538 -2.6355035 2.3509886e-38
0.39184868 1.1741755 -2.6290259 2.3509886e-38
0.39351669 1.1825641 -2.6238391 2.3509886e-38
0.39181107 1.1899806 -2.6204994 2.3509886e-38
0.3924737 1.1977848 -2.6160228 2.3509886e-38
0.39248875 1.2032851 -2.6130445 2.3509886e-38
0.38788649 1.2112401 -2.6105499 2.3509886e-38
0.38839257 1.2189289 -2.6061966 2.3509886e-38
0.38889831 1.2266177 -2.6018434 2.3509886e-38
0.39138842 1.2335675 -2.5971115 2.3509886e-38
0.38776022 1.2835562 -2.5715208 2.3509886e-38
0.3847675 1.2926352 -2.5677874 2.3509886e-38
0.38266286 1.3004673 -2.5643802 2.3509886e-38
0.38581726 1.3080353 -2.5590541 2.3509886e-38
0.38024238 1.3243942 -2.5523992 2.3509886e-38
0.38077444 1.332148 -2.5480008 2.3509886e-38
0.37517503 1.3497276 -2.5406959 2.3509886e-38
0.36324996 1.3755935 -2.5313933 2.3509886e-38
0.36383742 1.4103023 -2.5124068 2.3509886e-38
0.36422595 1.4186513 -2.5077424 2.3509886e-38
0.36802447 1.4326998 -2.498662 2.3509886e-38
0.36615008 1.440963 -2.4949315 2.3509886e-38
0.36108831 1.4506749 -2.4916673 2.3509886e-38
0.35453308 1.4720421 -2.4826906 2.3509886e-38
0.35518047 1.4803668 -2.4779379 2.3509886e-38
0.35779136 1.4880308 -2.4727731 2.3509886e-38
0.3497197 1.5212542 -2.4579835 2.3509886e-38
0.34923196 1.5381981 -2.4490185 2.3509886e-38
0.34289744 1.5488139 -2.4457653 2.3509886e-38
0.34096479 1.558476 -2.4413018 2.3509886e-38
0.33866039 1.5684071 -2.4368384 2.3509886e-38
0.33178729 1.5790716 -2.4337699 2.3509886e-38
0.33219236 1.5877589 -2.4289162 2.3509886e-38
0.33259761 1.5964463 -2.424063 2.3509886e-38
0.33300287 1.6051337 -2.4192097 2.3509886e-38
0.3341597 1.6136029 -2.4141796 2.3509886e-38
0.33286259 1.6232111 -2.4094954 2.3509886e-38
0.32905251 1.6341767 -2.4050636 2.3509886e-38
0.32148847 1.6455742 -2.40187 2.3509886e-38
0.31902754 1.6561226 -2.3971343 2.3509886e-38
0.31752184 1.6752583 -2.3873839 2.3509886e-38
0.31793895 1.68413 -2.3824265 2.3509886e-38
0.31835577 1.6930014 -2.3774688 2.3509886e-38
0.31089437 1.7398412 -2.3550823 2.3509886e-38
0.31517687 1.7475705 -2.3492262 2.3509886e-38
0.30765462 1.7624563 -2.344131 2.3509886e-38
0.30741438 1.781176 -2.3341095 2.3509886e-38
0.30821198 1.7899332 -2.3290646 2.3509886e-38
0.3100749 1.8000125 -2.3228877 2.3509886e-38
0.30767152 1.8092467 -2.3188398 2.3326215e-38
0.30325216 1.8426861 -2.3025019 2.2127321e-38
0.33105814 1.9177148 -2.2510564 1.8811141e-38
0.4072201 1.0436345 -2.693543 2.3509886e-38
0.40278274 1.0510747 -2.6912618 2.3509886e-38
0.39916331 1.074787 -2.6798668 2.3509886e-38
0.40079004 1.0821867 -2.6752303 2.3509886e-38
0.39968213 1.089784 -2.6715596 2.3509886e-38
0.40032539 1.0974249 -2.6671782 2.3509886e-38
0.40096846 1.1050658 -2.6627972 2.3509886e-38
0.38903832 1.1119 -2.6637805 2.3509886e-38
0.3950581 1.1187292 -2.6577301 2.3509886e-38
0.39121962 1.1293279 -2.6535077 2.3509886e-38
0.39187577 1.1370445 -2.6490805 2.3509886e-38
0.38842741 1.1469033 -2.6451049 2.3509886e-38
0.38928071 1.1591958 -2.6381273 2.3509886e-38
0.3888514 1.1660525 -2.6345904 2.3509886e-38
0.38311487 1.1756251 -2.6316662 2.3509886e-38
0.38533717 1.1840205 -2.6262584 2.3509886e-38
0.38360468 1.1914415 -2.6229274 2.3509886e-38
0.38427117 1.1992434 -2.6184499 2.3509886e-38
0.38261878 1.2074281 -2.6146748 2.3509886e-38
0.38261348 1.2128849 -2.611728 2.3509886e-38
0.38363072 1.219521 -2.6077435 2.3509886e-38
0.38263351 1.2288885 -2.6030719 2.3509886e-38
0.38314703 1.2365161 -2.5987487 2.3509886e-38
0.38165829 1.2431257 -2.5957608 2.3509886e-38
0.37796655 1.252032 -2.5923953 2.3509886e-38
0.37770849 1.2601191 -2.5881259 2.3509886e-38
0.37559304 1.268172 -2.5846035 2.3509886e-38
0.36497748 1.3348272 -2.5527453 2.3509886e-38
0.36889598 1.3419005 -2.5473874 2.3509886e-38
0.35817993 1.4009161 -2.5196967 2.3509886e-38
0.35305423 1.4103068 -2.5166316 2.3509886e-38
0.35281411 1.4186492 -2.5122175 2.3509886e-38
0.34791562 1.4281795 -2.5089877 2.3509886e-38
0.35233372 1.435334 -2.5033894 2.3509886e-38
0.35876468 1.4423882 -2.4970562 2.3509886e-38
0.34666297 1.4560418 -2.4944222 2.3509886e-38
0.35161316 1.460361 -2.4901474 2.3509886e-38
0.34256575 1.4745052 -2.4860511 2.3509886e-38
0.34806633 1.4908874 -2.4750414 2.3509886e-38
0.34678149 1.498782 -2.4712796 2.3509886e-38
0.34455267 1.5121006 -2.4649563 2.3509886e-38
0.33498508 1.5235175 -2.4625368 2.3509886e-38
0.33273354 1.5331862 -2.4581947 2.3509886e-38
0.33313766 1.5417731 -2.4533963 2.3509886e-38
0.32841706 1.5526515 -2.449368 2.3509886e-38
0.32657033 1.5623366 -2.4448588 2.3509886e-38
0.32697684 1.5710237 -2.4400043 2.3509886e-38
0.32232013 1.5806344 -2.4366369 2.3509886e-38
0.3227272 1.5893217 -2.4317825 2.3509886e-38
0.3231343 1.5980091 -2.4269283 2.3509886e-38
0.31747246 1.6182823 -2.4181926 2.3509886e-38
0.3172206 1.6270294 -2.4135644 2.3509886e-38
0.31426322 1.6387553 -2.4083869 2.3509886e-38
0.31103718 1.6651325 -2.3953979 2.3509886e-38
0.31052953 1.6827656 -2.3860681 2.3509886e-38
0.3086887 1.6946074 -2.3803906 2.3509886e-38
0.30740851 1.7127138 -2.3711078 2.3509886e-38
0.30675158 1.7196287 -2.3676288 2.3509886e-38
0.29784995 1.7640954 -2.3470891 2.3509886e-38
0.30066049 1.7929817 -2.3303773 2.3509886e-38
0.39690626 1.0443946 -2.697175 2.3509886e-38
0.39430889 1.0588627 -2.6903751 2.3509886e-38
0.39083239 1.067324 -2.6871657 2.3509886e-38
0.3903468 1.0759351 -2.6827023 2.3509886e-38
0.38980359 1.0821111 -2.6795778 2.3509886e-38
0.39164156 1.0912133 -2.673939 2.3509886e-38
0.38243967 1.1230676 -2.6603327 2.3509886e-38
0.38309976 1.1307819 -2.655905 2.3509886e-38
0.38149673 1.13718 -2.6530759 2.3509886e-38
0.37974334 1.1483315 -2.6477373 2.3509886e-38
0.38112342 1.1613355 -2.6401691 2.3509886e-38
0.37442714 1.1850653 -2.6299708 2.3509886e-38
0.37069336 1.1924976 -2.627418 2.3509886e-38
0.37190658 1.2007016 -2.6225095 2.3509886e-38
0.37145707 1.2086341 -2.6183987 2.3509886e-38
0.37470844 1.2142595 -2.6140842 2.3509886e-38
0.375229 1.2219044 -2.6097488 2.3509886e-38
0.36959535 1.2282456 -2.6085308 2.3509886e-38
0.3699792 1.2363492 -2.604001 2.3509886e-38
0.36815298 1.2454339 -2.599808 2.3509886e-38
0.3685334 1.2535021 -2.5952988 2.3509886e-38
0.36865473 1.2707798 -2.5859146 2.3509886e-38
0.37304437 1.2793893 -2.5795414 2.3509886e-38
0.36307186 1.2859503 -2.5799053 2.3509886e-38
0.35180718 1.3451016 -2.5523565 2.3509886e-38
0.34703258 1.3999463 -2.5245907 2.3509886e-38
0.34298575 1.413951 -2.518609 2.3509886e-38
0.34122548 1.422855 -2.5144873 2.3509886e-38
0.34162134 1.4312704 -2.5097847 2.3509886e-38
0.34309891 1.4366779 -2.5062838 2.3509886e-38
0.3420355 1.4482433 -2.5004506 2.3509886e-38
0.33747572 1.4575716 -2.4971969 2.3509886e-38
0.33990285 1.4652699 -2.4920855 2.3509886e-38
0.33330831 1.476048 -2.4888463 2.3509886e-38
0.33218253 1.4816236 -2.4862747 2.3509886e-38
0.33453166 1.4966587 -2.4772289 2.3509886e-38
0.32622305 1.5174336 -2.4692593 2.3509886e-38
0.325672 1.5250533 -2.465358 2.3509886e-38
0.32337442 1.5347329 -2.4610281 2.3509886e-38
0.32510519 1.5424665 -2.4561701 2.3509886e-38
0.32179937 1.5529524 -2.4517999 2.3509886e-38
0.31939501 1.5628681 -2.4473841 2.3509886e-38
0.31752393 1.5725844 -2.4428668 2.3509886e-38
0.30792481 1.5935324 -2.4353099 2.3509886e-38
0.30804139 1.6109443 -2.4258549 2.3509886e-38
0.30213088 1.6509027 -2.4065788 2.3509886e-38
0.30102351 1.6753693 -2.3937917 2.3509886e-38
0.29966357 1.6867898 -2.3881531 2.3509886e-38
0.29858115 1.6966064 -2.3832726 2.3509886e-38
0.29593888 1.7046812 -2.3799448 2.3509886e-38
0.29605982 1.7158954 -2.3738375 2.3509886e-38
0.29651394 1.7219625 -2.3703809 2.3509886e-38
0.29872295 1.7296152 -2.3653796 2.3509886e-38
0.29938129 1.7380857 -2.3605437 2.3509886e-38
0.29119241 1.765172 -2.349117 2.3509886e-38
0.29304701 1.7665702 -2.3476343 2.3509886e-38
0.26465809 1.9684381 -2.2496765 2.1295746e-38
0.38614643 1.0449512 -2.701093 2.3509886e-38
0.38601658 1.0525627 -2.6970303 2.3509886e-38
0.38225508 1.0613822 -2.6937389 2.3509886e-38
0.38315988 1.0702538 -2.68859 2.3509886e-38
0.38230804 1.0773693 -2.6850791 2.3509886e-38
0.38216203 1.0847307 -2.6811581 2.3509886e-38
0.38281572 1.092378 -2.6767697 2.3509886e-38
0.38082838 1.1066871 -2.669816 2.3509886e-38
0.38101974 1.1143305 -2.6656103 2.3509886e-38
0.36973923 1.1221304 -2.6658175 2.3509886e-38
0.37245613 1.1306696 -2.6601381 2.3509886e-38
0.37050253 1.1380908 -2.656894 2.3509886e-38
0.36873949 1.1492672 -2.6515453 2.3509886e-38
0.37117958 1.1624595 -2.6434598 2.3509886e-38
0.37185264 1.1702378 -2.6389928 2.3509886e-38
0.36587876 1.1769562 -2.6377039 2.3509886e-38
0.36151475 1.1858923 -2.6345859 2.3509886e-38
0.36298645 1.1943377 -2.6294451 2.3509886e-38
0.36366886 1.2021708 -2.6249447 2.3509886e-38
0.36629367 1.2079937 -2.620769 2.3509886e-38
0.36466444 1.2144375 -2.6179254 2.3509886e-38
0.36500394 1.2219787 -2.6137173 2.3509886e-38
0.36538681 1.2300197 -2.6092219 2.3509886e-38
0.36524469 1.2382809 -2.6048133 2.3509886e-38
0.35935494 1.2468858 -2.6024723 2.3509886e-38
0.36200953 1.2711389 -2.5883255 2.3509886e-38
0.36041355 1.2891195 -2.5792348 2.3509886e-38
0.36095825 1.2968088 -2.5748658 2.3509886e-38
0.33524141 1.4020057 -2.5281003 2.3509886e-38
0.33167055 1.4159607 -2.5219591 2.3509886e-38
0.33206835 1.4243759 -2.5172555 2.3509886e-38
0.33017543 1.4333678 -2.5131383 2.3509886e-38
0.3237797 1.4491003 -2.5071437 2.3509886e-38
0.32610643 1.4597375 -2.5004835 2.3509886e-38
0.32650876 1.4681882 -2.4957592 2.3509886e-38
0.32405096 1.4775916 -2.491641 2.3509886e-38
0.32205373 1.4906889 -2.4853466 2.3509886e-38
0.31726298 1.5017322 -2.481257 2.3509886e-38
0.32340285 1.5075103 -2.4757278 2.3509886e-38
0.3131997 1.5191064 -2.4734612 2.3509886e-38
0.31119698 1.5286461 -2.4690914 2.3509886e-38
0.31160411 1.5372642 -2.4642742 2.3509886e-38
0.30914286 1.547114 -2.4599166 2.3509886e-38
0.30955428 1.5557712 -2.4550767 2.3509886e-38
0.30766135 1.5654587 -2.4505839 2.3509886e-38
0.30807194 1.574146 -2.4457283 2.3509886e-38
0.30563128 1.5842199 -2.4412413 2.3509886e-38
0.29788435 1.6403898 -2.4139247 2.3509886e-38
0.2924706 1.6525073 -2.4094989 2.3509886e-38
0.29520023 1.6606477 -2.4040294 2.3509886e-38
0.28904265 1.6711551 -2.4007657 2.3509886e-38
0.28975329 1.6827693 -2.3942108 2.3509886e-38
0.2836419 1.7512565 -2.359597 2.3509886e-38
0.28677952 1.758888 -2.3542428 2.3509886e-38
0.28220049 1.7697147 -2.3501873 2.3509886e-38
0.28108758 1.7977006 -2.3355002 2.1023115e-38
0.37772614 1.0462677 -2.7036822 2.3509886e-38
0.3784357 1.0539494 -2.6992531 2.3509886e-38
0.37140703 1.069005 -2.6938727 2.3509886e-38
0.37330368 1.0770977 -2.6887555 2.3509886e-38
0.36537451 1.1147308 -2.6715274 2.3509886e-38
0.36103106 1.1235734 -2.668452 2.3509886e-38
0.35935029 1.1310717 -2.6650586 2.3509886e-38
0.3601155 1.1470866 -2.6561043 2.3509886e-38
0.36088035 1.1631017 -2.6471503 2.3509886e-38
0.36069331 1.1687734 -2.6441586 2.3509886e-38
0.35709596 1.1784173 -2.6403575 2.3509886e-38
0.35271859 1.1873564 -2.637243 2.3509886e-38
0.35103503 1.1951605 -2.6336858 2.3509886e-38
0.35038933 1.2077079 -2.6271584 2.3509886e-38
0.35394272 1.2156678 -2.6214635 2.3509886e-38
0.35713062 1.2237322 -2.6158559 2.3509886e-38
0.35781583 1.2315636 -2.6113555 2.3509886e-38
0.35492602 1.2394046 -2.6082516 2.3509886e-38
0.35055771 1.2483389 -2.6051359 2.3509886e-38
0.35498929 1.2552962 -2.5996385 2.3509886e-38
0.3487584 1.2643566 -2.5971851 2.3509886e-38
0.35242042 1.2745285 -2.5902529 2.3509886e-38
0.35035273 1.2828587 -2.5865622 2.3509886e-38
0.33113363 1.3400453 -2.5631933 2.3509886e-38
0.33372897 1.3480986 -2.5578237 2.3509886e-38
0.33110911 1.4024619 -2.5294738 2.3509886e-38
0.32024273 1.423836 -2.5221832 2.3509886e-38
0.32144758 1.4355551 -2.5153778 2.3509886e-38
0.31975877 1.4406471 -2.5132883 2.3509886e-38
0.31428456 1.4744511 -2.4971669 2.3509886e-38
0.30958885 1.4846216 -2.4935117 2.3509886e-38
0.30805659 1.4945692 -2.4887366 2.3509886e-38
0.30781081 1.5031075 -2.4842191 2.3509886e-38
0.30882373 1.5110042 -2.4795551 2.3509886e-38
0.30144861 1.5394362 -2.4670818 2.3509886e-38
0.30120066 1.5480441 -2.462527 2.3509886e-38
0.30031201 1.5574423 -2.4577971 2.3509886e-38
0.29556462 1.5675352 -2.4542038 2.3509886e-38
0.29316229 1.5782304 -2.4493663 2.3509886e-38
0.2935783 1.5869898 -2.4444695 2.3509886e-38
0.29093185 1.6033686 -2.436656 2.3509886e-38
0.29611707 1.626664 -2.4220345 2.3509886e-38
0.28870726 1.6427723 -2.416235 2.3509886e-38
0.28525695 1.6527501 -2.4121954 2.3509886e-38
0.28175759 1.6693931 -2.4045734 2.3509886e-38
0.27993026 1.6757469 -2.4018564 2.3509886e-38
0.27431327 1.7349099 -2.3720875 2.3509886e-38
0.27354547 1.7615776 -2.3579774 2.0657585e-38
0.36469987 1.0460504 -2.7089062 2.3509886e-38
0.36507806 1.0539408 -2.7044942 2.3509886e-38
0.36545613 1.0618312 -2.7000821 2.3509886e-38
0.35470125 1.0684099 -2.700743 2.3509886e-38
0.35716376 1.0770508 -2.6951082 2.3509886e-38
0.35668004 1.1161716 -2.6741574 2.3509886e-38
0.35574543 1.1396642 -2.6618285 2.3509886e-38
0.35139182 1.1485373 -2.6587405 2.3509886e-38
0.35485387 1.1653855 -2.648279 2.3509886e-38
0.35315555 1.1733471 -2.6446419 2.3509886e-38
0.34928969 1.1786498 -2.6432917 2.3509886e-38
0.34192809 1.2083015 -2.6301546 2.3509886e-38
0.34498474 1.2166492 -2.624445 2.3509886e-38
0.34537077 1.2247181 -2.6199336 2.3509886e-38
0.34575671 1.2327868 -2.6154222 2.3509886e-38
0.34614241 1.2408552 -2.6109104 2.3509886e-38
0.34487695 1.2499908 -2.6064701 2.3509886e-38
0.33952999 1.2577364 -2.6043806 2.3509886e-38
0.34023139 1.2656335 -2.599838 2.3509886e-38
0.34115404 1.2736293 -2.5951557 2.3509886e-38
0.33933401 1.2818455 -2.591429 2.3509886e-38
0.33910099 1.2899381 -2.5871472 2.3509886e-38
0.34353167 1.2978244 -2.5811486 2.3509886e-38
0.34255651 1.3079395 -2.5760648 2.3509886e-38
0.30639085 1.4291929 -2.5247188 2.3509886e-38
0.30551076 1.4348859 -2.5219874 2.3509886e-38
0.30660418 1.446412 -2.5153298 2.3509886e-38
0.30502287 1.4518298 -2.5130222 2.3509886e-38
0.3073073 1.4672778 -2.5037787 2.3509886e-38
0.29749936 1.4783413 -2.5016448 2.3509886e-38
0.29791102 1.4869283 -2.4968431 2.3509886e-38
0.29832271 1.4955153 -2.4920411 2.3509886e-38
0.29873464 1.5041028 -2.4872396 2.3509886e-38
0.29837731 1.5138423 -2.4821162 2.3509886e-38
0.28688851 1.5427948 -2.4709747 2.3509886e-38
0.28730825 1.5514916 -2.4661102 2.3509886e-38
0.28537506 1.5611902 -2.4616272 2.3509886e-38
0.28579405 1.5699171 -2.4567468 2.3509886e-38
0.28670543 1.577692 -2.4521883 2.3509886e-38
0.28736308 1.5859858 -2.4474485 2.3509886e-38
0.28397459 1.5976092 -2.4424958 2.3509886e-38
0.28629854 1.6115698 -2.4340405 2.3509886e-38
0.28624538 1.6375842 -2.4200039 2.3509886e-38
0.27697259 1.6549994 -2.4142277 2.3509886e-38
0.27593741 1.664636 -2.4094257 2.3509886e-38
0.27355447 1.6689075 -2.408052 2.3509886e-38
0.26396123 1.7541203 -2.3657646 2.3509886e-38
0.26370525 1.7630095 -2.3610613 2.3509886e-38
0.26241782 1.77455 -2.3553295 2.3509886e-38
0.26060927 1.794006 -2.345525 2.3509886e-38
0.35748586 1.0475636 -2.7109165 2.3509886e-38
0.35449672 1.0546628 -2.708252 2.3509886e-38
0.35376894 1.0634152 -2.7038074 2.3509886e-38
0.34601626 1.0698539 -2.7033672 2.3509886e-38
0.34639889 1.0778292 -2.6989076 2.3509886e-38
0.3486934 1.1256809 -2.6721494 2.3509886e-38
0.34875971 1.1335748 -2.6678579 2.3509886e-38
0.34914652 1.1415557 -2.6633935 2.3509886e-38
0.34542152 1.1666199 -2.651309 2.3509886e-38
0.34438303 1.1727691 -2.6483934 2.3509886e-38
0.33683491 1.180954 -2.646929 2.3509886e-38
0.33722836 1.1890587 -2.6423953 2.3509886e-38
0.33010638 1.2013605 -2.6385396 2.3509886e-38
0.341088 1.2119663 -2.6285031 2.3509886e-38
0.33348233 1.2178637 -2.6282978 2.3509886e-38
0.33870763 1.226316 -2.6216819 2.3509886e-38
0.33697182 1.2342386 -2.6180811 2.3509886e-38
0.33735979 1.2423074 -2.613569 2.3509886e-38
0.33657575 1.251186 -2.6090782 2.3509886e-38
0.33475444 1.2589921 -2.6055741 2.3509886e-38
0.33155712 1.2750114 -2.5981708 2.3509886e-38
0.32009903 1.2838155 -2.5979049 2.3509886e-38
0.31777847 1.2921617 -2.5943041 2.3509886e-38
0.32030925 1.3003554 -2.5888841 2.3509886e-38
0.33384737 1.3058932 -2.580585 2.3509886e-38
0.333442 1.3171543 -2.5746584 2.3509886e-38
0.31338537 1.3429978 -2.5685554 2.3509886e-38
0.2968823 1.4525822 -2.5158067 2.3509886e-38
0.29540059 1.4616665 -2.5114784 2.3509886e-38
0.29222417 1.4705633 -2.507916 2.3509886e-38
0.28814405 1.4798877 -2.5044765 2.3509886e-38
0.2893987 1.4887817 -2.4991786 2.3509886e-38
0.28596857 1.4980847 -2.4954963 2.3509886e-38
0.28389913 1.507575 -2.491179 2.3509886e-38
0.28313425 1.5163857 -2.4867175 2.3509886e-38
0.28473362 1.5248905 -2.4814944 2.3509886e-38
0.28263858 1.5336015 -2.4776084 2.3509886e-38
0.27943903 1.5444431 -2.4730043 2.3509886e-38
0.28344092 1.5512178 -2.4677744 2.3509886e-38
0.27660969 1.5616555 -2.464812 2.3509886e-38
0.27734634 1.5791177 -2.4550865 2.3509886e-38
0.27625158 1.5896134 -2.4498444 2.3509886e-38
0.27442476 1.5991988 -2.4453804 2.3509886e-38
0.2722421 1.6092287 -2.4408164 2.3509886e-38
0.2814669 1.6198349 -2.4314682 2.3509886e-38
0.28618303 1.6265883 -2.4259701 2.3509886e-38
0.29436755 1.6308861 -2.4204392 2.3509886e-38
0.28775498 1.6432766 -2.4163353 2.3509886e-38
0.27270925 1.6611652 -2.4125669 2.3509886e-38
0.26493365 1.6704214 -2.4106133 2.3509886e-38
0.26580453 1.6782489 -2.4060423 2.3509886e-38
0.25027648 1.7834023 -2.3553057 2.3509886e-38
0.2357676 1.9872761 -2.2508221 2.1389386e-38
0.34510168 1.0473977 -2.7158606 2.3509886e-38
0.332118 1.073223 -2.706995 2.3509886e-38
0.34300941 1.1518731 -2.6602237 2.3509886e-38
0.33429432 1.1555777 -2.6616385 2.3509886e-38
0.32974538 1.1746484 -2.6531165 2.3509886e-38
0.32539329 1.18206 -2.6508172 2.3509886e-38
0.32579252 1.1901989 -2.6462624 2.3509886e-38
0.33733961 1.2296383 -2.6204231 2.3509886e-38
0.33032081 1.2365941 -2.6194155 2.3509886e-38
0.32516387 1.260337 -2.6086068 2.3509886e-38
0.3247548 1.2678941 -2.6046834 2.3509886e-38
0.31503534 1.276154 -2.6040301 2.3509886e-38
0.31802884 1.3003846 -2.5897627 2.3509886e-38
0.31291395 1.3349068 -2.573112 2.3509886e-38
0.28723261 1.4324642 -2.5304613 2.3509886e-38
0.28504679 1.4540937 -2.5196297 2.3509886e-38
0.28546286 1.4626513 -2.5148423 2.3509886e-38
0.27572635 1.4823899 -2.5079925 2.3509886e-38
0.2761465 1.4910166 -2.5031662 2.3509886e-38
0.27656636 1.4996433 -2.4983397 2.3509886e-38
0.27801925 1.507257 -2.4936557 2.3509886e-38
0.27927151 1.5175985 -2.4875762 2.3509886e-38
0.28005216 1.5259818 -2.4827402 2.3509886e-38
0.27511039 1.5496349 -2.4718955 2.3509886e-38
0.26676887 1.5652436 -2.4667306 2.3509886e-38
0.26756313 1.5737606 -2.4618168 2.3509886e-38
0.26625818 1.5890759 -2.4540524 2.3509886e-38
0.2649478 1.6012484 -2.4479878 2.3509886e-38
0.25987887 1.6092423 -2.4456551 2.3509886e-38
0.26431879 1.6190197 -2.4386313 2.3509886e-38
0.26331899 1.6268399 -2.4347973 2.3509886e-38
0.29127115 1.6208513 -2.4270756 2.3509886e-38
0.28773037 1.6487278 -2.4133992 2.3509886e-38
0.25702211 1.680352 -2.4083486 2.3509886e-38
0.25856498 1.6879232 -2.4036522 2.3509886e-38
0.23457542 1.8158227 -2.343941 2.3509886e-38
0.25017557 1.9773611 -2.2505319 1.7979228e-38
0.34096053 1.051036 -2.7155185 2.3509886e-38
0.33766383 1.0654423 -2.7090256 2.3509886e-38
0.31157279 1.1828634 -2.6558006 2.3509886e-38
0.31188259 1.1946781 -2.6492949 2.3509886e-38
0.32289273 1.2618065 -2.6087031 2.3509886e-38
0.31666306 1.2777698 -2.6025188 2.3509886e-38
0.30478397 1.29417 -2.5983133 2.3509886e-38
0.3053827 1.3019947 -2.5938499 2.3509886e-38
0.28064448 1.4247689 -2.5372019 2.3509886e-38
0.2833569 1.4364419 -2.5298309 2.3509886e-38
0.27867565 1.4548342 -2.5217273 2.3509886e-38
0.27123258 1.4659173 -2.5186558 2.3509886e-38
0.27098671 1.4744557 -2.514138 2.3509886e-38
0.26632062 1.4839489 -2.5108371 2.3509886e-38
0.26420712 1.4933819 -2.5065687 2.3509886e-38
0.26716492 1.5012029 -2.5011823 2.3509886e-38
0.26504967 1.5106977 -2.4968808 2.3509886e-38
0.26688281 1.5183305 -2.4920375 2.3509886e-38
0.26382878 1.5277668 -2.4881356 2.3509886e-38
0.2632246 1.5378733 -2.4829109 2.3509886e-38
0.26907679 1.5421824 -2.4782879 2.3509886e-38
0.26308528 1.5535905 -2.4744718 2.3509886e-38
0.26521572 1.56024 -2.4700434 2.3509886e-38
0.25403714 1.5760765 -2.465868 2.3509886e-38
0.25441939 1.5857452 -2.4604931 2.3509886e-38
0.25522342 1.5942982 -2.4555562 2.3509886e-38
0.26478511 1.6189122 -2.4385068 2.3509886e-38
0.28737858 1.6419764 -2.4171858 2.3509886e-38
0.27973562 1.6629796 -2.4088321 2.3509886e-38
0.25469404 1.6956242 -2.4010081 2.3509886e-38
0.25724515 1.7006571 -2.3972881 2.3509886e-38
0.24292982 1.7186559 -2.3931737 2.3509886e-38
0.23742487 1.7305497 -2.3889043 2.3509886e-38
0.23215707 1.7688313 -2.3702829 2.3509886e-38
0.24417333 1.9858409 -2.2483025 1.8160754e-38
0.31159508 1.2554808 -2.6165502 2.3509886e-38
0.30933967 1.2631264 -2.6133029 2.3509886e-38
0.30530402 1.271469 -2.6103768 2.3509886e-38
0.30778179 1.2791919 -2.6052322 2.3509886e-38
0.27767521 1.3994951 -2.5520241 2.3509886e-38
0.27242005 1.412838 -2.5468738 2.3509886e-38
0.27421418 1.4471471 -2.5276301 2.3509886e-38
0.2694281 1.4571867 -2.5240812 2.3509886e-38
0.26438266 1.4664211 -2.5210688 2.3509886e-38
0.26153475 1.4758313 -2.5171003 2.3509886e-38
0.25991172 1.4848356 -2.5128703 2.3509886e-38
0.25477901 1.4949443 -2.5094202 2.3509886e-38
0.25520226 1.5036025 -2.5045755 2.3509886e-38
0.25668347 1.511245 -2.4998646 2.3509886e-38
0.25697729 1.5196266 -2.4952204 2.3509886e-38
0.25429985 1.5291535 -2.4911218 2.3509886e-38
0.25405201 1.5377616 -2.4865673 2.3509886e-38
0.25380406 1.5463693 -2.4820125 2.3509886e-38
0.25355616 1.5549771 -2.477458 2.3509886e-38
0.27026176 1.6185013 -2.4365819 2.3509886e-38
0.27714235 1.6673838 -2.4074688 2.3509886e-38
0.26388061 1.6927836 -2.398942 2.3509886e-38
0.24796207 1.7288623 -2.3856857 2.3509886e-38
0.23001584 1.749586 -2.3815222 2.3509886e-38
0.22835647 1.7627599 -2.3750534 2.3509886e-38
0.23989627 1.9804238 -2.2529066 1.9083425e-38
0.29547343 1.2559929 -2.6225939 2.3509886e-38
0.29962072 1.2651702 -2.6160085 2.3509886e-38
0.29999679 1.2721639 -2.612082 2.3509886e-38
0.30083504 1.2805598 -2.6072161 2.3509886e-38
0.29112256 1.2896708 -2.6061001 2.3509886e-38
0.28047985 1.3731706 -2.5651503 2.3509886e-38
0.2668044 1.3842906 -2.564502 2.3509886e-38
0.2672253 1.392754 -2.5597637 2.3509886e-38
0.26530772 1.4016438 -2.555711 2.3509886e-38
0.25823179 1.4165787 -2.5504146 2.3509886e-38
0.26603758 1.4223518 -2.5442345 2.3509886e-38
0.26176253 1.4402659 -2.5362298 2.3509886e-38
0.26010484 1.4501086 -2.5315607 2.3509886e-38
0.25862631 1.4590209 -2.5273247 2.3509886e-38
0.25504145 1.4679688 -2.5238943 2.3509886e-38
0.25276214 1.4774994 -2.5196376 2.3509886e-38
0.2506597 1.4868679 -2.5153995 2.3509886e-38
0.24692053 1.4962263 -2.5118079 2.3509886e-38
0.24771653 1.5046431 -2.5069473 2.3509886e-38
0.24960569 1.5122467 -2.5020981 2.3509886e-38
0.24501875 1.5219321 -2.4986625 2.3509886e-38
0.24477084 1.53054 -2.4941077 2.3509886e-38
0.24452308 1.5391481 -2.4895532 2.3509886e-38
0.25845063 1.6197463 -2.4405386 1.3744742e-38
0.27211985 1.6661154 -2.4101231 1.733745e-38
0.24282566 1.7369165 -2.383347 2.3509886e-38
0.23833197 1.7477629 -2.3792474 2.3509886e-38
0.23291428 1.7604104 -2.3745363 2.3509886e-38
0.22860113 1.7804611 -2.365392 2.3509886e-38
0.21243162 1.8092123 -2.356194 2.3142185e-38
0.29021719 1.1996543 -2.6550987 2.3509886e-38
0.29104441 1.2581645 -2.6231565 2.3509886e-38
0.29133603 1.2654251 -2.6191187 2.3509886e-38
0.29110482 1.2734578 -2.6148686 2.3509886e-38
0.29006684 1.2820052 -2.6106563 2.3509886e-38
0.27558386 1.291376 -2.6112702 2.3509886e-38
0.27260107 1.2996613 -2.6079624 2.3509886e-38
0.26992008 1.3081256 -2.604439 2.3509886e-38
0.26918632 1.3232114 -2.5965745 2.3509886e-38
0.26039785 1.376862 -2.5710275 2.3509886e-38
0.25757888 1.3858314 -2.567286 2.3509886e-38
0.25993282 1.3944906 -2.5616837 2.3509886e-38
0.25879249 1.4013971 -2.5583985 2.3509886e-38
0.25620189 1.4083617 -2.5556507 2.3509886e-38
0.25574091 1.4342283 -2.5418532 2.3509886e-38
0.25486633 1.4417198 -2.5381479 2.3509886e-38
0.24899636 1.4515461 -2.5351388 2.3509886e-38
0.24676679 1.4614345 -2.5306695 2.3509886e-38
0.24573267 1.4702277 -2.5263228 2.3509886e-38
0.24221562 1.4798468 -2.5225036 2.3509886e-38
0.24301362 1.488263 -2.5176427 2.3509886e-38
0.23623341 1.4974949 -2.5153122 2.3509886e-38
0.23308973 1.507808 -2.5109713 2.3509886e-38
0.23352155 1.5165062 -2.5061016 2.3509886e-38
0.23395334 1.5252045 -2.5012319 2.3509886e-38
0.23524198 1.5319266 -2.4970939 2.3509886e-38
0.23559497 1.5408425 -2.4921379 2.3509886e-38
0.2601324 1.6376998 -2.4301779 2.3509886e-38
0.26336446 1.6596109 -2.4170706 1.4569435e-38
0.25696135 1.6813248 -2.4078465 1.4199598e-38
0.25486958 1.6911973 -2.4033318 1.0881995e-38
0.2554045 1.6966698 -2.4001646 1.439044e-38
0.2430694 1.7400452 -2.3815606 2.341805e-38
0.23982123 1.7501129 -2.3773932 2.3509886e-38
0.23062919 1.7669927 -2.3718755 2.3509886e-38
0.22561356 1.7795548 -2.367053 2.3509886e-38
0.302147 1.102151 -2.7031119 2.3509886e-38
0.28175503 1.2092614 -2.6532247 2.3509886e-38
0.27872139 1.2181367 -2.6496179 2.3509886e-38
0.27020109 1.242381 -2.6398563 2.3509886e-38
0.27778941 1.2505072 -2.6324904 2.3509886e-38
0.27755642 1.2586 -2.6282084 2.3509886e-38
0.27732363 1.2666928 -2.6239271 2.3509886e-38
0.2754598 1.2756914 -2.6197946 2.3509886e-38
0.2742137 1.2837392 -2.6159341 2.3509886e-38
0.27090824 1.2920433 -2.6127427 2.3509886e-38
0.26267377 1.3012122 -2.6110158 2.3509886e-38
0.25975206 1.3179445 -2.6031194 2.3509886e-38
0.26002479 1.3245445 -2.5994456 2.3509886e-38
0.25978664 1.3328205 -2.5950668 2.3509886e-38
0.2595484 1.3410966 -2.590688 2.3509886e-38
0.24707849 1.3619814 -2.5842905 2.3509886e-38
0.25407776 1.3660285 -2.5793595 2.3509886e-38
0.250873 1.3794138 -2.5733826 2.3509886e-38
0.25164378 1.3868182 -2.5690792 2.3509886e-38
0.25437656 1.3905578 -2.5659871 2.3509886e-38
0.24629217 1.3999383 -2.5640872 2.3509886e-38
0.24708283 1.4079491 -2.5594485 2.3509886e-38
0.24550177 1.4272951 -2.5496135 2.3509886e-38
0.24010579 1.4359668 -2.5470431 2.3509886e-38
