# .PCD v0.7 - Point Cloud Data file format
VERSION 0.7
FIELDS x y z rgb
SIZE 4 4 4 4
TYPE F F F F
COUNT 1 1 1 1
WIDTH 988
HEIGHT 1
VIEWPOINT 0 0 0 1 0 0 0
POINTS 988
DATA ascii
-0.69880795 0.79337108 -0.64287251 1.6125575e-38
-0.69860989 0.79837227 -0.64151782 1.5756783e-38
-0.69852 0.80296665 -0.63997245 1.5480556e-38
-0.69873947 0.80634749 -0.63790238 1.5480195e-38
-0.69881219 0.81030852 -0.63607973 1.5573469e-38
-0.6991055 0.81445271 -0.63346297 1.4835897e-38
-0.69898033 0.81910288 -0.63201088 1.5941879e-38
-0.70049965 0.81843883 -0.62731451 1.4834834e-38
-0.70050234 0.8227272 -0.62558925 1.4744786e-38
-0.70057458 0.82674402 -0.6237458 1.5021016e-38
-0.70060116 0.83094001 -0.62197965 1.4928466e-38
-0.70026553 0.83668864 -0.62077481 1.4652242e-38
-0.70070767 0.84055412 -0.61778373 1.520541e-38
-0.7007699 0.84554338 -0.61558366 1.5021003e-38
-0.70164585 0.85155922 -0.61031508 1.3821759e-38
-0.70200336 0.854087 -0.6081357 1.4928468e-38
-0.70208073 0.85815841 -0.6062535 1.4560396e-38
-0.70190001 0.86336619 -0.60475916 1.5020295e-38
-0.70227867 0.86744028 -0.60189223 1.4095473e-38
-0.7028119 0.86907691 -0.59949565 1.5111767e-38
-0.70252842 0.87348491 -0.59865719 1.4835544e-38
-0.70258147 0.87869525 -0.59639835 1.4191256e-38
-0.70378101 0.8799035 -0.59199721 1.4100134e-38
-0.70365465 0.88497961 -0.59037834 1.4376009e-38
-0.7035296 0.89007127 -0.58874887 1.4559326e-38
-0.70375293 0.89353776 -0.58663189 1.4742276e-38
-0.7035774 0.899185 -0.58494514 1.3635217e-38
-0.70407099 0.90135521 -0.5824644 1.4190906e-38
-0.7036978 0.90828413 -0.58091021 1.4189814e-38
-0.70420986 0.9091484 -0.57889187 1.3914667e-38
-0.70506424 0.91668957 -0.57308304 1.4189814e-38
-0.70495743 0.92162883 -0.5714553 1.4098705e-38
-0.70547646 0.92351907 -0.56900334 1.4006516e-38
-0.70602208 0.92721236 -0.56574327 1.4374934e-38
-0.70590883 0.93241483 -0.56403089 1.4099075e-38
-0.70594966 0.9368363 -0.56212813 1.4375297e-38
-0.70583838 0.94206619 -0.5603981 1.4651876e-38
-0.70562077 0.94786274 -0.55878901 1.3360055e-38
-0.70676631 0.94904637 -0.55457395 1.3362949e-38
-0.70654041 0.9563452 -0.55239052 1.4099794e-38
-0.70679808 0.95986527 -0.55014014 1.3177099e-38
-0.70742959 0.96164668 -0.54736459 1.3360773e-38
-0.70747387 0.9661333 -0.54542428 1.3730285e-38
-0.70760691 0.96921253 -0.54375726 1.4006144e-38
-0.70751071 0.97343636 -0.54238093 1.382248e-38
-0.70828009 0.97815192 -0.53798091 1.3822474e-38
-0.70865411 0.98096025 -0.53563547 1.3730643e-38
-0.70888811 0.98453891 -0.5334388 1.410087e-38
-0.7087217 0.99021351 -0.53171098 1.3546619e-38
-0.709153 0.99346906 -0.52899969 1.410015e-38
-0.70895922 0.99912608 -0.52736825 1.4009746e-38
-0.70895314 1.0037636 -0.52553207 1.3731015e-38
-0.70923769 1.0074776 -0.52311605 1.3822845e-38
-0.70914048 1.0126563 -0.52136087 1.3546619e-38
-0.70972985 1.0168402 -0.51776171 1.4470363e-38
-0.70979255 1.020859 -0.51594836 1.3917189e-38
-0.71067423 1.0219105 -0.51264793 1.3085636e-38
-0.71086419 1.0256512 -0.51053041 1.3823204e-38
-0.71084279 1.0304402 -0.50868344 1.3732812e-38
-0.71082795 1.0359724 -0.50651789 1.3640243e-38
-0.71090996 1.0402238 -0.50454837 1.3272181e-38
-0.71093595 1.044801 -0.5026316 1.3363666e-38
-0.71167725 1.048439 -0.49875444 1.4378177e-38
-0.71210909 1.0529866 -0.49552408 1.4189833e-38
-0.71248811 1.057888 -0.49232441 1.252993e-38
-0.71271193 1.0618188 -0.4900201 1.0778209e-38
-0.71310318 1.0642024 -0.48778829 1.0778575e-38
-0.71305621 1.0688035 -0.48610026 1.0502348e-38
-0.71317154 1.0715823 -0.48461118 1.0962969e-38
-0.71412998 1.0782121 -0.47882748 1.3084891e-38
-0.7141701 1.0831181 -0.47673321 1.197783e-38
-0.71418077 1.088008 -0.47474113 1.1425023e-38
-0.71572042 1.1216102 -0.4562642 1.1610138e-38
-0.7167967 1.1319978 -0.4485912 1.1149532e-38
-0.71637219 1.1402072 -0.44669214 1.0967303e-38
-0.71621269 1.1466433 -0.444637 1.115025e-38
-0.71630681 1.1513722 -0.44243693 1.1333936e-38
-0.71705657 1.1545669 -0.43870994 1.0965858e-38
-0.7167477 1.1628743 -0.43639365 1.078254e-38
-0.71807301 1.1697505 -0.429313 1.0875821e-38
-0.67840242 0.35839829 -0.88360763 1.4191988e-38
-0.67960054 0.38630491 -0.86852574 1.4377467e-38
-0.67935646 0.39064813 -0.86758453 1.456042e-38
-0.67938691 0.39380023 -0.86622369 1.4377457e-38
-0.68027139 0.39930865 -0.86113 1.428346e-38
-0.68004292 0.40375409 -0.86009693 1.4098716e-38
-0.68007356 0.40694138 -0.85872149 1.4097636e-38
-0.68017459 0.41003969 -0.85715133 1.4098353e-38
-0.68056095 0.41221207 -0.85502011 1.4003635e-38
-0.68073577 0.41491461 -0.85336739 1.4190553e-38
-0.68086118 0.41839331 -0.85156566 1.4003286e-38
-0.68046391 0.4211148 -0.8517738 1.3821409e-38
-0.68130946 0.42795855 -0.84627306 1.1603651e-38
-0.68111998 0.42992699 -0.8461042 1.4005439e-38
-0.6813041 0.43466866 -0.84360486 1.2157192e-38
-0.68107563 0.44310591 -0.84097433 1.2807613e-38
-0.6812641 0.44604439 -0.83918244 1.2901608e-38
-0.68139279 0.44938245 -0.83742666 8.8450057e-39
-0.68158138 0.45233232 -0.83562988 1.004282e-38
-0.68258077 0.4545041 -0.83149672 7.5517249e-39
-0.68257147 0.45787171 -0.83017915 7.9194369e-39
-0.68246418 0.46140924 -0.82911348 7.5495739e-39
-0.68240833 0.46586233 -0.82751369 7.3680497e-39
-0.68255663 0.46835026 -0.82603371 7.548139e-39
-0.68316227 0.47154972 -0.82277519 7.0871623e-39
-0.68298888 0.47524041 -0.82186419 6.5347088e-39
-0.68385357 0.47765741 -0.81807286 9.1179927e-39
-0.68405646 0.48069516 -0.81619418 8.7495647e-39
-0.68378389 0.48399153 -0.81576538 9.2076534e-39
-0.68361294 0.48620772 -0.81543672 7.4577455e-39
-0.68422627 0.48813733 -0.81266129 8.5655392e-39
-0.68413419 0.49169326 -0.81153882 9.1158263e-39
-0.68410379 0.49550861 -0.81011081 9.2105428e-39
-0.68416941 0.49901879 -0.80849177 8.4733309e-39
-0.68498796 0.50108218 -0.80499244 9.7640866e-39
-0.68513882 0.50803113 -0.80171847 1.0410524e-38
-0.68517929 0.51142377 -0.8002286 1.0501283e-38
-0.68574303 0.51411045 -0.79731214 1.0963707e-38
-0.6855818 0.51792461 -0.79631215 1.1054455e-38
-0.68564963 0.52128756 -0.79474455 1.0871495e-38
-0.68559819 0.52438504 -0.7936731 1.0134638e-38
-0.68640947 0.52673846 -0.7900815 1.0964771e-38
-0.68662816 0.53060055 -0.78782153 1.2439555e-38
-0.68581074 0.53487557 -0.78878003 1.0411251e-38
-0.68697476 0.53579551 -0.78461027 1.3176768e-38
-0.68691671 0.53946429 -0.78333157 1.2900186e-38
-0.68696004 0.54291803 -0.78180748 1.2992022e-38
-0.68700367 0.54637754 -0.78028035 1.2990938e-38
-0.68685031 0.55028474 -0.7792176 1.216153e-38
-0.68807095 0.55564916 -0.77308393 1.4467864e-38
-0.68814397 0.55907166 -0.77147567 1.4466418e-38
-0.68872154 0.56178916 -0.7685017 1.4835914e-38
-0.68876672 0.56527913 -0.76695752 1.49292e-38
-0.68867004 0.5701074 -0.76534069 1.5112512e-38
-0.68828797 0.57728344 -0.76371628 1.4743724e-38
-0.68883449 0.58163649 -0.76018935 1.456005e-38
-0.68902671 0.58471727 -0.75832832 1.465189e-38
-0.68993008 0.58685833 -0.75452125 1.5850074e-38
-0.68967134 0.59116971 -0.75364053 1.5573839e-38
-0.69013315 0.59367663 -0.75112909 1.548093e-38
-0.68992859 0.59787571 -0.75011623 1.5666751e-38
-0.69051743 0.60062146 -0.74709427 1.5574196e-38
-0.69053686 0.6042701 -0.7455706 1.5758229e-38
-0.6903348 0.60850412 -0.74453586 1.5573119e-38
-0.69080734 0.61214536 -0.74153525 1.5479121e-38
-0.6911521 0.61510766 -0.73922366 1.5758592e-38
-0.69104522 0.61912465 -0.73796487 1.5298687e-38
-0.69033879 0.62391102 -0.73835665 1.5023177e-38
-0.69115776 0.62471956 -0.73535818 1.5759308e-38
-0.69051099 0.63077956 -0.73504519 1.5850413e-38
-0.69171792 0.63136214 -0.73087019 1.6126656e-38
-0.69155747 0.63634533 -0.72939956 1.5757142e-38
-0.6929704 0.63685358 -0.72458178 1.6126302e-38
-0.69271487 0.64137429 -0.72360682 1.6218494e-38
-0.69292521 0.64457232 -0.72163993 1.6034805e-38
-0.69297898 0.64822012 -0.72000438 1.5849702e-38
-0.69345737 0.6513713 -0.71718073 1.5480919e-38
-0.69314748 0.65528572 -0.71662635 1.5110344e-38
-0.69327372 0.65841991 -0.71495944 1.5942264e-38
-0.69317746 0.66180772 -0.71391779 1.6217041e-38
-0.69404101 0.67049766 -0.70761943 1.6034096e-38
-0.69413894 0.67365807 -0.70603472 1.547911e-38
-0.69379193 0.67630655 -0.70610815 1.5111774e-38
-0.69467676 0.67817682 -0.70246977 1.6402156e-38
-0.69449723 0.68263811 -0.7012704 1.6217411e-38
-0.6945042 0.68652272 -0.69969285 1.5664954e-38
-0.69453919 0.69033802 -0.69805157 1.6034456e-38
-0.6958164 0.69593078 -0.69164205 1.5666392e-38
-0.69552171 0.70084339 -0.69063818 1.5849707e-38
-0.69581759 0.70473218 -0.68811536 1.5664957e-38
-0.69563884 0.70931333 -0.68686569 1.5664237e-38
-0.69585288 0.71258879 -0.68485576 1.594226e-38
-0.69553024 0.71766567 -0.68387729 1.6310683e-38
-0.69554192 0.72163206 -0.68225181 1.5940452e-38
-0.69602633 0.72679526 -0.67860311 1.5940454e-38
-0.69596851 0.73090702 -0.67714643 1.5940097e-38
-0.69743466 0.73134834 -0.67218137 1.5850066e-38
-0.69736099 0.73566496 -0.67069435 1.5572752e-38
-0.69742531 0.73949045 -0.66895306 1.5481276e-38
-0.69725746 0.74417305 -0.6676271 1.5480922e-38
-0.6972459 0.7483055 -0.66601092 1.5572757e-38
-0.69739652 0.75250554 -0.66383803 1.4925943e-38
-0.69775975 0.75574726 -0.6613543 1.566459e-38
-0.69762266 0.76023084 -0.66000748 1.5481268e-38
-0.69861329 0.76015097 -0.65680408 1.5017787e-38
-0.69860637 0.76424634 -0.65518773 1.5572397e-38
-0.69882268 0.76757997 -0.65314692 1.5481637e-38
-0.69866419 0.77234471 -0.65175766 1.5389084e-38
-0.69868296 0.77642733 -0.65006202 1.5388726e-38
-0.69890016 0.77977288 -0.64801383 1.5388722e-38
-0.69935566 0.78362864 -0.64498287 1.5019918e-38
-0.70023018 0.7864722 -0.64098877 1.4650072e-38
-0.70007217 0.79149896 -0.63949287 1.6034089e-38
-0.70007104 0.79573381 -0.63780159 1.5756783e-38
-0.6998747 0.80074692 -0.63643646 1.5572394e-38
-0.70009315 0.80412364 -0.63437182 1.557311e-38
-0.70016348 0.80810708 -0.63254744 1.5389079e-38
-0.70081365 0.81102151 -0.62925774 1.4928105e-38
-0.70080251 0.81485957 -0.62775803 1.4928103e-38
-0.7016961 0.8156566 -0.6245206 1.4280561e-38
-0.7019819 0.81867409 -0.6223793 1.5020302e-38
-0.70230967 0.82159561 -0.62013954 1.5295815e-38
-0.70201153 0.82715148 -0.61888945 1.5019948e-38
-0.70201671 0.83145839 -0.617149 1.529761e-38
-0.70200247 0.83714324 -0.61492008 1.4464966e-38
-0.70234346 0.8401469 -0.61260438 1.4928827e-38
-0.70215851 0.8453021 -0.61114502 1.4929189e-38
-0.70238006 0.84832007 -0.60921353 1.483626e-38
-0.70336509 0.85180509 -0.60460162 1.511322e-38
-0.70310229 0.85610098 -0.60374051 1.4560755e-38
-0.70331436 0.85898966 -0.60189176 1.5021017e-38
-0.70332575 0.86336464 -0.60010386 1.4836629e-38
-0.70418477 0.86853391 -0.59522915 1.4466756e-38
-0.70386678 0.87575251 -0.59337848 1.4375645e-38
-0.70479822 0.88571304 -0.58635008 1.4467835e-38
-0.70533085 0.88880706 -0.58337218 1.4833033e-38
-0.70520973 0.89390355 -0.58172786 1.4096559e-38
-0.70530468 0.89964586 -0.57911944 1.474444e-38
-0.70552754 0.90312427 -0.57699931 1.4745509e-38
-0.7055639 0.90748835 -0.57513398 1.4744786e-38
-0.70568132 0.91056621 -0.57351846 1.3821747e-38
-0.70562148 0.91450059 -0.57213956 1.3359696e-38
-0.70591778 0.91792107 -0.56980264 1.354338e-38
-0.7065801 0.92105407 -0.56638563 1.4282024e-38
-0.70708311 0.92477149 -0.56325483 1.3267145e-38
-0.70735431 0.92823553 -0.56098288 1.4743358e-38
-0.70757788 0.93173689 -0.55885124 1.4098706e-38
-0.70741773 0.93717897 -0.5571962 1.373136e-38
-0.70730996 0.94240516 -0.55545658 1.3730645e-38
-0.70791745 0.94625121 -0.55193323 1.382283e-38
-0.70813936 0.95135093 -0.5491671 1.3731007e-38
-0.70780027 0.95592839 -0.54844254 1.4099775e-38
-0.70844352 0.95759612 -0.54567426 1.2991997e-38
-0.7091502 0.95870817 -0.54292125 1.3454054e-38
-0.70909655 0.96371347 -0.54109341 1.3822121e-38
-0.70894468 0.96925712 -0.53937048 1.3822119e-38
-0.70917028 0.97280508 -0.53721368 1.3638803e-38
-0.70997995 0.98062003 -0.53144145 1.400686e-38
-0.71015382 0.98601842 -0.52871311 1.4193057e-38
-0.71075261 0.98980409 -0.52524227 1.4101215e-38
-0.71051764 0.99568737 -0.52365482 1.4009022e-38
-0.71074951 0.99970716 -0.52128875 1.3916116e-38
-0.71057636 1.0052912 -0.51961911 1.4191621e-38
-0.71042544 1.0097544 -0.51832592 1.4376006e-38
-0.71094155 1.0109574 -0.51615888 1.2346638e-38
-0.71141261 1.014376 -0.51325208 1.4009389e-38
-0.71185505 1.0196486 -0.50969696 1.3361145e-38
-0.71208745 1.0231566 -0.50753373 1.3270033e-38
-0.71251696 1.0266485 -0.50473332 1.3823923e-38
-0.71243536 1.0318424 -0.50292116 1.3823914e-38
-0.71236283 1.0369774 -0.50110263 1.3639879e-38
-0.71245313 1.0419391 -0.49882221 1.3455861e-38
-0.71290451 1.0460607 -0.49569809 1.3548777e-38
-0.71292418 1.0516961 -0.49337837 1.4468925e-38
-0.7129128 1.0562629 -0.491588 1.3544438e-38
-0.71488601 1.0608765 -0.48329678 1.1147362e-38
-0.71502554 1.0769652 -0.4764019 1.1979284e-38
-0.7165997 1.0884793 -0.46665254 1.0871862e-38
-0.71746802 1.1241767 -0.44952896 1.1703774e-38
-0.7183401 1.1284326 -0.4449774 1.0966936e-38
-0.71803188 1.1358469 -0.44301677 1.096731e-38
-0.71776336 1.1430448 -0.44101283 1.1058054e-38
-0.71752894 1.1500692 -0.43896711 1.0965863e-38
-0.71800512 1.1532201 -0.43615061 1.0042826e-38
-0.71826547 1.1571149 -0.43374142 1.0689993e-38
-0.71811879 1.1635438 -0.43164778 1.1150251e-38
-0.71975833 1.1635253 -0.42630026 1.1150974e-38
-0.67962426 0.35398862 -0.88138235 1.3455872e-38
-0.67948961 0.35724103 -0.88052034 1.4099792e-38
-0.67968678 0.36014247 -0.87871534 1.4191635e-38
-0.67971373 0.3632296 -0.87739152 1.4007245e-38
-0.67941725 0.36668888 -0.87697536 1.4007962e-38
-0.67953342 0.37013116 -0.87521815 1.3635946e-38
-0.67983246 0.37341538 -0.87292707 1.3915412e-38
-0.68058413 0.37892288 -0.86826777 1.3913235e-38
-0.68078172 0.38184699 -0.86645222 1.3821758e-38
-0.68040758 0.38519087 -0.86633587 1.3911426e-38
-0.68035388 0.38969964 -0.8647064 1.3545163e-38
-0.6805082 0.39263755 -0.86302692 1.4283098e-38
-0.68048447 0.3958706 -0.86181021 1.4466413e-38
-0.68113989 0.40184611 -0.85727799 9.1143591e-39
-0.68102461 0.40593779 -0.85601687 1.0499834e-38
-0.68133473 0.40814269 -0.85412157 9.3912977e-39
-0.68159002 0.41108057 -0.85211205 9.5749673e-39
-0.68155587 0.41408166 -0.8510223 9.2090827e-39
-0.68175167 0.41745618 -0.8490324 9.8504752e-39
-0.68132174 0.42188907 -0.8486622 1.0870398e-38
-0.68184912 0.42603678 -0.84527981 7.6460884e-39
-0.68203586 0.42895302 -0.84350282 8.5683866e-39
-0.68167824 0.43268967 -0.84317511 9.0297235e-39
-0.68157315 0.43605611 -0.84217095 9.3970767e-39
-0.68267727 0.43764991 -0.83792704 7.0896678e-39
-0.68271047 0.44090346 -0.83651626 6.6294239e-39
-0.68238688 0.44473121 -0.83604127 7.1818746e-39
-0.6829313 0.44736883 -0.83320755 6.8145312e-39
-0.6832754 0.45014101 -0.83097416 6.4446753e-39
-0.68411165 0.45255041 -0.82727873 9.4864137e-39
-0.68396515 0.45613566 -0.8263222 9.209461e-39
-0.68378985 0.45977938 -0.82543647 9.0254299e-39
-0.68378198 0.46315646 -0.82411063 8.7499234e-39
-0.68400639 0.46713522 -0.82178515 8.3814982e-39
-0.68427962 0.470272 -0.81963736 9.8562752e-39
-0.68414849 0.47388431 -0.81861979 9.7644369e-39
-0.68513954 0.47873774 -0.8134405 1.0041029e-38
-0.6846059 0.48178357 -0.81396431 9.487836e-39
-0.68534827 0.4834168 -0.81088603 1.0227577e-38
-0.68534565 0.4868353 -0.80952644 1.0319414e-38
-0.6851778 0.4905681 -0.8085807 1.0594202e-38
-0.68559802 0.49349967 -0.80603516 1.1055895e-38
-0.68549812 0.49712938 -0.80490839 1.0871508e-38
-0.68530351 0.50101286 -0.80398989 9.8580548e-39
-0.68649566 0.502792 -0.79938424 1.2810137e-38
-0.6865347 0.50617319 -0.79790336 1.2441354e-38
-0.68657398 0.50956017 -0.7964195 1.2162968e-38
-0.68730265 0.51191097 -0.79309881 1.363882e-38
-0.6869387 0.51613134 -0.79259831 1.3454787e-38
-0.686979 0.51953769 -0.79110342 1.3177128e-38
-0.68718332 0.52261335 -0.78920507 1.3268599e-38
-0.68834156 0.52896583 -0.78287995 1.4652607e-38
-0.68819493 0.5333631 -0.78159881 1.4189112e-38
-0.68851256 0.53710216 -0.77906495 1.4654046e-38
-0.68852097 0.54062432 -0.77762777 1.4745529e-38
-0.68834466 0.54811972 -0.77520359 1.4743732e-38
-0.68819201 0.55203193 -0.7741363 1.4836291e-38
-0.68872309 0.55338091 -0.77186215 1.5021019e-38
-0.68913877 0.55590546 -0.76949418 1.5204698e-38
-0.68999207 0.56010258 -0.76502723 1.5389456e-38
-0.68979895 0.56350017 -0.76429814 1.4928474e-38
-0.68989509 0.56543219 -0.76321101 1.5021746e-38
-0.69019735 0.56778562 -0.76128167 1.5296182e-38
-0.68977797 0.57273597 -0.76067013 1.5205767e-38
-0.69030815 0.57526207 -0.75792772 1.5665324e-38
-0.69019347 0.57918257 -0.75673288 1.5758589e-38
-0.69004917 0.58318186 -0.75560349 1.5666761e-38
-0.69067198 0.58619177 -0.75236487 1.5112128e-38
-0.6910708 0.58911848 -0.74989116 1.5850425e-38
-0.6912781 0.59226358 -0.74795514 1.6126654e-38
-0.69119751 0.59614593 -0.74666452 1.594263e-38
-0.69156361 0.5991028 -0.74428535 1.5295815e-38
-0.6918726 0.60235566 -0.74197429 1.5665675e-38
-0.69176537 0.60634422 -0.74072814 1.5850069e-38
-0.69149339 0.61045587 -0.7399708 1.5574195e-38
-0.69255412 0.61299944 -0.73548841 1.5666039e-38
-0.69260448 0.6165899 -0.7338869 1.5573476e-38
-0.69190234 0.62130535 -0.73429275 1.5482718e-38
-0.69291109 0.62229133 -0.73060352 1.57586e-38
-0.69287443 0.62615067 -0.72917873 1.5941548e-38
-0.6927076 0.62946683 -0.72839642 1.5387287e-38
-0.69305736 0.63202924 -0.72622854 1.5850072e-38
-0.69387347 0.63991719 -0.72040612 1.6217771e-38
-0.69408298 0.64311373 -0.71844244 1.5757872e-38
-0.69413602 0.64676166 -0.71680915 1.6125928e-38
-0.69446188 0.65036052 -0.71430457 1.621669e-38
-0.69428658 0.65372801 -0.71352935 1.5202537e-38
-0.69461554 0.6564014 -0.71138489 1.5941906e-38
-0.69464576 0.66015625 -0.70978349 1.6218135e-38
-0.69467449 0.66508245 -0.70771807 1.6125577e-38
-0.69509876 0.6667468 -0.70566612 1.6124844e-38
-0.69557428 0.66893464 -0.70323747 1.5849704e-38
-0.69523209 0.67387551 -0.70237756 1.6310314e-38
-0.69584566 0.67667693 -0.69925249 1.6034093e-38
-0.69582123 0.68065608 -0.69773954 1.5756431e-38
-0.6957587 0.68476433 -0.69629955 1.5756793e-38
-0.69579428 0.68857479 -0.69465816 1.6126649e-38
-0.6958015 0.69247437 -0.69307393 1.6218484e-38
-0.69620937 0.69642359 -0.69016105 1.5572748e-38
-0.69620335 0.70029074 -0.68863308 1.5572393e-38
-0.69731474 0.70322436 -0.68382925 1.5757509e-38
-0.69752699 0.70648539 -0.68183094 1.5667103e-38
-0.69760561 0.7118845 -0.6794132 1.6403959e-38
-0.69722283 0.71568972 -0.67914051 1.6311029e-38
-0.69728255 0.71928042 -0.67750812 1.6126284e-38
-0.69767898 0.72291172 -0.67475998 1.5942257e-38
-0.69753569 0.72743517 -0.67341769 1.5941537e-38
-0.69848371 0.72975522 -0.66939294 1.5385852e-38
-0.69866121 0.73369682 -0.66723567 1.6034453e-38
-0.69875962 0.73740852 -0.6654284 1.5757862e-38
-0.69882357 0.74123758 -0.66368723 1.566567e-38
-0.69881225 0.74535888 -0.66207474 1.5757865e-38
-0.69882667 0.74938172 -0.66041762 1.5573108e-38
-0.69912189 0.75349557 -0.65780675 1.5664598e-38
-0.69885623 0.75840628 -0.65670902 1.5572386e-38
-0.70010853 0.75720048 -0.65310168 1.4647921e-38
-0.70024294 0.76099378 -0.6511445 1.5111422e-38
-0.70023626 0.76515657 -0.64950019 1.4835907e-38
-0.70011771 0.76976329 -0.64804357 1.5389078e-38
-0.70013571 0.77384168 -0.64635247 1.5849343e-38
-0.70040876 0.7781598 -0.64373243 1.5666388e-38
-0.70062506 0.78150636 -0.6416865 1.5388358e-38
-0.70054483 0.78601044 -0.64014602 1.5388714e-38
-0.70170826 0.78816402 -0.63548428 1.5941537e-38
-0.70170748 0.79238552 -0.63379735 1.5756064e-38
-0.70170718 0.79661691 -0.63210446 1.557168e-38
-0.70121509 0.8017869 -0.63164258 1.5205043e-38
-0.70185012 0.80244654 -0.62930447 1.4557165e-38
-0.70192808 0.8066628 -0.62736249 1.5112498e-38
-0.7020005 0.810646 -0.62553161 1.4928111e-38
-0.70201671 0.8150574 -0.62371337 1.4835188e-38
-0.70340681 0.82042438 -0.61702508 1.5387284e-38
-0.70362467 0.82380813 -0.61495924 1.492882e-38
-0.70363027 0.82810241 -0.6132223 1.575786e-38
-0.70354867 0.8327682 -0.61162138 1.5297238e-38
-0.70385331 0.83723116 -0.60884035 1.474407e-38
-0.70368916 0.84227496 -0.60735732 1.5019937e-38
-0.70388889 0.84579104 -0.60529798 1.5020656e-38
-0.70459759 0.85310763 -0.6000551 1.4744782e-38
-0.7043829 0.85832465 -0.59866804 1.4745492e-38
-0.70469636 0.86072165 -0.59668505 1.3635214e-38
-0.70498037 0.8627975 -0.59492666 1.4374217e-38
-0.70564777 0.86574298 -0.59156841 1.5296525e-38
-0.70548964 0.87087852 -0.59002906 1.4928463e-38
-0.70570976 0.87431705 -0.58793402 1.4651514e-38
-0.70560378 0.8792662 -0.58629948 1.4466759e-38
-0.70592409 0.88339227 -0.58360159 1.3728119e-38
-0.70675868 0.88615006 -0.57977235 1.4558952e-38
-0.70667392 0.89106864 -0.57808048 1.409762e-38
-0.70691639 0.89734685 -0.57477593 1.4467836e-38
-0.70688462 0.90204781 -0.57299799 1.4559677e-38
-0.70692039 0.90641403 -0.57113391 1.4191615e-38
-0.70700866 0.91056162 -0.5691855 1.4282729e-38
-0.7079007 0.91332537 -0.565166 1.4468189e-38
-0.7081998 0.91743416 -0.56254447 1.4282369e-38
-0.70823741 0.9218303 -0.56066233 1.3913948e-38
-0.70892292 0.92482561 -0.55722463 1.4467123e-38
-0.70894676 0.92933273 -0.55534279 1.4283095e-38
-0.70916921 0.93283039 -0.5532164 1.4006867e-38
-0.70891249 0.93879169 -0.55166888 1.4097992e-38
-0.70841408 0.94700468 -0.55000961 1.3267874e-38
-0.70945323 0.94739014 -0.54646146 1.3913955e-38
-0.70943898 0.95201427 -0.54465723 1.400758e-38
-0.7098676 0.95448631 -0.54226804 1.2623939e-38
-0.71053457 0.9565379 -0.53926843 1.4376728e-38
-0.71029252 0.96231288 -0.53774774 1.4376369e-38
-0.71040106 0.96623003 -0.53582549 1.4191621e-38
-0.71061265 0.96999156 -0.53362888 1.3638091e-38
-0.71038359 0.97601771 -0.53196532 1.4376016e-38
-0.71098483 0.97910416 -0.52876616 1.4469282e-38
-0.71113706 0.98374122 -0.5264132 1.4562554e-38
-0.71203679 0.987508 -0.52196699 1.4284893e-38
-0.7124241 0.99161476 -0.51905829 1.3362587e-38
-0.71221465 0.9979133 -0.51722163 1.3824642e-38
-0.71229345 1.0020903 -0.51529247 1.3916116e-38
-0.71188003 1.0090443 -0.51385951 1.3732086e-38
-0.71253908 1.0126206 -0.51027566 1.4008673e-38
-0.7126351 1.0182416 -0.5077123 1.4561115e-38
-0.71278203 1.0217795 -0.50581634 1.4192338e-38
-0.71403587 1.0280939 -0.4991942 1.3639522e-38
-0.71385187 1.0346555 -0.49716893 1.3363294e-38
-0.71388721 1.0391481 -0.49525538 1.3547335e-38
-0.71398932 1.0439045 -0.49301812 1.3453693e-38
-0.71460468 1.0447183 -0.49068278 1.419341e-38
-0.71420211 1.0508144 -0.48955777 1.4375662e-38
-0.71455479 1.054255 -0.48702869 1.3636999e-38
-0.71478623 1.0575725 -0.48494518 1.0774611e-38
-0.71643227 1.0573821 -0.47964552 1.1422855e-38
-0.71698529 1.0770507 -0.46996716 1.2440247e-38
-0.71702439 1.0816176 -0.46801171 1.2347338e-38
-0.71885008 1.1156025 -0.44844726 1.1702692e-38
-0.71873629 1.1216173 -0.44641143 1.179489e-38
-0.71993417 1.1287419 -0.43964753 1.0134664e-38
-0.71954989 1.1361328 -0.4379445 1.0965857e-38
-0.71945626 1.1421508 -0.43584183 1.0691071e-38
-0.71859628 1.1511246 -0.43505865 1.1150244e-38
-0.71990108 1.150623 -0.43099815 1.0781831e-38
-0.71996897 1.1555178 -0.42881724 1.1058065e-38
-0.71976244 1.1614829 -0.42710447 1.0320129e-38
-0.68055719 0.35299769 -0.87873197 1.2439538e-38
-0.6800862 0.35689089 -0.8787123 1.2068581e-38
-0.68072116 0.35904011 -0.8757782 1.2346992e-38
-0.68064737 0.36223781 -0.87473935 1.2624299e-38
-0.68046665 0.36556867 -0.87399638 1.2993079e-38
-0.68055046 0.36860713 -0.87250662 1.3360781e-38
-0.68092048 0.37225044 -0.86983991 1.3638088e-38
-0.68079841 0.37554216 -0.86892122 1.3821765e-38
-0.6814127 0.37806398 -0.86590582 9.3956389e-39
-0.68138623 0.38126338 -0.86471146 9.4878388e-39
-0.68142968 0.38409203 -0.86343753 8.0076556e-39
-0.6815539 0.38830796 -0.86134464 7.3680582e-39
-0.68138331 0.39172113 -0.86053544 7.9205061e-39
-0.68143535 0.39485946 -0.8591094 8.7481045e-39
-0.68124354 0.39831904 -0.85835111 9.0243341e-39
-0.68247896 0.41014478 -0.84958333 6.8127054e-39
-0.68262273 0.41291198 -0.84800631 6.998191e-39
-0.68273067 0.41696569 -0.84603113 6.5379317e-39
-0.68242395 0.42066845 -0.84555095 6.8152431e-39
-0.68265122 0.42374137 -0.84357888 7.3662533e-39
-0.6828509 0.42672494 -0.84173262 6.997468e-39
-0.68252784 0.43000966 -0.84147304 6.9974708e-39
-0.68259901 0.43171018 -0.84055996 6.5368598e-39
-0.6828084 0.43423739 -0.83886456 6.9978463e-39
-0.68378395 0.4364025 -0.83481193 8.9346748e-39
-0.68367434 0.43988004 -0.83377838 9.119422e-39
-0.68387485 0.4428775 -0.83192354 9.0264991e-39
-0.68444616 0.44546777 -0.82902092 9.8569926e-39
-0.68445289 0.44877136 -0.82767695 1.0041744e-38
-0.685449 0.45425221 -0.8222298 1.0687113e-38
-0.68527824 0.45787734 -0.82133675 1.041161e-38
-0.68531227 0.46116814 -0.81990838 1.0412333e-38
-0.68530488 0.46454212 -0.81858206 1.0779673e-38
-0.68523824 0.46838206 -0.81726301 1.0319767e-38
-0.68556786 0.47207257 -0.81470948 1.0503814e-38
-0.68535662 0.47508892 -0.81419212 1.0319777e-38
-0.68493736 0.47810629 -0.81435353 9.950612e-39
-0.68653649 0.47858927 -0.80893755 1.2716873e-38
-0.68646568 0.48212114 -0.80775535 1.2348082e-38
-0.68666768 0.48515695 -0.80588061 1.2438477e-38
-0.68702281 0.48819333 -0.80350542 1.3361883e-38
-0.68705934 0.49154395 -0.80204493 1.3362952e-38
-0.68692207 0.49524072 -0.80101377 1.3361873e-38
-0.68695951 0.49860606 -0.79954463 1.317748e-38
-0.6880911 0.50745916 -0.79230553 1.4007606e-38
-0.6882363 0.51063848 -0.79055899 1.4374234e-38
-0.68849558 0.51392382 -0.78839713 1.5022126e-38
-0.68837065 0.51765651 -0.78731114 1.5113599e-38
-0.68817484 0.52156246 -0.78638726 1.520327e-38
-0.6879245 0.52489871 -0.78586978 1.5019591e-38
-0.6885379 0.52570188 -0.7835449 1.4649017e-38
-0.68888777 0.52853876 -0.78126705 1.4835914e-38
-0.68911743 0.5332796 -0.77861947 1.4930268e-38
-0.69007242 0.53481174 -0.77488732 1.5206137e-38
-0.69011307 0.5382483 -0.77337903 1.5205069e-38
-0.68998998 0.54206276 -0.77225435 1.5666403e-38
-0.68960923 0.54646206 -0.77173716 1.5297987e-38
-0.6898793 0.54891896 -0.76987189 1.4190561e-38
-0.69036657 0.55123979 -0.76735127 1.5482731e-38
-0.69021565 0.5551576 -0.7662763 1.5574559e-38
-0.69131988 0.558281 -0.76141977 1.5940825e-38
-0.6909216 0.56206328 -0.76120698 1.5387644e-38
-0.69108588 0.56386542 -0.75994897 1.5666045e-38
-0.69149387 0.56602091 -0.75775385 1.6125218e-38
-0.69140869 0.56983149 -0.7565068 1.5574209e-38
-0.69141734 0.57393557 -0.75483602 1.6125952e-38
-0.69130456 0.57785082 -0.75363719 1.5850079e-38
-0.6914168 0.58153474 -0.75179636 1.5114666e-38
-0.69124281 0.58550864 -0.75077415 1.5664964e-38
-0.69253033 0.58690828 -0.74600887 1.5848997e-38
-0.69273645 0.59004581 -0.74408001 1.6218495e-38
-0.6928156 0.59351361 -0.74243343 1.5758233e-38
-0.69267553 0.59754997 -0.74127525 1.5572773e-38
-0.69326675 0.6002844 -0.73824996 1.5941897e-38
-0.6930992 0.60442686 -0.73713934 1.6127009e-38
-0.69314754 0.60799867 -0.73555195 1.5666032e-38
-0.69325358 0.61563343 -0.73214966 1.5572408e-38
-0.69375139 0.61730838 -0.72985369 1.5942267e-38
-0.69435078 0.62006211 -0.72679383 1.5757161e-38
-0.6943146 0.62391227 -0.725371 1.594154e-38
-0.69365662 0.62846398 -0.72569829 1.5202177e-38
-0.69446152 0.62987787 -0.7225036 1.5942629e-38
-0.69430375 0.63524628 -0.72087032 1.5942263e-38
-0.69490445 0.6406309 -0.7167533 1.5480559e-38
-0.6954152 0.644265 -0.71363068 1.5385848e-38
-0.69550675 0.64795566 -0.71185458 1.5386208e-38
-0.69578081 0.65110689 -0.70969832 1.5294368e-38
-0.69593042 0.65447074 -0.70786351 1.5757872e-38
-0.69586325 0.65850776 -0.70646685 1.6125577e-38
-0.69578874 0.66156274 -0.70548755 1.6217762e-38
-0.69619775 0.66335988 -0.7034325 1.5753189e-38
-0.69650114 0.66820902 -0.70050091 1.603337e-38
-0.69628865 0.67264664 -0.69941866 1.5665662e-38
-0.69713354 0.67479527 -0.69579929 1.6217416e-38
-0.6971097 0.67876822 -0.69428682 1.5848628e-38
-0.6971153 0.68264908 -0.69271564 1.594119e-38
-0.69709253 0.68664116 -0.69119215 1.6218497e-38
-0.69699228 0.69089234 -0.68981808 1.6034452e-38
-0.697438 0.69427735 -0.68700761 1.59419e-38
-0.69735104 0.69769639 -0.68592316 1.50185e-38
-0.6975714 0.69985396 -0.68433982 1.5665299e-38
-0.69869548 0.7004801 -0.68041813 1.529401e-38
-0.69869941 0.7049638 -0.6786108 1.5757867e-38
-0.69891095 0.70822322 -0.67661554 1.585042e-38
-0.69900638 0.71188414 -0.67483824 1.5942972e-38
-0.698838 0.71644831 -0.67356163 1.5849343e-38
-0.69908553 0.72058403 -0.67109787 1.5573836e-38
-0.69895536 0.72506666 -0.66972893 1.5940458e-38
-0.69893241 0.72947508 -0.66803956 1.584862e-38
-0.70005012 0.7314117 -0.66361398 1.5941896e-38
-0.69994265 0.73585808 -0.66218555 1.5480926e-38
-0.70030761 0.73860085 -0.65989584 1.5941897e-38
-0.70021939 0.74298686 -0.65842831 1.57575e-38
-0.70060641 0.74785328 -0.65521669 1.5387642e-38
-0.70062131 0.75188464 -0.65355474 1.575643e-38
-0.70048869 0.75695074 -0.65196002 1.5479473e-38
-0.70194888 0.75746942 -0.64698344 1.5849336e-38
-0.70201409 0.76133323 -0.64522403 1.49281e-38
-0.70174861 0.76649368 -0.64402544 1.5113578e-38
-0.70176572 0.77056354 -0.64234102 1.5757512e-38
-0.70207965 0.7747193 -0.63965255 1.5664949e-38
-0.70207608 0.77891093 -0.63798654 1.5848974e-38
-0.70229119 0.7822504 -0.63594711 1.511284e-38
-0.70286524 0.79202002 -0.6301623 1.5203242e-38
-0.70299536 0.79579675 -0.62822574 1.529581e-38
-0.70301652 0.7999348 -0.62650049 1.5388723e-38
-0.70366871 0.80283123 -0.62321109 1.5203613e-38
-0.70345557 0.80798334 -0.62184519 1.5204331e-38
-0.70352709 0.81195068 -0.62002385 1.5111422e-38
-0.70374399 0.81532729 -0.61796421 1.5203969e-38
-0.70441002 0.8231231 -0.61266851 1.501994e-38
-0.7049405 0.82602 -0.6097765 1.548092e-38
-0.70559901 0.82892871 -0.60646176 1.5112494e-38
-0.70541531 0.8340497 -0.60501224 1.474335e-38
-0.70542639 0.83951485 -0.60278857 1.5295442e-38
-0.70524389 0.84467077 -0.60132086 1.5112846e-38
-0.70532334 0.84870762 -0.59944564 1.4928471e-38
-0.70539749 0.85391682 -0.59711891 1.3911793e-38
-0.70632166 0.85612988 -0.59321475 1.4282021e-38
-0.70698988 0.85906655 -0.5898571 1.4374936e-38
-0.70720828 0.86248744 -0.58777446 1.4835907e-38
-0.70710188 0.86740333 -0.58615452 1.465188e-38
-0.70703042 0.87217247 -0.58447915 1.4191625e-38
-0.70685697 0.87743336 -0.58293998 1.428274e-38
-0.70687234 0.8818444 -0.58112425 1.4558961e-38
-0.70757735 0.88489133 -0.57760227 1.4466038e-38
-0.70746386 0.88976097 -0.57602412 1.4005418e-38
-0.70859343 0.88850921 -0.57283574 1.3453333e-38
-0.70868111 0.89303732 -0.5707373 1.4284531e-38
-0.70860034 0.89796841 -0.56902725 1.4468569e-38
-0.70862019 0.90241933 -0.56718129 1.4283819e-38
-0.70845824 0.90779006 -0.5655604 1.409942e-38
-0.7084958 0.91318059 -0.56328017 1.3267865e-38
-0.70911688 0.91597348 -0.56013387 1.4375297e-38
-0.70931649 0.91941243 -0.55810571 1.4005789e-38
-0.7101897 0.92294675 -0.55383921 1.4006152e-38
-0.71021444 0.9274497 -0.5519563 1.4375303e-38
-0.71043605 0.93094575 -0.5498333 1.4283095e-38
-0.71043545 0.93683386 -0.54747862 1.4466773e-38
-0.71016926 0.94290465 -0.54591841 1.4283808e-38
-0.71073425 0.94659406 -0.54259628 1.3730634e-38
-0.71093714 0.95145422 -0.53998858 1.4654031e-38
-0.71170878 0.95415175 -0.53638875 1.2991999e-38
-0.7118479 0.95891124 -0.53402948 1.4468934e-38
-0.71166652 0.96439481 -0.53242707 1.437602e-38
-0.71169502 0.96875137 -0.53059059 1.4376374e-38
-0.71203315 0.9721114 -0.52814114 1.4192693e-38
-0.71240813 0.97710049 -0.52492005 1.3732439e-38
-0.71248472 0.98124087 -0.52301252 1.4101939e-38
-0.71376073 0.99411285 -0.51369321 1.373208e-38
-0.71378225 0.99859917 -0.51182747 1.3823552e-38
-0.71381789 1.0037742 -0.50963974 1.400867e-38
-0.71390772 1.0098599 -0.50691068 1.3732439e-38
-0.7140249 1.0145627 -0.50464565 1.400866e-38
-0.71404797 1.0190876 -0.50275934 1.419342e-38
-0.71402174 1.0243298 -0.50074697 1.4100145e-38
-0.71516812 1.0267004 -0.49605405 1.3548056e-38
-0.71552789 1.0315884 -0.49292266 1.3455855e-38
-0.71569526 1.0357127 -0.49072522 1.3639532e-38
-0.71594107 1.0410568 -0.48778385 1.4100506e-38
-0.71620566 1.0454067 -0.48517847 1.3823564e-38
-0.71614659 1.0504869 -0.48333824 1.3544819e-38
-0.7165311 1.0534314 -0.4809038 1.1699427e-38
-0.71789074 1.0600495 -0.47381476 1.0871852e-38
-0.71843719 1.0721148 -0.46720088 1.1978189e-38
-0.71859545 1.0754689 -0.46534175 1.2900506e-38
-0.71849149 1.085106 -0.46182388 1.1239557e-38
-0.71980083 1.0907058 -0.4553065 1.2070039e-38
-0.72036088 1.115842 -0.44341692 1.1794167e-38
-0.72042221 1.1206602 -0.44128838 1.1702342e-38
-0.72001725 1.1277454 -0.43977514 1.1242431e-38
-0.72107023 1.1306729 -0.43516454 1.0690356e-38
-0.72108084 1.1394457 -0.43161869 1.0506679e-38
-0.72108901 1.1469398 -0.42859265 9.7680298e-39
-0.72143316 1.1508352 -0.42590943 1.0782189e-38
-0.72150004 1.155738 -0.42372882 1.0965858e-38
-0.68148541 0.35823026 -0.8736062 8.472605e-39
-0.68168139 0.36113396 -0.87180412 8.842461e-39
-0.6812467 0.36515212 -0.87161559 7.0871174e-39
-0.68178821 0.36728388 -0.86899376 6.5368457e-39
-0.68168896 0.37145701 -0.86764771 6.8141627e-39
-0.68146712 0.37446231 -0.86716944 5.9815042e-39
-0.68272352 0.38702136 -0.8580395 6.9059968e-39
-0.68238539 0.3906424 -0.85769451 6.7212482e-39
-0.68236309 0.39387417 -0.85647374 6.8116446e-39
-0.68244827 0.3969709 -0.85495639 6.4439354e-39
-0.68250501 0.40035188 -0.85341769 6.9034857e-39
-0.68286252 0.40389135 -0.85083342 6.7234146e-39
-0.6828422 0.4071486 -0.84959614 6.6312008e-39
-0.6838882 0.40848285 -0.84564596 8.8428351e-39
-0.68420213 0.41101804 -0.84360605 8.9371873e-39
-0.68399721 0.41551158 -0.84247667 8.5680405e-39
-0.68397987 0.41878915 -0.84122157 8.4751246e-39
-0.68430459 0.42171007 -0.83899212 9.211982e-39
-0.68419647 0.42456886 -0.83820099 9.11835e-39
-0.68387681 0.4269945 -0.83827424 8.8431896e-39
-0.68376857 0.4303512 -0.83728391 8.6595032e-39
-0.68521124 0.43137228 -0.83216375 1.0780027e-38
-0.68496001 0.43504959 -0.83151251 1.1056622e-38
-0.68515944 0.43803868 -0.82966483 1.1055906e-38
-0.68570542 0.44065562 -0.8268342 1.124317e-38
-0.68555468 0.44421068 -0.82590371 1.1058781e-38
-0.68589365 0.44697696 -0.82368928 1.1150251e-38
-0.68571585 0.45058936 -0.82282436 1.0781108e-38
-0.68659145 0.4562676 -0.81769192 1.2809421e-38
-0.68668008 0.4594602 -0.81612474 1.2716877e-38
-0.68653512 0.46306652 -0.81515467 1.2808342e-38
-0.68636209 0.46673006 -0.81425381 1.2715777e-38
-0.6865629 0.46974966 -0.81238931 1.2716145e-38
-0.68702507 0.47255343 -0.80975777 1.3361877e-38
-0.68616039 0.47660482 -0.81096023 1.2163324e-38
-0.68818432 0.47972366 -0.80310172 1.4007968e-38
-0.6879487 0.4835569 -0.80233723 1.4099455e-38
-0.68806225 0.48655191 -0.80076772 1.4005462e-38
-0.68854398 0.48954678 -0.79799569 1.4562217e-38
-0.6885432 0.49296981 -0.79662818 1.4653696e-38
-0.68844467 0.49658924 -0.79550135 1.4838805e-38
-0.68851203 0.49989837 -0.793957 1.4930645e-38
-0.68808872 0.50409901 -0.7936582 1.5203271e-38
-0.68880492 0.50468796 -0.79108351 1.4838075e-38
-0.68880367 0.50985581 -0.78901917 1.4836278e-38
-0.68968481 0.51246417 -0.78509736 1.5389461e-38
-0.68952525 0.51627171 -0.78409463 1.520651e-38
-0.68981189 0.52008963 -0.78163046 1.4743724e-38
-0.68965143 0.52431232 -0.78046435 1.4650096e-38
-0.69019103 0.52667397 -0.77775687 1.548166e-38
-0.69055003 0.53047037 -0.77506489 1.5574576e-38
-0.69139451 0.53303993 -0.77127856 1.6033751e-38
-0.69110984 0.53719354 -0.77054578 1.5388023e-38
-0.69131291 0.54027712 -0.76864856 1.5297261e-38
-0.69103003 0.54445755 -0.7678991 1.5206503e-38
-0.69080412 0.54794508 -0.76724094 1.5109994e-38
-0.69152999 0.54980785 -0.76412457 1.6034827e-38
-0.69170129 0.55297279 -0.76229864 1.5573486e-38
-0.69125456 0.55690157 -0.76218528 1.5296549e-38
-0.69208694 0.55925632 -0.75852412 1.5482005e-38
-0.69227445 0.56230533 -0.75669163 1.5665315e-38
-0.69252855 0.56487578 -0.75483286 1.5941903e-38
-0.69273305 0.56798667 -0.75291991 1.6126661e-38
-0.69259036 0.57189059 -0.75182337 1.5292946e-38
-0.69304574 0.57497656 -0.74910122 1.5666759e-38
-0.69283879 0.57911837 -0.74811918 1.6125933e-38
-0.69285572 0.5827207 -0.7466222 1.5389082e-38
-0.6937505 0.58897024 -0.7411986 1.6402884e-38
-0.69377011 0.59259135 -0.73968512 1.5575277e-38
-0.69423789 0.59564698 -0.73693436 1.5666399e-38
-0.69403815 0.59985727 -0.73590159 1.6770582e-38
-0.69424438 0.60300964 -0.73396653 1.6309606e-38
-0.69426602 0.60665882 -0.73243535 1.5665313e-38
-0.69431388 0.61023742 -0.73084646 1.594191e-38
-0.69549668 0.61310458 -0.72583628 1.594155e-38
-0.69539779 0.61745131 -0.72441941 1.5202176e-38
-0.6956687 0.62056875 -0.72228706 1.5294012e-38
-0.69564772 0.62456775 -0.7207548 1.5849344e-38
-0.69573283 0.62809253 -0.71906614 1.6217765e-38
-0.69548988 0.63255024 -0.71807557 1.5666391e-38
-0.695517 0.6362592 -0.71650249 1.6216689e-38
-0.69567096 0.64010894 -0.7144587 1.5294731e-38
-0.69636607 0.6418975 -0.71147293 1.5756793e-38
-0.69629192 0.64579934 -0.71015334 1.5942246e-38
-0.69671732 0.64951575 -0.70727652 1.5849702e-38
-0.69732523 0.65228462 -0.7041828 1.6033737e-38
-0.69680363 0.65671861 -0.70411187 1.5940818e-38
-0.6973713 0.65818077 -0.70167267 1.6311044e-38
-0.69713688 0.66273868 -0.7006138 1.5941524e-38
-0.69759512 0.6659947 -0.69781435 1.5941537e-38
-0.69750929 0.67013681 -0.6964367 1.6402156e-38
-0.69846696 0.67169333 -0.69268614 1.5111052e-38
-0.69850785 0.67653716 -0.69061399 1.6125933e-38
-0.69840622 0.67999202 -0.6895631 1.529365e-38
-0.69843686 0.68337488 -0.6881091 1.6033022e-38
-0.69831538 0.68888408 -0.68630058 1.5757514e-38
-0.69882029 0.69207716 -0.68337375 1.6033373e-38
-0.69875443 0.69522488 -0.682329 1.5110696e-38
-0.69859231 0.69876242 -0.68144256 1.5389793e-38
-0.69844252 0.70309556 -0.6801976 1.5849337e-38
-0.69992638 0.70326227 -0.6752845 1.6492921e-38
-0.69996667 0.70710117 -0.67361647 1.5940821e-38
-0.70017773 0.71036124 -0.67162251 1.5756801e-38
-0.70023715 0.71413714 -0.66991699 1.5848634e-38
-0.70048785 0.71826541 -0.66744626 1.5848984e-38
-0.70069897 0.72153711 -0.665447 1.5203615e-38
-0.70037061 0.72671556 -0.66444695 1.5573478e-38
-0.70141691 0.73434037 -0.65797794 1.5756788e-38
-0.70147973 0.73818153 -0.65623534 1.5942256e-38
-0.70154268 0.74201328 -0.65449625 1.5848625e-38
-0.70201266 0.74546987 -0.65157783 1.5940098e-38
-0.70202678 0.74949759 -0.64991963 1.557132e-38
-0.70212883 0.75322276 -0.64809549 1.5387649e-38
-0.70330048 0.76351035 -0.64015144 1.5573831e-38
-0.70351356 0.76682413 -0.63812912 1.5573109e-38
-0.70404714 0.77011013 -0.63507152 1.4834464e-38
-0.70363069 0.77589548 -0.63411605 1.5572385e-38
-0.70362806 0.7800858 -0.6324476 1.5112495e-38
-0.70363909 0.78535044 -0.63030446 1.5296878e-38
-0.7043578 0.79320014 -0.62481534 1.4927381e-38
-0.70390069 0.79911572 -0.62394059 1.5295809e-38
-0.70511568 0.8001973 -0.61953986 1.4927742e-38
-0.70533043 0.80355459 -0.61749458 1.5480203e-38
-0.70519185 0.80840045 -0.61600786 1.529581e-38
-0.70508981 0.81311125 -0.61445564 1.5112135e-38
-0.70516104 0.81708568 -0.61263222 1.5203253e-38
-0.7050854 0.82225055 -0.61081201 1.4187308e-38
-0.70591009 0.82429475 -0.60730052 1.5665677e-38
-0.70679045 0.82852674 -0.60273129 1.4927381e-38
-0.70681626 0.83273464 -0.600963 1.5020657e-38
-0.70684218 0.83695132 -0.59919065 1.5019223e-38
-0.70666081 0.84210187 -0.59772158 1.4836629e-38
-0.70677519 0.84597194 -0.59579921 1.4744795e-38
-0.70699257 0.84937721 -0.59372628 1.4375279e-38
-0.70756561 0.85337442 -0.59025496 1.4742985e-38
-0.70822734 0.85637867 -0.58689117 1.3637004e-38
-0.70832139 0.86130136 -0.58461386 1.4928461e-38
-0.70853931 0.86472344 -0.58253264 1.4836626e-38
-0.70843506 0.86964476 -0.58090335 1.4467845e-38
-0.70846581 0.87394112 -0.57908332 1.4652589e-38
-0.70838279 0.87998837 -0.5769341 1.4927384e-38
-0.7089839 0.88422561 -0.57327515 1.4374929e-38
-0.70901537 0.88843703 -0.57148671 1.4099057e-38
-0.71012276 0.89030248 -0.56712341 1.4376367e-38
-0.70982593 0.89627635 -0.56570178 1.4651876e-38
-0.71004564 0.89973825 -0.56359875 1.4559334e-38
-0.70996869 0.90468311 -0.56187081 1.4006504e-38
-0.70975602 0.91030151 -0.5603168 1.4191977e-38
-0.71044111 0.91328055 -0.55688685 1.4190542e-38
-0.71047801 0.91767508 -0.5550077 1.4098342e-38
-0.71206337 0.92381966 -0.54737079 1.4374929e-38
-0.71198475 0.92882991 -0.54562199 1.4190903e-38
-0.71189588 0.9339264 -0.54387254 1.4006875e-38
-0.71183997 0.93906349 -0.54199892 1.4561478e-38
-0.71229541 0.94315076 -0.53887582 1.4191618e-38
-0.7124601 0.9470672 -0.5367704 1.400939e-38
-0.71239537 0.95211667 -0.53496093 1.4746581e-38
-0.7138567 0.9576503 -0.52797335 1.4007597e-38
-0.71351606 0.96416783 -0.52647746 1.4560405e-38
-0.71326762 0.97155935 -0.5243305 1.428489e-38
-0.71381193 0.97562551 -0.52092546 1.4284534e-38
-0.71372509 0.98068112 -0.51918542 1.3917199e-38
-0.71390921 0.98421538 -0.51716977 1.4100507e-38
-0.71419257 0.98789662 -0.51477075 1.3916116e-38
-0.71521723 0.99123299 -0.51008916 1.4008313e-38
-0.71540064 0.99477232 -0.50807339 1.4376011e-38
-0.71529484 1.0007318 -0.50603372 1.3915039e-38
-0.71510118 1.0069252 -0.50418752 1.3362943e-38
-0.71545666 1.0118083 -0.50107193 1.3733165e-38
-0.71558273 1.0157064 -0.49910012 1.400903e-38
-0.71535784 1.0210057 -0.49771371 1.3454783e-38
-0.7157011 1.0224447 -0.49601662 1.4561478e-38
-0.71668035 1.0252968 -0.49167693 1.3454042e-38
-0.71697557 1.0283146 -0.48950508 1.3456217e-38
-0.71692318 1.0341552 -0.48733824 1.3916477e-38
-0.71719503 1.0377179 -0.48502454 1.3362583e-38
-0.71746606 1.0410576 -0.48280269 1.3456221e-38
-0.71737772 1.0472093 -0.48062927 1.4007237e-38
-0.71753198 1.0523509 -0.47806743 1.3083823e-38
-0.71788728 1.055775 -0.47553661 1.1884195e-38
-0.71900183 1.0608193 -0.46987772 1.1332107e-38
-0.71943927 1.0624223 -0.46780741 1.1517585e-38
-0.71951365 1.0668168 -0.4658058 1.1793453e-38
-0.72010016 1.0846281 -0.45676166 1.0412664e-38
-0.72091216 1.0935328 -0.4505454 1.262321e-38
-0.72124189 1.0981318 -0.44762802 1.1978201e-38
-0.72349519 1.1434811 -0.42211828 1.0691434e-38
-0.68159473 0.35189876 -0.87578332 6.2595652e-39
-0.68179005 0.35479784 -0.87398493 6.6276219e-39
-0.68244529 0.36386648 -0.86821538 6.9981826e-39
-0.68272769 0.36628538 -0.86632502 6.7233992e-39
-0.68266082 0.37042686 -0.86488599 6.8141683e-39
-0.6823172 0.37398335 -0.86458457 6.5383073e-39
-0.68268442 0.37670699 -0.86229515 6.4468319e-39
-0.6830408 0.37948525 -0.86001921 7.2758513e-39
-0.68278015 0.382644 -0.85960656 7.1818536e-39
-0.68356186 0.38619232 -0.85563314 8.9335902e-39
-0.68348032 0.38944551 -0.85459733 9.0275837e-39
-0.68367749 0.39238986 -0.85277498 8.8439113e-39
-0.68339992 0.39595926 -0.85225314 8.1988978e-39
-0.68357062 0.39894307 -0.85050136 8.7506325e-39
-0.68385166 0.40206718 -0.848333 9.2101659e-39
-0.6852932 0.40682542 -0.8417207 1.0779676e-38
-0.68551224 0.40949968 -0.83993477 1.0873307e-38
-0.68551648 0.41369623 -0.83824158 1.0595639e-38
-0.68540335 0.41710141 -0.83724779 1.0595281e-38
-0.685691 0.42006838 -0.8351211 1.0965498e-38
-0.68567508 0.42335221 -0.83385873 1.078075e-38
-0.68534428 0.42657804 -0.83364803 1.0964419e-38
-0.68517828 0.42862487 -0.83337098 9.8595052e-39
-0.68665147 0.4328936 -0.82685119 1.2533907e-38
-0.68626255 0.43679404 -0.82656044 1.2993449e-38
-0.68650132 0.43973377 -0.82460386 1.2809779e-38
-0.68703842 0.44235104 -0.82180226 1.3548073e-38
-0.6868605 0.44594991 -0.82094288 1.3915425e-38
-0.68705946 0.44894347 -0.8190949 1.3363323e-38
-0.68709093 0.45221338 -0.81768334 1.3731021e-38
-0.68729514 0.45518413 -0.81582725 1.3639181e-38
-0.6881038 0.45765319 -0.81219804 1.4377111e-38
-0.68792415 0.46150762 -0.81124228 1.3639544e-38
-0.68788195 0.46501079 -0.80997801 1.3731022e-38
-0.68819278 0.46780205 -0.80784565 1.456078e-38
-0.68787831 0.47091839 -0.80762559 1.4100873e-38
-0.68819714 0.47306889 -0.80572355 1.4468585e-38
-0.68797421 0.47685587 -0.80493599 1.4561495e-38
-0.68904829 0.47912669 -0.80051917 1.4009036e-38
-0.68879217 0.48290223 -0.7998445 1.4008677e-38
-0.68869066 0.48640063 -0.79877585 1.4193068e-38
-0.68982399 0.48793718 -0.79445946 1.5114316e-38
-0.68972552 0.49154148 -0.79333842 1.5206874e-38
-0.68976068 0.49489513 -0.79188144 1.5114671e-38
-0.68982852 0.4981963 -0.79033858 1.5298341e-38
-0.69007814 0.5009889 -0.7884056 1.5203266e-38
-0.69042927 0.50421429 -0.78596789 1.5206148e-38
-0.69029945 0.50793225 -0.78490371 1.5297268e-38
-0.69116843 0.51040024 -0.78107804 1.520579e-38
-0.69100904 0.51419908 -0.78007823 1.5113951e-38
-0.69093359 0.51875412 -0.77850163 1.5297617e-38
-0.69153851 0.52135777 -0.77548379 1.538874e-38
-0.69131696 0.5253281 -0.77461833 1.5573136e-38
-0.6915192 0.52840024 -0.77272826 1.5851878e-38
-0.69167894 0.53143448 -0.77099204 1.5665686e-38
-0.69256777 0.53403598 -0.76704794 1.5480943e-38
-0.69247872 0.53776026 -0.76584816 1.5390182e-38
-0.69248891 0.54127735 -0.7644074 1.548094e-38
-0.69306725 0.54395604 -0.76144636 1.5757879e-38
-0.69310802 0.54740787 -0.75993156 1.5758233e-38
-0.6929577 0.55131263 -0.75885963 1.6034471e-38
-0.69271606 0.55571014 -0.75788885 1.5663525e-38
-0.69279301 0.55921954 -0.75623292 1.5112139e-38
-0.69366157 0.56349802 -0.75168395 1.5758593e-38
-0.69367701 0.56706607 -0.75020552 1.5757877e-38
-0.69359416 0.57088077 -0.74894935 1.5573131e-38
-0.69393176 0.57420903 -0.7465145 1.5574208e-38
-0.69394881 0.57780159 -0.74502093 1.5848991e-38
-0.69399333 0.58132768 -0.74346453 1.5941544e-38
-0.69407332 0.58477819 -0.74182194 1.5849351e-38
-0.69480503 0.58743232 -0.73837 1.5849704e-38
-0.69463116 0.59143144 -0.73733729 1.5573836e-38
-0.69507426 0.59196121 -0.73567814 1.4742639e-38
-0.69558674 0.59738016 -0.73183554 1.5940829e-38
-0.69511324 0.60183412 -0.73159921 1.5200749e-38
-0.69552046 0.60250735 -0.72999996 1.5204674e-38
-0.6958015 0.60516143 -0.72801989 1.5666399e-38
-0.69627649 0.60822451 -0.72524261 1.5849711e-38
-0.69647998 0.61178672 -0.72315216 1.5573106e-38
-0.69619429 0.61618954 -0.72232324 1.5481276e-38
-0.69617659 0.61987603 -0.72090536 1.5664952e-38
-0.69703764 0.62244725 -0.71706432 1.6033743e-38
-0.69724369 0.62561548 -0.71512324 1.6310327e-38
-0.69744968 0.62878382 -0.71318215 1.6311406e-38
-0.69741654 0.63264734 -0.71174407 1.6033374e-38
-0.69717532 0.63711989 -0.71074212 1.6125944e-38
-0.69776744 0.63963819 -0.70780033 1.5941536e-38
-0.69749802 0.64288944 -0.7073788 1.6034101e-38
-0.69729513 0.6465317 -0.70658374 1.5477682e-38
-0.69862425 0.65140253 -0.70029342 1.5941183e-38
-0.69850069 0.65560389 -0.6990155 1.6127369e-38
-0.69852787 0.6605463 -0.69694853 1.5574198e-38
-0.69856113 0.66394299 -0.69548064 1.4925942e-38
-0.69883519 0.66710263 -0.69332069 1.5386921e-38
-0.69859451 0.67132187 -0.6924181 1.6402151e-38
-0.69878471 0.67449272 -0.6905278 1.5941176e-38
-0.69989079 0.67728382 -0.68579829 1.5294004e-38
-0.69983155 0.68112844 -0.68445301 1.5757863e-38
-0.69986284 0.68614775 -0.68234187 1.5849343e-38
-0.69984919 0.68966204 -0.68098009 1.5017773e-38
-0.69995201 0.69343024 -0.67913604 1.5295084e-38
-0.69980901 0.69701612 -0.67816776 1.575751e-38
-0.70002383 0.69941145 -0.67650741 1.621813e-38
-0.70130706 0.70500356 -0.67007846 1.5848623e-38
-0.70134801 0.70884329 -0.6684078 1.5757873e-38
-0.70140696 0.71261966 -0.66670388 1.5389089e-38
-0.70193601 0.71470052 -0.6641432 1.4833392e-38
-0.70199513 0.71833575 -0.66249502 1.5664953e-38
-0.70209348 0.72200537 -0.66070509 1.5572037e-38
-0.70192105 0.72734994 -0.65912938 1.5018132e-38
-0.70170963 0.73044902 -0.65857935 1.5481274e-38
-0.70242614 0.73360133 -0.65497768 1.5296525e-38
-0.70302773 0.7352742 -0.65234345 1.5572764e-38
-0.70297909 0.73951072 -0.65080684 1.5757144e-38
-0.70350635 0.74274927 -0.64778841 1.5479836e-38
-0.70340985 0.74718708 -0.64632744 1.5295084e-38
-0.70331109 0.75166315 -0.64485836 1.584899e-38
-0.70332557 0.75570679 -0.64319271 1.6033731e-38
-0.703538 0.75901598 -0.64117461 1.5389084e-38
-0.70402002 0.76504654 -0.63718659 1.5664577e-38
-0.70519853 0.76753449 -0.63234192 1.4096187e-38
-0.70501435 0.77466238 -0.63009065 1.6123775e-38
-0.70501238 0.77884662 -0.62842232 1.5757142e-38
-0.70486456 0.78361863 -0.62699521 1.5481278e-38
-0.70472205 0.78840768 -0.62554377 1.4651514e-38
-0.70537353 0.7912848 -0.62226462 1.5296524e-38
-0.70539349 0.79541582 -0.62054592 1.5113216e-38
-0.70632082 0.79763705 -0.61662835 1.391215e-38
-0.70652556 0.80195659 -0.61423099 1.5296166e-38
-0.70663488 0.80575764 -0.61235255 1.5205043e-38
-0.70670998 0.80971175 -0.61052465 1.5388716e-38
-0.70671487 0.81397057 -0.60880446 1.483519e-38
-0.70657587 0.81884724 -0.60730636 1.4927742e-38
-0.70669359 0.8231225 -0.60521084 1.3913945e-38
-0.70747185 0.82292187 -0.60274959 1.4651524e-38
-0.70782393 0.82686126 -0.60002291 1.4096904e-38
-0.70805621 0.83094507 -0.59762967 1.483591e-38
-0.70808172 0.83516294 -0.59585792 1.5110346e-38
-0.70816195 0.8391695 -0.59399247 1.4558978e-38
