# .PCD v0.7 - Point Cloud Data file format
VERSION 0.7
FIELDS x y z rgb
SIZE 4 4 4 4
TYPE F F F F
COUNT 1 1 1 1
WIDTH 1011
HEIGHT 1
VIEWPOINT 0 0 0 1 0 0 0
POINTS 1011
DATA ascii
-0.18638323 -0.25130746 2.0401907 8.4495831e-39
-0.18983586 -0.24879397 2.0524924 8.4495831e-39
-0.18936437 -0.24505731 2.0526381 8.4495831e-39
-0.18889283 -0.24132064 2.0527837 8.5428535e-39
-0.18754505 -0.23754542 2.0501101 8.7283196e-39
-0.18701832 -0.23314227 2.0503755 8.453532e-39
-0.18747818 -0.23011066 2.0532207 8.3599e-39
-0.18966199 -0.2268257 2.0617602 8.4528159e-39
-0.19013529 -0.2235917 2.0647395 8.5428535e-39
-0.18876807 -0.2195061 2.0621419 8.7286769e-39
-0.18918663 -0.21607468 2.0650325 8.5439297e-39
-0.18871237 -0.2123162 2.0651791 8.727242e-39
-0.18823807 -0.20855768 2.0653255 8.727242e-39
-0.18776381 -0.20479918 2.0654721 8.5439297e-39
-0.18728946 -0.20104069 2.0656185 8.7268861e-39
-0.1906945 -0.1981504 2.0779347 8.5439297e-39
-0.19021726 -0.19436823 2.0780823 8.5439297e-39
-0.18860051 -0.19065867 2.0745087 8.8212313e-39
-0.18889971 -0.18637688 2.0773933 8.9134255e-39
-0.1887854 -0.18302174 2.0785246 8.636124e-39
-0.18799922 -0.17900445 2.0777774 8.9130668e-39
-0.18783085 -0.17545739 2.0788195 9.0031072e-39
-0.18709882 -0.17163181 2.078162 9.3718869e-39
-0.18687624 -0.16789307 2.0791144 8.8219473e-39
-0.18428349 -0.16360497 2.0726402 9.3718883e-39
-0.18592162 -0.16032873 2.0794091 9.2800486e-39
-0.18544436 -0.15654656 2.0795567 8.4528117e-39
-0.18496707 -0.15276441 2.079704 8.6364827e-39
-0.18482441 -0.14925872 2.080811 9.0063386e-39
-0.1866976 -0.14512858 2.0887232 8.8212313e-39
-0.18707481 -0.14189172 2.0913928 8.6364827e-39
-0.18933333 -0.13817918 2.1003654 9.0985328e-39
-0.18994343 -0.13474973 2.1038749 8.8219473e-39
-0.20039643 -0.13211443 2.1388929 9.0070561e-39
-0.20073926 -0.12838276 2.1416726 8.5450059e-39
-0.19946885 -0.124517 2.1392899 9.0978168e-39
-0.1997548 -0.12058181 2.1419766 9.0031072e-39
-0.2030763 -0.11702905 2.1543188 9.0031072e-39
-0.20258108 -0.11310492 2.1544716 8.9127066e-39
-0.2020859 -0.10918079 2.1546247 8.7304706e-39
-0.2015907 -0.10525665 2.1547778 9.0063358e-39
-0.20109546 -0.10133252 2.1549306 9.1878544e-39
-0.19870849 -0.09691143 2.1491818 9.2807703e-39
-0.20010506 -0.093484253 2.1552365 8.6379176e-39
-0.19867195 -0.089327328 2.1524575 9.1914445e-39
-0.19911474 -0.085635908 2.1555426 9.0059771e-39
-0.19773903 -0.081684425 2.1528578 9.5573544e-39
-0.19812424 -0.077787653 2.1558485 9.1878544e-39
-0.20156427 -0.074166045 2.1686051 9.5562754e-39
-0.2012023 -0.070008077 2.1692941 9.0960189e-39
-0.20070383 -0.066058487 2.1694479 9.0960189e-39
-0.2002054 -0.062108856 2.1696019 9.1889306e-39
-0.19970702 -0.058159243 2.1697559 9.1882131e-39
-0.20326419 -0.054176398 2.1830535 9.1885719e-39
-0.20276259 -0.050201297 2.1832085 9.1885719e-39
-0.20012927 -0.045948539 2.1765871 9.6502619e-39
-0.20175928 -0.04225111 2.1835184 9.1885719e-39
-0.19918641 -0.038219117 2.1769938 9.7424561e-39
-0.20479561 -0.034140278 2.1969771 9.8328553e-39
-0.20133679 -0.030346807 2.1874778 9.7435351e-39
-0.20378593 -0.02613906 2.197289 9.7403023e-39
-0.19811119 -0.022719642 2.180449 1.0294188e-38
-0.19874945 -0.018400475 2.184448 9.6488255e-39
-0.19824778 -0.014425383 2.184603 9.6488255e-39
-0.19774617 -0.010450283 2.1847579 9.7410198e-39
-0.19724458 -0.0064751795 2.1849129 9.7410198e-39
-0.19674295 -0.0025000835 2.1850679 9.5587837e-39
-0.19624129 0.0014749502 2.1852229 9.5587837e-39
-0.19693941 0.0058339983 2.1894336 1.0019402e-38
-0.19924228 0.009866084 2.1986926 9.8335727e-39
-0.20211768 0.01431544 2.2099919 1.0018324e-38
-0.205961 0.030799335 2.22981 1.0019402e-38
-0.20418276 0.03505718 2.2259591 9.9268432e-39
-0.20367147 0.039108772 2.2261169 9.9268432e-39
-0.20316024 0.043160263 2.226275 9.9264844e-39
-0.20690806 0.047929995 2.2405419 9.8342902e-39
-0.20639338 0.052008782 2.240701 9.9264844e-39
-0.20587867 0.056087688 2.24086 1.0201632e-38
-0.20538725 0.060380094 2.24119 1.0661531e-38
-0.20484923 0.064245366 2.241178 1.0201632e-38
-0.20528801 0.068505414 2.2445049 1.0570413e-38
-0.20381981 0.072403066 2.2414961 9.5591424e-39
-0.20525825 0.07666567 2.2480602 1.0112669e-38
-0.20702189 0.081497289 2.2559316 9.7435309e-39
-0.20838907 0.085569724 2.2621799 1.0295264e-38
-0.20598547 0.089709558 2.2562516 9.6506192e-39
-0.2096886 0.094834231 2.2705326 1.0017244e-38
-0.20916703 0.098967627 2.2706938 1.0109438e-38
-0.20864543 0.10310113 2.2708549 1.0201632e-38
-0.20812373 0.10723451 2.2710159 1.0293826e-38
-0.20760213 0.11136802 2.2711771 9.6513367e-39
-0.20685871 0.11561506 2.2706711 1.0203071e-38
-0.20655888 0.1196349 2.2714994 1.0201632e-38
-0.2058748 0.12367585 2.2710931 1.0386741e-38
-0.20970936 0.12913866 2.2859509 9.7435309e-39
-0.20809661 0.13270418 2.2823257 1.0477859e-38
-0.21250665 0.13915603 2.299489 1.0478218e-38
-0.21677977 0.14434642 2.3156447 9.6506192e-39
-0.21624762 0.14856353 2.315809 9.6499017e-39
-0.21571538 0.15278074 2.3159735 9.6499017e-39
-0.2151832 0.15699786 2.3161378 9.6499017e-39
-0.21465105 0.1612151 2.3163023 9.6506192e-39
-0.21411882 0.1654322 2.3164666 9.7410198e-39
-0.21358664 0.16964945 2.3166311 9.7410198e-39
-0.2124726 0.17379959 2.3148818 1.0201635e-38
-0.21252228 0.17808378 2.3169599 9.7410198e-39
-0.212396 0.1823609 2.318465 1.0201276e-38
-0.21145791 0.18651812 2.3172886 9.3736778e-39
-0.21238677 0.19097073 2.322288 1.0201994e-38
-0.21270829 0.19634911 2.3257358 1.0017244e-38
-0.21427584 0.20095499 2.3328712 9.7410198e-39
-0.21373996 0.20520121 2.3330367 9.6484668e-39
-0.22201829 0.21313454 2.3633854 9.5559139e-39
-0.22587857 0.21931165 2.3786461 9.6463144e-39
-0.22478478 0.22797897 2.378984 9.6463144e-39
-0.21984546 0.23035268 2.3640566 9.4637196e-39
-0.21837568 0.23436175 2.3610928 9.5566313e-39
-0.21875907 0.23896179 2.3643923 9.1874957e-39
-0.21735249 0.24274944 2.3615339 9.5566327e-39
-0.22205038 0.24964732 2.3798287 9.1874957e-39
-0.21967383 0.25274751 2.3735228 9.8324993e-39
-0.22004767 0.25834101 2.3772359 9.8328567e-39
-0.22040977 0.26264822 2.3803356 9.5559139e-39
-0.21986285 0.26698196 2.3805044 9.5559139e-39
-0.22394778 0.27367666 2.396724 9.4647958e-39
-0.22339697 0.27804118 2.396894 9.9232558e-39
-0.22284618 0.28240582 2.3970642 9.7385086e-39
-0.22229539 0.28677034 2.3972342 9.1874957e-39
-0.22174458 0.29113501 2.3974044 9.3708079e-39
-0.22455008 0.2974467 2.4093108 9.7406624e-39
-0.22525147 0.30241087 2.4138029 9.2807661e-39
-0.2235058 0.30600888 2.4097619 1.0016528e-38
-0.22414204 0.31120199 2.4141455 9.4637196e-39
-0.22246145 0.31457135 2.4102128 9.5577089e-39
-0.2228135 0.3203319 2.4139304 9.8321378e-39
-0.222478 0.32438853 2.4146595 9.3715254e-39
-0.22192329 0.32878411 2.4148309 9.3715254e-39
-0.22136861 0.33317959 2.4150021 9.1889306e-39
-0.22081387 0.3375752 2.4151735 9.0960189e-39
-0.22025922 0.3419708 2.415345 9.2804074e-39
-0.21970448 0.34636626 2.4155161 9.1882131e-39
-0.21914986 0.35076186 2.4156876 9.3715254e-39
-0.2202443 0.3563343 2.4217243 9.3733191e-39
-0.22259808 0.3625018 2.4321039 9.0038247e-39
-0.22370881 0.36787549 2.4381044 9.4647958e-39
-0.22148086 0.37135479 2.4324489 9.2804074e-39
-0.22265109 0.37653258 2.4385543 9.3726016e-39
-0.22672641 0.38498142 2.4555278 9.6473906e-39
-0.22461002 0.38792029 2.4499917 9.0038247e-39
-0.22858152 0.39551413 2.4662464 9.0031072e-39
-0.22801489 0.40000424 2.4664214 9.0023898e-39
-0.22744821 0.40449446 2.4665964 9.3704492e-39
-0.22688158 0.40898457 2.4667714 8.910913e-39
-0.22631484 0.41347483 2.4669464 8.6364827e-39
-0.22574829 0.41796508 2.4671216 8.910913e-39
-0.22552741 0.42285973 2.4685967 9.3736778e-39
-0.22461504 0.42694545 2.4674716 9.0027485e-39
-0.22708149 0.43360841 2.4784377 9.0049009e-39
-0.22824547 0.43953961 2.4848599 8.8194362e-39
-0.2270266 0.44318372 2.4825451 9.1885719e-39
-0.23002753 0.4513585 2.4959178 9.0960189e-39
-0.23128441 0.45682043 2.5024307 8.5446472e-39
-0.23070955 0.46137619 2.5026083 8.5439297e-39
-0.22539164 0.46215427 2.4857416 8.636124e-39
-0.22482084 0.46667731 2.4859178 8.3616937e-39
-0.22425009 0.47120017 2.4860942 8.3616937e-39
-0.22367929 0.47572321 2.4862704 8.3616937e-39
-0.22310854 0.48024604 2.4864469 8.3616937e-39
-0.22269574 0.48510346 2.4872842 8.7308293e-39
-0.22196712 0.48929209 2.4867995 8.3616937e-39
-0.22623134 0.49784538 2.5044317 8.7304706e-39
-0.23050705 0.50664163 2.5222089 8.3616937e-39
-0.23001879 0.51094341 2.5225537 8.8226648e-39
-0.22934844 0.51582229 2.5225668 8.1773052e-39
-0.22999561 0.52083218 2.5269039 8.6364827e-39
-0.2281899 0.5250029 2.5229247 8.4528117e-39
-0.22761063 0.52959311 2.5231037 8.2694994e-39
-0.22703137 0.5341835 2.5232825 8.3606175e-39
-0.23139325 0.54327983 2.5414734 8.1765877e-39
-0.23080958 0.54790485 2.5416536 8.6354065e-39
-0.23022597 0.55252957 2.5418339 8.1765877e-39
-0.23425759 0.56171882 2.5589972 8.4531704e-39
-0.23398232 0.56642383 2.5602117 8.1747941e-39
-0.23420894 0.57181013 2.5633557 8.2691407e-39
-0.23280622 0.57574284 2.5605748 7.8992876e-39
-0.23309672 0.58091539 2.5638299 8.2677058e-39
-0.23163024 0.58506179 2.5609381 7.8060172e-39
-0.23198451 0.59002119 2.5643044 7.9007225e-39
-0.23045431 0.59438074 2.5613015 7.3482746e-39
-0.23965237 0.60881317 2.5975358 7.3468397e-39
-0.2442017 0.61872202 2.6166971 7.3468397e-39
-0.24360035 0.62348694 2.6168828 7.4390339e-39
-0.24299902 0.62825209 2.6170685 7.4390339e-39
-0.24239767 0.63301694 2.6172543 7.1631687e-39
-0.24112394 0.63740206 2.6150932 7.2564391e-39
-0.24119498 0.64254707 2.6176257 7.2550042e-39
-0.24110143 0.64785957 2.6197 7.0734856e-39
-0.2399924 0.65207714 2.6179972 6.7039912e-39
-0.24107371 0.65834385 2.6243019 7.5308694e-39
-0.23878971 0.66160721 2.6183686 7.2550042e-39
-0.23993434 0.66766661 2.6247857 7.5312281e-39
-0.23758712 0.67113733 2.6187403 7.1631687e-39
-0.23698585 0.67590225 2.618926 6.5203202e-39
-0.2363845 0.68066728 2.6191118 6.6121557e-39
-0.24022077 0.6901499 2.6357741 7.5326645e-39
-0.24558985 0.70193607 2.6584291 7.439764e-39
-0.25030521 0.71282631 2.6785672 7.9000345e-39
-0.24968968 0.71770424 2.6787574 8.0876501e-39
-0.17040184 -0.64861226 1.8106624 5.5212505e-39
-0.17049903 -0.59302783 1.8358511 5.5133626e-39
-0.17101409 -0.58456486 1.8413056 4.4999393e-39
-0.16952872 -0.58052099 1.8383068 5.8807045e-39
-0.16905725 -0.57660425 1.8385333 6.0640168e-39
-0.16974413 -0.57450151 1.8416978 5.2346233e-39
-0.17256956 -0.57392401 1.8511026 5.2346233e-39
-0.17214394 -0.5705514 1.851234 5.2346233e-39
-0.1717183 -0.56717873 1.8513654 5.0509523e-39
-0.17367868 -0.55974668 1.8610374 6.3366492e-39
-0.17366931 -0.55086619 1.8649812 6.9827319e-39
-0.17381707 -0.54739857 1.8670113 6.9823718e-39
-0.17476486 -0.54538739 1.8709793 6.4284847e-39
-0.17433463 -0.5419783 1.8711122 6.4284847e-39
-0.17390448 -0.53856933 1.8712451 5.9700247e-39
-0.17281932 -0.53462058 1.8694994 6.9823718e-39
-0.1730441 -0.53175122 1.871511 6.4295609e-39
-0.17539553 -0.52741879 1.8810619 7.1631687e-39
-0.17496306 -0.52399158 1.8811955 6.3373667e-39
-0.17453058 -0.52056432 1.8813292 6.3373667e-39
-0.1740981 -0.51713705 1.8814628 6.4295609e-39
-0.17281461 -0.51278353 1.8792561 7.1664001e-39
-0.17323303 -0.51028258 1.88173 6.8883797e-39
-0.17262445 -0.50657386 1.8814194 7.4437002e-39
-0.17236808 -0.50342804 1.8819972 6.8905321e-39
-0.17180684 -0.49988902 1.8817642 7.4437002e-39
-0.17150308 -0.49657354 1.8822644 7.5323043e-39
-0.17070489 -0.49287823 1.8813342 8.0854739e-39
-0.1706381 -0.48971909 1.8825316 7.6248615e-39
-0.17200464 -0.47786784 1.8922589 7.5351938e-39
-0.17514333 -0.47719124 1.9027224 7.3525878e-39
-0.17364448 -0.47283462 1.8998197 7.537335e-39
-0.17426875 -0.47026029 1.9029926 7.4458498e-39
-0.17352214 -0.46656364 1.9022299 7.7206403e-39
-0.17687669 -0.46566319 1.9134922 7.4451324e-39
-0.17539638 -0.46160173 1.9105176 7.8117583e-39
-0.175997 -0.45869222 1.913764 7.810322e-39
-0.17555714 -0.45520672 1.9138998 7.6248615e-39
-0.17511728 -0.45172122 1.9140357 7.8092458e-39
-0.17467745 -0.44823572 1.9141716 7.625216e-39
-0.17295016 -0.44360238 1.9106535 7.90144e-39
-0.17379776 -0.44126475 1.9144433 7.625216e-39
-0.17274529 -0.43721086 1.9128504 7.9936342e-39
-0.17291804 -0.43429375 1.9147151 7.8092458e-39
-0.17261659 -0.43085474 1.9152781 8.1758703e-39
-0.17549309 -0.42943639 1.9252248 7.8081696e-39
-0.17445874 -0.42567518 1.9235594 7.8099632e-39
-0.17460835 -0.42242536 1.9254981 7.8099632e-39
-0.17432326 -0.41926587 1.925989 7.8099632e-39
-0.17382991 -0.41514149 1.9262376 7.9921993e-39
-0.17328128 -0.41190884 1.9259081 7.8067346e-39
-0.17129543 -0.40714312 1.9216121 8.0840348e-39
-0.17552112 -0.40669188 1.9354936 7.6244986e-39
-0.17357586 -0.40209493 1.9312536 7.90144e-39
-0.17463179 -0.3996444 1.9357684 7.7159753e-39
-0.173438 -0.39563122 1.9336997 7.9911231e-39
-0.17374238 -0.39259696 1.936043 7.8060172e-39
-0.17407477 -0.38958311 1.9384676 8.0843935e-39
-0.17627504 -0.38740292 1.946566 7.8081696e-39
-0.17657509 -0.38449866 1.9488368 7.992558e-39
-0.17910816 -0.38229358 1.9580237 7.6241398e-39
-0.17860879 -0.37909111 1.9578403 7.808887e-39
-0.17810664 -0.37489396 1.9580929 7.9918406e-39
-0.1811676 -0.37335011 1.9686928 7.8081696e-39
-0.18071514 -0.36976454 1.9688325 7.9907644e-39
-0.1836669 -0.36789212 1.9792258 7.8081696e-39
-0.18321186 -0.36428654 1.9793663 7.8081696e-39
-0.18275686 -0.36068088 1.9795069 7.8081696e-39
-0.18230185 -0.35707527 1.9796474 7.8081696e-39
-0.18184683 -0.35346958 1.9797881 7.8992876e-39
-0.18033694 -0.34956253 1.9766486 8.0843935e-39
-0.17982882 -0.34532252 1.9769012 8.0847523e-39
-0.17709522 -0.34107971 1.9699507 7.9896882e-39
-0.17635997 -0.33710316 1.96935 8.3584651e-39
-0.17619032 -0.33390853 1.9702302 8.0818824e-39
-0.17550582 -0.3301127 1.9697131 8.2677058e-39
-0.17528534 -0.32673734 1.9705098 8.1747941e-39
-0.17820677 -0.32462469 1.9809124 8.1747941e-39
-0.1814297 -0.32260406 1.9922498 8.0818824e-39
-0.18097194 -0.31897664 1.9923913 8.0818824e-39
-0.18051416 -0.31534919 1.9925327 7.8081696e-39
-0.1816543 -0.31253192 1.9974843 8.085111e-39
-0.18260442 -0.30884942 2.002208 7.9929168e-39
-0.18280497 -0.3059426 2.004158 7.8081696e-39
-0.18173572 -0.30173826 2.002578 8.1769465e-39
-0.18188395 -0.29864395 2.0044425 8.0818824e-39
-0.18086697 -0.29462698 2.002948 8.3599e-39
-0.18096285 -0.29134536 2.0047269 8.1747941e-39
-0.17999834 -0.28751558 2.0033183 8.3602587e-39
-0.18004183 -0.28404674 2.0050116 8.1747941e-39
-0.17958127 -0.28039742 2.0051537 8.1744354e-39
-0.17912079 -0.27674815 2.005296 8.1744354e-39
-0.18199633 -0.27427146 2.015713 8.1747941e-39
-0.18153326 -0.27060214 2.015856 8.3577476e-39
-0.1796408 -0.26669657 2.0114775 8.452453e-39
-0.18191651 -0.26331097 2.0203595 8.3602587e-39
-0.18377247 -0.26078609 2.0274973 7.9907644e-39
-0.18257098 -0.25663871 2.0254638 8.5432123e-39
-0.18284079 -0.25340375 2.0277851 8.4495831e-39
-0.18245654 -0.24969026 2.0282028 8.6354065e-39
-0.18552652 -0.24712588 2.0392885 8.4495831e-39
-0.18435822 -0.24332355 2.0372081 8.7268833e-39
-0.1845894 -0.23969989 2.039578 8.5428535e-39
-0.18412082 -0.23598689 2.0397227 8.5428535e-39
-0.18365224 -0.23227389 2.0398674 8.452453e-39
-0.18708746 -0.22963911 2.0521669 8.4520942e-39
-0.18661591 -0.22590245 2.0523126 8.3599e-39
-0.1861444 -0.22216578 2.0524583 8.5428535e-39
-0.18461645 -0.21785559 2.0494409 8.7290385e-39
-0.18520127 -0.21469246 2.0527496 8.5439297e-39
-0.18372801 -0.21057889 2.0498211 9.0041876e-39
-0.18425824 -0.20721914 2.053041 8.6350478e-39
-0.18283938 -0.20330201 2.0502009 8.820874e-39
-0.18331513 -0.1997458 2.0533323 8.7268861e-39
-0.18270892 -0.19620079 2.0529563 8.82159e-39
-0.18594785 -0.19304931 2.0648518 8.5439297e-39
-0.18547358 -0.18929079 2.0649981 8.5439297e-39
-0.18499929 -0.1855323 2.0651448 8.8201537e-39
-0.18452494 -0.1817738 2.0652912 8.636124e-39
-0.18405066 -0.17801529 2.0654378 8.8208712e-39
-0.18357638 -0.17425679 2.0655842 9.0031072e-39
-0.18192023 -0.17005624 2.0621028 9.2804102e-39
-0.18262772 -0.16673978 2.0658772 8.8219473e-39
-0.18215346 -0.16298127 2.0660238 9.0031072e-39
-0.18167922 -0.15922275 2.0661705 9.0031072e-39
-0.18466784 -0.15614738 2.0772216 9.0985356e-39
-0.18457161 -0.15228713 2.0786376 8.8205124e-39
-0.18409432 -0.14850494 2.0787849 8.8219473e-39
-0.18361703 -0.14472279 2.0789323 8.8208712e-39
-0.18313977 -0.14094055 2.0790799 8.8208712e-39
-0.18358739 -0.1367646 2.0823977 9.0988916e-39
-0.18218516 -0.13337623 2.0793748 8.8219473e-39
-0.18523693 -0.12999965 2.090765 8.8226648e-39
-0.18857706 -0.12661137 2.1030939 8.8219473e-39
-0.18740888 -0.12256616 2.1011224 9.0059785e-39
-0.19142523 -0.11932442 2.1155748 9.0031072e-39
-0.18942007 -0.11537233 2.1108522 9.281485e-39
-0.19045319 -0.11162177 2.115875 9.1889306e-39
-0.18850553 -0.10787776 2.1112454 9.0992531e-39
-0.18948118 -0.1039191 2.1161754 9.0063358e-39
-0.18916067 -0.10050279 2.1166666 9.2807703e-39
-0.18850915 -0.096216448 2.1164756 9.0031072e-39
-0.18802316 -0.092365116 2.1166258 8.8226648e-39
-0.18753707 -0.088513806 2.1167758 8.8226648e-39
-0.19491705 -0.084985271 2.1422453 8.8219473e-39
-0.19442482 -0.081084803 2.1423972 9.0960189e-39
-0.19393264 -0.077184319 2.1425493 9.0031072e-39
-0.19525304 -0.07324665 2.1485858 9.5552006e-39
-0.19672358 -0.069444172 2.1550479 9.1882131e-39
-0.19521528 -0.065631084 2.1518717 9.3729617e-39
-0.19573317 -0.061595909 2.1553538 9.1889306e-39
-0.19509995 -0.057994753 2.1549156 9.3736792e-39
-0.19765013 -0.053321633 2.1652622 9.5580691e-39
-0.19829722 -0.04976159 2.1689501 9.1885719e-39
-0.19779883 -0.045811974 2.1691041 9.1885719e-39
-0.19730046 -0.04186235 2.1692581 9.1885719e-39
-0.19680199 -0.037912741 2.1694119 9.3733191e-39
-0.19630359 -0.033963121 2.1695659 9.5559139e-39
-0.19580518 -0.030013509 2.1697199 9.4662308e-39
-0.19530675 -0.026063835 2.169874 9.4637196e-39
-0.19436136 -0.022126179 2.1685755 1.0016891e-38
-0.19430989 -0.018164609 2.1701818 9.6488255e-39
-0.19342159 -0.014427308 2.1689787 9.9261299e-39
-0.19331305 -0.010265379 2.1704898 9.6488255e-39
-0.19248183 -0.0067281979 2.1693819 1.0018681e-38
-0.19449857 -0.001830772 2.178102 1.00194e-38
-0.19181778 0.001583409 2.1709516 9.5587837e-39
-0.19131939 0.0055330852 2.1711056 9.6506192e-39
-0.19482242 0.0099267801 2.1844118 9.7410198e-39
-0.19831908 0.014371566 2.1977203 9.6488255e-39
-0.19781423 0.018372085 2.1978762 9.6499017e-39
-0.19944783 0.038769823 2.2122924 1.0203787e-38
-0.1987609 0.043023553 2.2119722 9.6499017e-39
-0.19848888 0.046624761 2.2127032 1.0019042e-38
-0.19791871 0.051399682 2.2129941 1.0110877e-38
-0.19327059 0.054377351 2.1992798 1.0017244e-38
-0.19276574 0.058377869 2.1994357 1.0384227e-38
-0.19622052 0.063153893 2.2127569 1.0109438e-38
-0.19571242 0.067180023 2.2129138 1.0109438e-38
-0.19520445 0.071206033 2.2130709 9.7435309e-39
-0.19864635 0.076083988 2.2263958 9.7435309e-39
-0.19813512 0.080135472 2.2265539 9.7435309e-39
-0.19761682 0.084106177 2.2266531 1.0295267e-38
-0.20133439 0.089233153 2.2409818 9.6506192e-39
-0.19987662 0.092790715 2.2378547 1.0478219e-38
-0.20111001 0.098058976 2.244205 1.0294548e-38
-0.20400169 0.10254624 2.255574 1.0109438e-38
-0.20335521 0.10686897 2.2554157 1.0386381e-38
-0.20296524 0.11075851 2.2558939 9.7435309e-39
-0.20244719 0.11486462 2.2560542 9.9261257e-39
-0.20192894 0.1189708 2.2562141 1.0109438e-38
-0.20141087 0.12307691 2.2563744 1.0109438e-38
-0.20508353 0.12842342 2.2706561 9.7435309e-39
-0.20456187 0.13255692 2.270817 1.0016885e-38
-0.20822421 0.13798523 2.2851019 1.0017244e-38
-0.20640719 0.14162108 2.2808471 1.0202711e-38
-0.20717397 0.14630669 2.2854261 9.6499017e-39
-0.20628068 0.14999834 2.2841864 1.0110161e-38
-0.20981087 0.15631258 2.2984397 1.0110517e-38
-0.2055988 0.15878899 2.2859128 9.8346489e-39
-0.20656127 0.16368137 2.2912178 1.0202354e-38
-0.20870863 0.16859655 2.3003685 1.0017244e-38
-0.20818008 0.17278452 2.3005319 1.0016885e-38
-0.20765154 0.17697261 2.3006949 1.0017244e-38
-0.20712306 0.1811606 2.3008583 9.9239733e-39
-0.20659451 0.18534872 2.3010216 9.6506192e-39
-0.20606609 0.18953674 2.3011849 9.7410198e-39
-0.20553753 0.19372483 2.301348 9.833214e-39
-0.20538557 0.19792362 2.3027351 1.0201994e-38
-0.2044805 0.20210092 2.3016746 9.833214e-39
-0.21059455 0.20867078 2.3244069 9.9246908e-39
-0.20906956 0.21331337 2.3215477 1.0108003e-38
-0.21168841 0.21847598 2.3323359 1.0014015e-38
-0.2114206 0.22303414 2.3335085 9.9236146e-39
-0.21061671 0.22696859 2.3326669 9.4637196e-39
-0.21008088 0.23121481 2.3328326 9.5559139e-39
-0.20954503 0.23546118 2.332998 9.5559139e-39
-0.20900914 0.2397074 2.3331635 9.3715254e-39
-0.20847327 0.24395373 2.333329 9.4637196e-39
-0.20793749 0.24819998 2.3334947 9.4637196e-39
-0.21176888 0.2545847 2.3487549 9.5559139e-39
-0.2112494 0.25871354 2.3489208 9.9243334e-39
-0.21068983 0.26313558 2.3490884 9.4637196e-39
-0.2145424 0.26924753 2.364295 9.9254096e-39
-0.2158953 0.27536333 2.3714113 1.019984e-38
-0.21342015 0.27824584 2.3646886 9.8307029e-39
-0.21486625 0.28378466 2.3718486 9.8328581e-39
-0.21233374 0.28685492 2.3650243 9.3708079e-39
-0.22073744 0.29605034 2.3963437 9.4637196e-39
-0.22018668 0.30041501 2.3965139 9.4651546e-39
-0.21963595 0.30477953 2.3966842 9.5559139e-39
-0.21908505 0.30914423 2.3968542 9.4637196e-39
-0.21853432 0.31350875 2.3970244 9.2811248e-39
-0.21798347 0.31787342 2.3971944 9.4637196e-39
-0.21619967 0.32136154 2.3929808 9.7406624e-39
-0.21688199 0.32660255 2.3975348 9.3715254e-39
-0.21613593 0.33044112 2.3968375 9.6491843e-39
-0.21648809 0.33620891 2.4005587 9.4647958e-39
-0.21522963 0.33969647 2.3980453 9.0960189e-39
-0.2164152 0.34533322 2.4044058 9.4651546e-39
-0.21869019 0.35131657 2.414448 9.1874957e-39
-0.21813557 0.35571203 2.4146194 9.0960189e-39
-0.21758083 0.36010763 2.4147906 9.0038247e-39
-0.21702617 0.36450312 2.4149621 9.0960189e-39
-0.21647146 0.36889872 2.4151335 9.1882131e-39
-0.21591681 0.3732942 2.4153049 9.0038247e-39
-0.2199008 0.38076636 2.4315457 9.3708079e-39
-0.2187905 0.38467863 2.429702 9.3726016e-39
-0.21878366 0.38961932 2.4318907 9.0031072e-39
-0.21876776 0.39402014 2.4338088 9.2796899e-39
-0.21916537 0.40000269 2.4377732 9.5551964e-39
-0.21710783 0.40289867 2.4324086 8.910913e-39
-0.21810785 0.40865901 2.4382234 9.0052596e-39
-0.22076747 0.41523862 2.4497774 8.910913e-39
-0.22020474 0.41969779 2.4499512 9.0045421e-39
-0.21964195 0.42415708 2.450125 9.0949427e-39
-0.21907929 0.42861623 2.4502988 8.5439297e-39
-0.21851644 0.43307555 2.4504726 8.727242e-39
-0.21795377 0.43753475 2.4506464 8.727242e-39
-0.21739104 0.44199407 2.4508202 8.727242e-39
-0.21711944 0.44658217 2.4519942 9.1885733e-39
-0.21626559 0.45091256 2.4511681 8.5439297e-39
-0.21707404 0.4560892 2.4561017 9.0970951e-39
-0.21745102 0.46220985 2.4600611 8.7308293e-39
-0.21457741 0.46429023 2.4516895 8.3616937e-39
-0.21638379 0.47094095 2.4605131 8.7304706e-39
-0.21345195 0.4732087 2.4520371 8.3616937e-39
-0.21734591 0.48139432 2.4683058 8.3616937e-39
-0.22149414 0.48986283 2.4855239 8.3616937e-39
-0.22092341 0.49438575 2.4857004 8.2694994e-39
-0.22505909 0.50295252 2.5029221 8.2694994e-39
-0.22448416 0.5075081 2.5030997 8.2694994e-39
-0.2239093 0.51206392 2.5032773 8.2694994e-39
-0.22228968 0.51565319 2.4996405 8.7283182e-39
-0.22275946 0.52117532 2.5036323 8.1765877e-39
-0.22328192 0.52637339 2.5076499 8.6382778e-39
-0.22369941 0.53275508 2.511857 8.6372002e-39
-0.22597216 0.53935301 2.5221672 8.1765877e-39
-0.22744772 0.54612297 2.5299733 8.7283196e-39
-0.22481368 0.54853356 2.5225251 8.1765877e-39
-0.2242344 0.55312383 2.5227039 8.0843935e-39
-0.22444451 0.55810285 2.5256124 8.5439297e-39
-0.22379029 0.56356734 2.5259397 8.1773052e-39
-0.22249654 0.56689483 2.5232408 7.8992876e-39
-0.21894521 0.5689069 2.5126448 8.0840348e-39
-0.22159922 0.58151025 2.5268764 7.992558e-39
-0.22017953 0.58525598 2.5239565 7.5323043e-39
-0.22156036 0.59152699 2.5312331 7.8078108e-39
-0.22390607 0.59936208 2.5423326 7.4390339e-39
-0.22898167 0.60915571 2.5631461 7.8074521e-39
-0.22563644 0.61194038 2.5535631 7.7159753e-39
-0.22702719 0.61826593 2.5608957 7.1631687e-39
-0.22643922 0.6229254 2.5610774 6.8883797e-39
-0.22585115 0.62758482 2.561259 7.1631687e-39
-0.22526312 0.63224435 2.5614405 6.7054261e-39
-0.22467516 0.6369037 2.5616221 6.8883797e-39
-0.23378748 0.65196753 2.5978615 7.1631687e-39
-0.2331907 0.6566962 2.5980458 7.4386752e-39
-0.23191357 0.66078246 2.5957401 7.4393927e-39
-0.23199727 0.66615337 2.5984144 7.0713332e-39
-0.22819811 0.66713333 2.5865543 6.7961854e-39
-0.22114713 0.66486055 2.562712 6.7039912e-39
-0.22055918 0.66951996 2.5628936 6.7039912e-39
-0.23229437 0.68854541 2.6093967 7.0745674e-39
-0.23051786 0.69293433 2.6056099 7.1682092e-39
-0.23879832 0.70642257 2.6384513 6.4284889e-39
-0.24325168 0.71706575 2.6576304 7.0774401e-39
-0.24203019 0.72674501 2.6580079 7.7271087e-39
-0.23307106 0.73296213 2.6317875 8.1916811e-39
-0.17118461 -0.54236454 1.8607421 5.5288609e-39
-0.17157722 -0.49956828 1.8811643 3.5844542e-39
-0.17114472 -0.49614105 1.8812979 3.4897489e-39
-0.16984724 -0.4858593 1.8816987 4.0439904e-39
-0.16941476 -0.48243207 1.8818324 4.2265852e-39
-0.16939047 -0.4757666 1.8847367 5.3271762e-39
-0.17346907 -0.46635747 1.9021504 5.0520285e-39
-0.17411402 -0.46045268 1.9068806 5.6037603e-39
-0.17328535 -0.45367286 1.907232 5.6955944e-39
-0.17475289 -0.45128137 1.9130528 5.1427878e-39
-0.17315967 -0.44735122 1.9096541 5.7874299e-39
-0.17387319 -0.4443104 1.9133246 4.8672813e-39
-0.17343333 -0.4408249 1.9134604 5.1427878e-39
-0.1729935 -0.4373394 1.9135963 5.5101298e-39
-0.17255361 -0.43385389 1.9137322 5.1427878e-39
-0.17211381 -0.43036845 1.9138681 5.2346233e-39
-0.17167389 -0.42688292 1.9140038 5.1427878e-39
-0.17050764 -0.42294693 1.9119897 5.6955972e-39
-0.17001632 -0.41884738 1.9122338 5.6034002e-39
-0.17379948 -0.41847748 1.9246463 5.2346233e-39
-0.1733571 -0.41497195 1.9247829 5.3264588e-39
-0.17291474 -0.41146645 1.9249195 5.5101298e-39
-0.17247236 -0.40796092 1.9250562 5.5101298e-39
-0.17203 -0.40445542 1.9251928 5.3264588e-39
-0.17158759 -0.40094993 1.9253294 5.9693073e-39
-0.17114523 -0.39744434 1.9254662 6.6121557e-39
-0.17070284 -0.39393884 1.9256028 6.2448137e-39
-0.17026046 -0.39043331 1.9257394 6.3366492e-39
-0.1698181 -0.38692781 1.9258761 6.7039912e-39
-0.16937575 -0.38342232 1.9260128 7.2550042e-39
-0.17117497 -0.38121414 1.9328254 7.531947e-39
-0.17501013 -0.37986821 1.9458429 7.1631687e-39
-0.17456292 -0.3763245 1.945981 7.1631687e-39
-0.17316978 -0.37193489 1.9434354 7.5323043e-39
-0.17366855 -0.36923704 1.9462574 7.4386752e-39
-0.17519213 -0.36648875 1.9524194 8.3588238e-39
-0.1764856 -0.36401579 1.9577131 8.0818824e-39
-0.1743449 -0.35955212 1.9527807 8.176229e-39
-0.17558564 -0.35688463 1.9579911 8.0818824e-39
-0.1749683 -0.35334146 1.9575782 8.1755116e-39
-0.17807782 -0.35138398 1.9685203 7.8060172e-39
-0.17762533 -0.34779838 1.96866 7.9918406e-39
-0.17717287 -0.3442128 1.9687998 7.8078108e-39
-0.17672032 -0.34062722 1.9689395 8.1737179e-39
-0.17626792 -0.33704168 1.9690794 7.7156166e-39
-0.17581543 -0.33345604 1.9692191 7.4386752e-39
-0.17421439 -0.32909748 1.9659867 8.0847537e-39
-0.17491041 -0.32628486 1.9694986 8.1747941e-39
-0.17595913 -0.32324824 1.9742523 8.085111e-39
-0.17737481 -0.32056403 1.9800363 7.8081696e-39
-0.17579706 -0.31653544 1.9767317 8.0854697e-39
-0.1764648 -0.31335282 1.9803174 8.3599e-39
-0.17967713 -0.31126392 1.9916512 7.8081696e-39
-0.17921937 -0.3076365 1.9917926 7.8081696e-39
-0.17876159 -0.30400902 1.9919339 7.9921993e-39
-0.17830379 -0.30038151 1.9920754 7.9921993e-39
-0.17784603 -0.29675406 1.9922168 8.2666296e-39
-0.17738834 -0.29312658 1.9923582 8.1747941e-39
-0.17693055 -0.28949916 1.9924996 7.9907644e-39
-0.1751219 -0.28519809 1.9885694 8.5439297e-39
-0.176015 -0.28224424 1.9927825 8.5424948e-39
-0.1770615 -0.27915254 1.9975537 8.452453e-39
-0.17873923 -0.27628765 2.004267 8.4495831e-39
-0.17688622 -0.27230594 2.0000501 8.543571e-39
-0.17781815 -0.268989 2.0045514 8.1747941e-39
-0.17735767 -0.26533976 2.0046937 8.267347e-39
-0.18022348 -0.26280048 2.0151072 8.1747941e-39
-0.17976046 -0.25913113 2.0152502 8.1747941e-39
-0.17929737 -0.25546184 2.0153933 7.9911231e-39
-0.17883436 -0.25179252 2.0155363 8.4503006e-39
-0.17837128 -0.24812311 2.0156794 8.4495831e-39
-0.17790823 -0.24445382 2.0158224 8.4495831e-39
-0.17943259 -0.24130048 2.0221682 8.6361254e-39
-0.1805917 -0.23817323 2.0273197 8.1765877e-39
-0.17932016 -0.23434414 2.0249171 8.6375603e-39
-0.17966004 -0.23079093 2.0276074 8.5439297e-39
-0.17844209 -0.22715361 2.0252924 8.6368442e-39
-0.18144816 -0.22375345 2.0365453 8.7293972e-39
-0.18185833 -0.22066629 2.0392544 8.6343303e-39
-0.18138972 -0.21695332 2.0393991 8.6350478e-39
-0.18092126 -0.2132403 2.0395441 9.002031e-39
-0.18045267 -0.2095273 2.0396888 8.9098368e-39
-0.17998412 -0.2058143 2.0398335 9.1849845e-39
-0.18339591 -0.20301093 2.0521328 8.7268833e-39
-0.18292445 -0.19927424 2.0522785 8.7268833e-39
-0.17980355 -0.19494456 2.0441132 9.1885761e-39
-0.18198134 -0.19180089 2.0525699 9.002031e-39
-0.17967752 -0.18785191 2.0468791 9.1882173e-39
-0.18103822 -0.18432756 2.0528612 8.636124e-39
-0.17954873 -0.18074237 2.0496438 8.8226704e-39
-0.17977926 -0.17648333 2.0522959 9.4644399e-39
-0.17962357 -0.17311756 2.0532982 9.0956602e-39
-0.18270907 -0.17002398 2.0646708 9.0038247e-39
-0.18223481 -0.16626546 2.0648174 9.0956602e-39
-0.18176045 -0.16250697 2.0649638 8.6364827e-39
-0.18128619 -0.15874846 2.0651104 8.8201537e-39
-0.18081193 -0.15498993 2.0652571 8.8201537e-39
-0.18033759 -0.15123145 2.0654035 8.8212313e-39
-0.1798633 -0.14747295 2.0655501 9.0052596e-39
-0.17938894 -0.14371443 2.0656965 8.8219473e-39
-0.17891471 -0.13995585 2.0658431 8.6372002e-39
-0.17844033 -0.13619737 2.0659895 8.8208712e-39
-0.17796606 -0.13243887 2.0661361 8.8219473e-39
-0.18155381 -0.12891142 2.0793288 9.1907271e-39
-0.18083519 -0.12533461 2.078603 8.8219473e-39
-0.18387921 -0.12191159 2.0899889 8.8219473e-39
-0.18721084 -0.11847299 2.102313 9.1878544e-39
-0.1829191 -0.11430356 2.0902855 9.4633609e-39
-0.18243906 -0.11049956 2.0904338 9.1885719e-39
-0.18195905 -0.10669555 2.0905821 8.7304706e-39
-0.18147889 -0.10289156 2.0907302 9.0038247e-39
-0.18403608 -0.099441834 2.1005521 9.2818451e-39
-0.18431269 -0.095506981 2.1032083 9.0045421e-39
-0.18394968 -0.092036165 2.1035864 9.373682e-39
-0.18415582 -0.087538756 2.1062663 9.3729645e-39
-0.18286355 -0.084023915 2.1036558 8.8212313e-39
-0.18406405 -0.080097266 2.1092992 9.1900124e-39
-0.1856764 -0.076473728 2.1161401 9.1874957e-39
-0.18519033 -0.072622404 2.1162903 9.0949427e-39
-0.18470439 -0.068771057 2.1164405 9.0045421e-39
-0.1842183 -0.064919747 2.1165905 8.9119892e-39
-0.19155593 -0.061090209 2.1420577 9.4633609e-39
-0.19106367 -0.057189748 2.1422095 9.3711667e-39
-0.19433245 -0.053252444 2.1545532 9.0045421e-39
-0.19179696 -0.049585041 2.1479864 9.5577103e-39
-0.19334207 -0.04540417 2.1548591 9.1885719e-39
-0.19086623 -0.041953743 2.1483884 9.5580719e-39
-0.19120416 -0.037298303 2.1515656 9.7424617e-39
-0.19185646 -0.033631764 2.155318 9.4662308e-39
-0.1910864 -0.029624 2.1546187 9.9257712e-39
-0.19086602 -0.025783446 2.1556239 9.5559139e-39
-0.19037086 -0.021859309 2.155777 9.4644371e-39
-0.18987559 -0.017935181 2.1559298 9.4637294e-39
-0.18938045 -0.014011039 2.1560829 9.4644371e-39
-0.18888517 -0.010086916 2.1562357 9.6488255e-39
-0.18838999 -0.006162778 2.1563888 9.6488255e-39
-0.18789485 -0.0022386364 2.1565418 9.7410198e-39
-0.18700692 0.0013703504 2.1552825 1.0019399e-38
-0.18951076 0.0063435379 2.1656134 1.0109444e-38
-0.19040799 0.0099810623 2.1701458 9.7410198e-39
-0.19243632 0.014484423 2.1787271 1.0017967e-38
-0.19739594 0.018876938 2.196748 9.7403023e-39
-0.19436687 0.042880412 2.1976838 9.8335727e-39
-0.18939045 0.050179388 2.1848404 9.8339315e-39
-0.18824136 0.05371692 2.1827035 1.0385666e-38
-0.18855552 0.058589272 2.1859012 1.0294905e-38
-0.18788554 0.062104732 2.1853054 1.0109079e-38
-0.19143137 0.067117952 2.1990273 1.0109798e-38
-0.19083291 0.070884518 2.1987755 9.6499017e-39
-0.19524117 0.075940251 2.2153084 1.0110877e-38
-0.19376732 0.079766214 2.2122493 9.6506192e-39
-0.19720018 0.084698349 2.2255692 9.8342902e-39
-0.19668891 0.088749833 2.2257271 9.6499017e-39
-0.19617762 0.092801437 2.2258852 1.0016885e-38
-0.19566631 0.096852906 2.226043 1.0016885e-38
-0.19515505 0.10090452 2.2262011 9.833214e-39
-0.19884899 0.10606325 2.2404675 9.5580662e-39
-0.19230388 0.10816325 2.2202194 1.038746e-38
-0.19346932 0.11342341 2.226346 1.0203429e-38
-0.19730482 0.11829983 2.2409446 9.8342902e-39
-0.19751051 0.12276583 2.243609 1.0019398e-38
-0.1962754 0.12645753 2.2412627 9.8346489e-39
-0.19973445 0.13170226 2.2548072 1.0386022e-38
-0.19524595 0.13461523 2.2415807 1.0109438e-38
-0.19890879 0.14001977 2.2558565 1.0109438e-38
-0.20256485 0.14547881 2.2701349 9.7435309e-39
-0.20204324 0.14961232 2.2702961 9.6506192e-39
-0.20152161 0.1537457 2.2704573 9.6506192e-39
-0.20099995 0.1578792 2.2706182 9.8346489e-39
-0.20047837 0.16201259 2.2707794 9.5580662e-39
-0.20360146 0.16704006 2.2831392 1.0294189e-38
-0.20394346 0.17231034 2.2866049 1.0110517e-38
-0.20306352 0.17595704 2.2853882 1.0109438e-38
-0.202952 0.18043232 2.2870297 1.0569697e-38
-0.2020134 0.18427853 2.2857127 1.0016526e-38
-0.20196052 0.18855456 2.2874548 1.0202354e-38
-0.20096327 0.19260004 2.286037 1.0017244e-38
-0.20043823 0.19676085 2.2861993 1.0201632e-38
-0.19991319 0.20092155 2.2863615 9.6488255e-39
-0.19938809 0.20508233 2.2865236 9.3726016e-39
-0.20298558 0.21100554 2.3008201 9.8310616e-39
-0.2024571 0.21519363 2.3009834 1.0015091e-38
-0.20192859 0.21938162 2.3011465 9.4647958e-39
-0.20168948 0.2232767 2.3021157 9.5591481e-39
-0.20300715 0.22911504 2.3089938 9.9261369e-39
-0.20034307 0.23194583 2.3016365 9.7406638e-39
-0.20435604 0.23842302 2.3175256 9.7417372e-39
-0.20365773 0.24240579 2.3170474 9.7410198e-39
-0.20433898 0.24712178 2.3213632 9.8332154e-39
-0.20695764 0.2529822 2.3324628 9.3726016e-39
-0.20642173 0.2572284 2.3326283 9.5559139e-39
-0.2058859 0.26147479 2.3327937 9.3726016e-39
-0.20534997 0.26572111 2.3329592 9.5559139e-39
-0.20916376 0.27222595 2.3482161 9.6481081e-39
-0.20862423 0.27650142 2.3483827 9.4647958e-39
-0.20808467 0.28077674 2.3485494 9.6481081e-39
-0.21176915 0.2868931 2.3632138 9.8332168e-39
-0.2111592 0.29200694 2.3635275 9.7421002e-39
-0.21079727 0.29600719 2.364146 9.6484668e-39
-0.21013442 0.30040482 2.3639681 1.011052e-38
-0.20971082 0.30461627 2.3644814 9.5559139e-39
-0.20910959 0.30880299 2.3644087 9.5577131e-39
-0.20862438 0.31322536 2.3648171 9.5555551e-39
-0.20808119 0.3175298 2.364985 9.3726016e-39
-0.20753796 0.32183442 2.3651528 9.4637196e-39
-0.20699471 0.32613885 2.3653204 9.1889306e-39
-0.21532404 0.33588257 2.3966444 8.9127066e-39
-0.21477324 0.34024724 2.3968143 9.1889306e-39
-0.21422245 0.34461179 2.3969846 9.3715254e-39
-0.21332398 0.34832832 2.3957391 9.6488255e-39
-0.21270601 0.35351172 2.3960583 9.5562726e-39
-0.21257012 0.35770562 2.397495 9.1885719e-39
-0.21263431 0.36265272 2.3999166 9.3736778e-39
-0.21146849 0.36643484 2.3978353 9.1882131e-39
-0.21505965 0.37350607 2.4126248 9.2804074e-39
-0.21490245 0.37824452 2.4142365 9.1867782e-39
-0.21434781 0.38264 2.414408 9.0956602e-39
-0.21379314 0.38703561 2.4145794 8.910913e-39
-0.21323843 0.39143109 2.4147506 9.1849845e-39
-0.21268372 0.39582664 2.414922 8.910913e-39
-0.21212907 0.40022212 2.4150934 9.0023898e-39
-0.2115743 0.40461776 2.4152646 8.4520942e-39
-0.21392547 0.41075414 2.4256217 9.2814836e-39
-0.21082176 0.414159 2.417098 9.5573488e-39
-0.20991023 0.41780442 2.4157786 8.8208712e-39
-0.209774 0.42274278 2.4175477 8.5460821e-39
-0.20880093 0.42659551 2.4161215 8.3606175e-39
-0.2097472 0.43210232 2.4216492 9.0045421e-39
-0.20769151 0.4353866 2.4164641 8.6354065e-39
-0.20713679 0.43978205 2.4166355 8.2694994e-39
-0.2065822 0.44417769 2.4168069 8.7279595e-39
-0.20602743 0.44857314 2.4169781 9.0023898e-39
-0.20547272 0.45296872 2.4171495 8.6354065e-39
-0.20938323 0.46100163 2.4334035 8.3606175e-39
-0.20882462 0.46542814 2.4335759 8.3606175e-39
-0.20856507 0.46976584 2.4346769 8.7304706e-39
-0.2089484 0.4758724 2.4386504 8.8215886e-39
-0.21186018 0.48269004 2.4511273 8.2694994e-39
-0.21589191 0.49134481 2.4680517 8.6382764e-39
-0.21517654 0.49543154 2.4675648 8.1780227e-39
-0.21582986 0.5009774 2.4721613 8.7293958e-39
-0.21873809 0.50852543 2.4849536 8.6354065e-39
-0.21816735 0.51304829 2.4851301 7.9918406e-39
-0.21759661 0.51757127 2.4853065 7.9918406e-39
-0.2170258 0.52209419 2.4854827 8.1765877e-39
-0.21645506 0.52661717 2.4856591 8.3595413e-39
-0.21588425 0.53114015 2.4858353 8.2666296e-39
-0.21531345 0.53566313 2.4860117 8.6343303e-39
-0.21827191 0.54318678 2.4989555 8.5439297e-39
-0.21417202 0.54470897 2.4863644 8.3595413e-39
-0.21360116 0.54923189 2.4865406 7.8081696e-39
-0.21303049 0.55375493 2.486717 7.8081696e-39
-0.21245968 0.55827785 2.4868932 7.8063759e-39
-0.21131814 0.5673238 2.4872458 7.8070934e-39
-0.21538426 0.57641876 2.5044787 7.6234224e-39
-0.21480939 0.58097446 2.5046563 7.4390339e-39
-0.21423441 0.58553016 2.5048339 7.4390339e-39
-0.21365954 0.59008598 2.5050116 7.1631687e-39
-0.21796171 0.5996061 2.5231988 7.1631687e-39
-0.21738245 0.60419643 2.5233779 6.9812914e-39
-0.21859819 0.61041784 2.5300972 7.2582328e-39
-0.21622391 0.61337698 2.5237358 6.8883797e-39
-0.21750037 0.61940205 2.5305641 7.6230636e-39
-0.22265047 0.63100612 2.5524287 7.1646036e-39
-0.21933706 0.63231975 2.5422904 6.8883797e-39
-0.22154222 0.64006919 2.5528967 7.7152579e-39
-0.21816976 0.64156961 2.5426509 7.3468397e-39
-0.222424 0.65147012 2.5608532 7.1631687e-39
-0.22183597 0.65612966 2.5610347 6.5203202e-39
-0.22124796 0.66078907 2.5612164 6.5203202e-39
-0.22065999 0.66544855 2.561398 6.7039912e-39
-0.22007203 0.67010796 2.5615797 6.7039912e-39
-0.21948406 0.67476749 2.5617614 6.5203202e-39
-0.22038727 0.68100584 2.5674772 7.0720507e-39
-0.21830796 0.68408638 2.5621245 6.5203202e-39
-0.22037572 0.691383 2.5720835 7.3489977e-39
-0.2270463 0.70549279 2.5999916 7.718855e-39
-0.23117881 0.71522504 2.6177244 6.8876664e-39
-0.23382831 0.72407198 2.6302602 7.7199354e-39
-0.23526537 0.73104483 2.6380329 7.9011149e-39
-0.23465928 0.73584813 2.6382203 8.0901501e-39
-0.22336173 0.77717036 2.6201394 7.1796984e-39
-0.22276038 0.78193545 2.6203251 7.4552063e-39
-0.16948888 -0.48542681 1.8807322 5.9800692e-39
-0.16862386 -0.47857231 1.8809994 4.7786744e-39
-0.1713827 -0.4421289 1.9062387 5.1435052e-39
-0.17055456 -0.43535063 1.9065911 5.7867125e-39
-0.17086965 -0.42295757 1.9131569 3.7652553e-39
-0.17042981 -0.41947207 1.9132928 3.7652553e-39
-0.17210583 -0.40751857 1.9240676 4.6836103e-39
-0.17166345 -0.40401307 1.9242043 4.4081038e-39
-0.17122112 -0.40050757 1.924341 4.9591168e-39
-0.17077868 -0.39700198 1.9244776 5.6019653e-39
-0.17033638 -0.39349648 1.9246143 5.4182943e-39
-0.16989394 -0.38999096 1.9247509 5.5101298e-39
-0.16945158 -0.38648543 1.9248875 5.6938008e-39
-0.16900919 -0.38297993 1.9250243 6.4284847e-39
-0.17167154 -0.38113648 1.9344678 6.4284847e-39
-0.17122693 -0.3776128 1.9346051 6.4284847e-39
-0.17338388 -0.37575924 1.9424171 6.8898174e-39
-0.17374523 -0.37233359 1.9451199 6.4284847e-39
-0.17329802 -0.36878985 1.945258 6.5203202e-39
-0.17240365 -0.36170238 1.9455343 7.0713332e-39
-0.17019193 -0.35708484 1.940441 7.6245014e-39
-0.17150916 -0.35461491 1.9458106 7.2550042e-39
-0.1729002 -0.35191959 1.9515197 7.6245014e-39
-0.17431295 -0.34930345 1.9572637 7.6223462e-39
-0.17282934 -0.34535819 1.9542264 7.9929182e-39
-0.17341305 -0.34217227 1.9575417 7.9918406e-39
-0.1726785 -0.33874351 1.9566982 8.3591825e-39
-0.17217553 -0.33453888 1.9569516 8.1762318e-39
-0.17544051 -0.33300358 1.968208 7.9918406e-39
-0.17498802 -0.32941797 1.9683478 7.9921993e-39
-0.17453553 -0.32583237 1.9684875 8.267347e-39
-0.1740831 -0.32224676 1.9686273 7.9921993e-39
-0.17363057 -0.31866115 1.968767 7.7159753e-39
-0.17190927 -0.31443256 1.9650872 7.90144e-39
-0.17272562 -0.31149 1.9690466 8.2677058e-39
-0.17105685 -0.30745155 1.9654517 8.085111e-39
-0.17182061 -0.30431879 1.9693261 7.8081696e-39
-0.17089933 -0.30075547 1.9679383 8.3606175e-39
-0.17426775 -0.29847527 1.9798628 7.8081696e-39
-0.17339367 -0.29508117 1.9785521 8.3588238e-39
-0.17288475 -0.29082692 1.9788084 8.2680645e-39
-0.17290269 -0.28765845 1.9802845 7.9907644e-39
-0.17609349 -0.28541392 1.991618 8.4495831e-39
-0.17563576 -0.28178647 1.9917595 8.4503006e-39
-0.17517798 -0.27815899 1.9919009 8.2677058e-39
-0.17472021 -0.27453157 1.9920423 8.3573889e-39
-0.17201862 -0.27009133 1.9852837 8.4510208e-39
-0.17380467 -0.26727661 1.9923252 8.1747941e-39
-0.17471451 -0.26425132 1.9966242 8.5439325e-39
-0.17651559 -0.26122993 2.0038068 8.1747941e-39
-0.17453997 -0.25739038 1.9991297 8.3595427e-39
-0.17479299 -0.25334212 2.0017602 8.452453e-39
-0.17513405 -0.25028202 2.0042336 8.5424948e-39
-0.17469117 -0.24647491 2.0045037 8.6354079e-39
-0.17752455 -0.24399078 2.0147877 8.4495831e-39
-0.17706157 -0.24032143 2.0149307 8.3595413e-39
-0.17659852 -0.23665212 2.0150738 8.1765877e-39
-0.17613544 -0.23298281 2.0152168 8.3602587e-39
-0.17567246 -0.22931349 2.0153599 8.267347e-39
-0.17429827 -0.22545588 2.0126376 8.636124e-39
-0.17834251 -0.2229428 2.0268543 8.1747941e-39
-0.17618176 -0.21903393 2.0216088 8.819795e-39
-0.17566134 -0.21468349 2.0218709 8.8205124e-39
-0.17694515 -0.21186933 2.0272861 8.8176426e-39
-0.17554782 -0.20769425 2.024631 9.278978e-39
-0.17601351 -0.20448701 2.0275738 9.1849845e-39
-0.17665458 -0.20096368 2.0312257 9.2804116e-39
-0.17865872 -0.19791976 2.0390759 9.0031072e-39
-0.1781902 -0.19420668 2.0392206 8.910913e-39
-0.17772168 -0.19049369 2.0393655 9.002031e-39
-0.17725313 -0.18678069 2.0395103 9.002031e-39
-0.17678457 -0.18306766 2.039655 8.636124e-39
-0.18017599 -0.18011935 2.0519531 8.4535292e-39
-0.17970444 -0.17638268 2.0520988 9.0031072e-39
-0.17803325 -0.17273641 2.0483205 9.4651588e-39
-0.17750594 -0.16832373 2.048588 9.1889348e-39
-0.17828977 -0.1651727 2.0525358 9.0031072e-39
-0.17737582 -0.16118094 2.0513635 9.1896509e-39
-0.17734674 -0.15769935 2.0528271 8.8201537e-39
-0.17920215 -0.15432121 2.0603452 9.1892935e-39
-0.17994465 -0.15075715 2.0643437 8.8212313e-39
-0.17947032 -0.14699866 2.0644901 8.8205124e-39
-0.17899597 -0.14324014 2.0646367 8.8219473e-39
-0.17852169 -0.13948157 2.0647831 8.8219473e-39
-0.1780474 -0.13572308 2.0649297 8.8208712e-39
-0.17757311 -0.13196458 2.0650761 8.8219473e-39
-0.17658406 -0.12921923 2.063103 9.0988916e-39
-0.17662449 -0.12444758 2.0653691 8.8219473e-39
-0.17635049 -0.12041091 2.0662887 9.0992489e-39
-0.17948511 -0.11729299 2.0778313 9.1878544e-39
-0.17912062 -0.11340865 2.0783896 9.5569929e-39
-0.17853056 -0.10972866 2.0781262 9.1885719e-39
-0.17821983 -0.10603024 2.0787754 9.1914445e-39
-0.17757601 -0.10216432 2.0784211 9.1882145e-39
-0.17709865 -0.098382168 2.0785685 9.0045421e-39
-0.17662145 -0.094599985 2.078716 9.1885719e-39
-0.17614409 -0.090817831 2.0788634 9.0045421e-39
-0.17566684 -0.087035656 2.079011 9.1878586e-39
-0.17868099 -0.083391421 2.090399 9.0052624e-39
-0.17814265 -0.07915011 2.0905542 9.1900124e-39
-0.18149732 -0.075885564 2.102875 9.0027485e-39
-0.18094438 -0.071812198 2.1029079 9.2807703e-39
-0.18053122 -0.068230234 2.1031733 9.0045421e-39
-0.18003319 -0.064346515 2.1032989 9.3736806e-39
-0.18332967 -0.060582396 2.1156547 9.3711667e-39
-0.18274377 -0.056871645 2.1154187 9.4644399e-39
-0.18235762 -0.05287974 2.1159549 9.1885719e-39
-0.18187159 -0.049028412 2.1161051 9.2807661e-39
-0.18138556 -0.045177083 2.1162553 9.1885719e-39
-0.1808995 -0.041325759 2.1164052 9.2807661e-39
-0.18041356 -0.037474416 2.1165555 9.3733191e-39
-0.17992756 -0.033623088 2.1167057 9.4662308e-39
-0.18081918 -0.0293124 2.1215212 9.8339329e-39
-0.18671812 -0.025493694 2.1423261 9.5559139e-39
-0.18582517 -0.021420024 2.1412582 9.8332182e-39
-0.18573369 -0.017692748 2.1426301 9.6477606e-39
-0.18489726 -0.013815837 2.1416574 9.74174e-39
-0.18474931 -0.0098917969 2.1429343 9.6488255e-39
-0.18478218 -0.0061483663 2.144716 9.9264872e-39
-0.1837648 -0.0020908606 2.1432383 9.6488255e-39
-0.18698932 0.002180632 2.1555882 9.4662308e-39
-0.18649413 0.0061048237 2.1557412 9.6488255e-39
-0.18599895 0.010028904 2.155894 9.6488255e-39
-0.18949659 0.014429141 2.1691859 9.6488255e-39
-0.19298795 0.018880244 2.1824799 9.8328553e-39
-0.19001046 0.022899857 2.1746399 1.0019047e-38
-0.19198467 0.026830435 2.1827898 9.7410198e-39
-0.18906857 0.030626776 2.1750486 1.0019402e-38
-0.18401405 0.057874862 2.1708796 9.833214e-39
-0.18351564 0.061824527 2.1710336 1.0016885e-38
-0.18696828 0.066581517 2.1843393 9.8328553e-39
-0.18646665 0.070556551 2.1844943 9.6499017e-39
-0.18900438 0.075544834 2.1949415 1.0110877e-38
-0.18940493 0.079390511 2.1979592 9.7431722e-39
-0.19185977 0.084212504 2.2080638 1.0294904e-38
-0.19233024 0.088326387 2.2114279 9.6499017e-39
-0.1909031 0.09205582 2.2084768 1.0294188e-38
-0.19131412 0.096378505 2.2117417 1.0016885e-38
-0.18994632 0.099899381 2.2088895 1.0201994e-38
-0.19422017 0.10546727 2.2252164 9.5580662e-39
-0.18978989 0.10845674 2.2122126 9.8346489e-39
-0.18928188 0.11248275 2.2123697 9.8346489e-39
-0.19268635 0.11762195 2.2256904 9.6499017e-39
-0.19217506 0.12167343 2.2258482 9.6499017e-39
-0.19166373 0.12572502 2.226006 9.6506192e-39
-0.19085918 0.13003033 2.2253282 1.047786e-38
-0.19064121 0.13382813 2.2263219 1.0109438e-38
-0.19169831 0.13849235 2.2318313 1.0386023e-38
-0.19379 0.14328761 2.2407484 9.7435309e-39
-0.19391035 0.1474707 2.2430098 1.0294907e-38
-0.19692497 0.15285628 2.2551789 9.6506192e-39
-0.19790938 0.1571347 2.2602801 1.0294905e-38
-0.19588867 0.16106857 2.2554991 9.6506192e-39
-0.19537042 0.1651748 2.2556591 9.7410198e-39
-0.19900297 0.17080112 2.2699361 9.6499017e-39
-0.19848134 0.1749346 2.2700973 1.0109438e-38
-0.19795977 0.179068 2.2702584 1.0199839e-38
-0.19743803 0.18320148 2.2704194 9.924332e-39
-0.19453205 0.18675227 2.2626009 1.0201995e-38
-0.19639489 0.19146839 2.2707417 9.833214e-39
-0.19533715 0.19550401 2.2691236 1.0294547e-38
-0.19535165 0.19973528 2.271064 9.7410198e-39
-0.19520918 0.20391545 2.2724733 9.925411e-39
-0.19430849 0.20800216 2.2713864 9.9232558e-39
-0.19607303 0.21276958 2.279232 1.0292396e-38
-0.19326517 0.21626905 2.2717085 9.6488255e-39
-0.19685283 0.22225039 2.2859991 9.0070533e-39
-0.19632779 0.22641107 2.2861614 9.4655245e-39
-0.19580275 0.23057188 2.2863235 9.7406638e-39
-0.19527765 0.23473257 2.2864857 9.6488255e-39
-0.19884822 0.24085043 2.300782 9.6488255e-39
-0.19747581 0.24499583 2.2981944 9.9254124e-39
-0.1977911 0.24922651 2.3011084 9.6488255e-39
-0.19980243 0.25481701 2.3101211 1.0016889e-38
-0.20108806 0.2598066 2.3165157 9.4647958e-39
-0.20303532 0.26518959 2.3252282 1.0016529e-38
-0.20437017 0.27050322 2.3319273 9.5559139e-39
-0.20484126 0.2749061 2.3354225 9.9254096e-39
-0.20329846 0.27899575 2.3322585 9.5559139e-39
-0.20276259 0.28324211 2.3324239 9.4637196e-39
-0.20222676 0.28748837 2.3325894 9.4651546e-39
-0.20169091 0.29173473 2.3327551 9.5562726e-39
-0.20115505 0.29598093 2.3329206 9.4651546e-39
-0.20061918 0.30022731 2.333086 9.4637196e-39
-0.19802646 0.30369249 2.3262436 9.5584278e-39
-0.19954747 0.3087199 2.3334172 9.5555551e-39
-0.19981182 0.31358775 2.3364513 9.8342944e-39
-0.20278183 0.31979507 2.3488436 9.4637196e-39
-0.20305513 0.32445812 2.351815 9.6491871e-39
-0.20170279 0.32834589 2.3491769 9.1889306e-39
-0.20628467 0.33544144 2.3671846 9.7413785e-39
-0.20491514 0.33959574 2.3646102 9.4637196e-39
-0.20437185 0.34390029 2.3647778 9.4637196e-39
-0.20382863 0.34820479 2.3649457 9.5555551e-39
-0.20328544 0.35250941 2.3651135 9.1885719e-39
-0.20274231 0.35681385 2.3652813 9.1889306e-39
-0.20219906 0.3611185 2.3654492 9.1882131e-39
-0.2012454 0.36559269 2.3643641 9.4647958e-39
-0.20991063 0.37571481 2.3969448 9.1867782e-39
-0.20788895 0.37925726 2.3919857 9.5566313e-39
-0.20880899 0.38444403 2.397285 9.0031072e-39
-0.2078163 0.38842672 2.3958535 9.4626434e-39
-0.20770742 0.39317319 2.3976252 9.0031072e-39
-0.20773941 0.39761913 2.3997183 9.2796899e-39
-0.20660591 0.40190238 2.3979657 8.5442885e-39
-0.20605509 0.40626708 2.3981357 8.8208712e-39
-0.20550433 0.4106316 2.3983059 9.0960189e-39
-0.20495352 0.41499621 2.3984761 8.6368414e-39
-0.19568057 0.41277286 2.3674626 8.3616937e-39
-0.20330119 0.42808998 2.3989866 8.6354065e-39
-0.20275037 0.43245462 2.3991566 8.6354065e-39
