# .PCD v0.7 - Point Cloud Data file format
VERSION 0.7
FIELDS x y z rgb
SIZE 4 4 4 4
TYPE F F F F
COUNT 1 1 1 1
WIDTH 1005
HEIGHT 1
VIEWPOINT 0 0 0 1 0 0 0
POINTS 1005
DATA ascii
-1.8636568 0.95669395 -0.25896439 1.5482731e-38
-1.8642571 0.96260989 -0.25474039 1.5297615e-38
-1.865508 0.98185295 -0.24336775 9.8577381e-39
-1.8655529 0.98843312 -0.24076886 8.8407065e-39
-1.8414345 0.23603041 -0.6018858 1.6871803e-38
-1.8414061 0.24155916 -0.59992528 1.6688131e-38
-1.8413874 0.24746916 -0.59779 1.6871446e-38
-1.8414267 0.25305316 -0.59558105 1.7054402e-38
-1.8414658 0.25863698 -0.59337205 1.6962202e-38
-1.8416767 0.26331031 -0.59092373 1.7054757e-38
-1.841572 0.26984984 -0.58884454 1.7146233e-38
-1.8427624 0.27992013 -0.5810867 1.7146954e-38
-1.8427559 0.28556406 -0.57901013 1.705548e-38
-1.8433347 0.31437385 -0.56634432 1.7239508e-38
-1.8442777 0.31878179 -0.56152654 1.7331701e-38
-1.8450868 0.35089031 -0.54685795 1.46584e-38
-1.8459995 0.37272456 -0.53566152 1.7608289e-38
-1.8459655 0.37845597 -0.53364444 1.7976351e-38
-1.8464875 0.38377193 -0.52990806 1.4567272e-38
-1.8463438 0.39018217 -0.52800888 1.7792322e-38
-1.8475623 0.3946338 -0.52224576 1.7700486e-38
-1.8462421 0.40324616 -0.52349222 1.7607933e-38
-1.8465846 0.40858912 -0.52035105 1.7699764e-38
-1.8474032 0.4133954 -0.51580441 1.7791963e-38
-1.8470665 0.41944146 -0.51469058 1.4934263e-38
-1.8477321 0.42462152 -0.51052099 1.502646e-38
-1.8477855 0.43642244 -0.50595242 1.5026816e-38
-1.8491809 0.47291502 -0.48767671 1.8067112e-38
-1.8492227 0.47967541 -0.48502174 1.825293e-38
-1.8496174 0.48560378 -0.48148656 1.8251858e-38
-1.8496355 0.4921931 -0.47897497 1.8159661e-38
-1.8495971 0.49809229 -0.47691047 1.8160387e-38
-1.8508234 0.50255799 -0.47111627 1.8252218e-38
-1.8507844 0.50845712 -0.4690536 1.7884156e-38
-1.8507456 0.51435626 -0.46699068 1.8160027e-38
-1.8511431 0.52042741 -0.46339241 1.8068547e-38
-1.8511029 0.52634019 -0.46132877 1.816074e-38
-1.8511075 0.532767 -0.45892361 1.8344415e-38
-1.8511574 0.53990221 -0.45610175 1.8067475e-38
-1.8525062 0.55241609 -0.44690174 1.8251506e-38
-1.8528062 0.55934638 -0.44331309 1.8068546e-38
-1.8526456 0.56511503 -0.44170928 1.8160029e-38
-1.852807 0.56715369 -0.44040632 1.5578555e-38
-1.8528095 0.57373953 -0.43794912 1.8527729e-38
-1.8528172 0.58050358 -0.43540764 1.8344053e-38
-1.8531933 0.58603185 -0.43208364 1.8435895e-38
-1.8531998 0.59283888 -0.42953035 1.8344055e-38
-1.8542917 0.59949231 -0.42337558 1.852773e-38
-1.8545032 0.61349267 -0.41745558 1.8619557e-38
-1.8545455 0.61959362 -0.41504422 1.8343693e-38
-1.8545878 0.62569451 -0.41263294 1.8527366e-38
-1.8549075 0.63107616 -0.40955353 1.8159669e-38
-1.8548399 0.63953948 -0.40663403 1.8435169e-38
-1.8548559 0.64622134 -0.40409476 1.8710674e-38
-1.8561538 0.65175366 -0.3976627 1.8435895e-38
-1.8561089 0.65788418 -0.39553398 1.8619205e-38
-1.8565531 0.66423976 -0.39167336 1.8251138e-38
-1.856508 0.67038101 -0.38954151 1.8342969e-38
-1.8565198 0.67734832 -0.38690999 1.8527008e-38
-1.8564754 0.6835013 -0.38477215 1.8435527e-38
-1.8564308 0.68965435 -0.38263395 1.8158942e-38
-1.8579016 0.70386356 -0.37239215 1.8527004e-38
-1.8579443 0.71007061 -0.3699398 1.8250783e-38
-1.8579868 0.71627766 -0.36748743 1.8618481e-38
-1.8582323 0.72324204 -0.36407006 1.8067106e-38
-1.858228 0.72700548 -0.36268502 1.5393439e-38
-1.8583583 0.73919266 -0.35771322 1.8067106e-38
-1.8589948 0.73935765 -0.35550663 1.5392723e-38
-1.8589705 0.74541742 -0.35333464 1.5301598e-38
-1.8598782 0.75709999 -0.34593049 1.7975271e-38
-1.8598846 0.76423961 -0.34325358 1.7791237e-38
-1.8599689 0.77380866 -0.33941028 1.8158578e-38
-1.8603019 0.78115427 -0.33555621 1.7974548e-38
-1.8604097 0.79038596 -0.33175972 1.7975265e-38
-1.8603599 0.79670537 -0.32957751 1.7882356e-38
-1.8603101 0.80302483 -0.32739508 1.8067102e-38
-1.8617376 0.80970603 -0.32009861 1.7790517e-38
-1.8616873 0.81604666 -0.31790993 1.8066022e-38
-1.8616372 0.8223874 -0.31572104 1.7882707e-38
-1.862059 0.82818967 -0.31214184 1.7605398e-38
-1.8621142 0.83673537 -0.30877674 1.7697241e-38
-1.8621284 0.84420401 -0.30595145 1.7420655e-38
-1.8620774 0.85058129 -0.30375147 1.7421371e-38
-1.8630903 0.85642886 -0.29816297 1.4564031e-38
-1.8630599 0.86265445 -0.29594994 1.4654795e-38
-1.8635694 0.87319696 -0.29031172 1.7328095e-38
-1.8640361 0.87993592 -0.28623283 1.7144061e-38
-1.8640567 0.88764936 -0.28329432 1.6959673e-38
-1.8640044 0.89410192 -0.28107145 1.7050072e-38
-1.8639518 0.90055454 -0.27884814 1.6866756e-38
-1.8644241 0.90734494 -0.27473134 1.6590889e-38
-1.865536 0.91533321 -0.26801267 1.6680569e-38
-1.8658403 0.92064178 -0.2650128 1.6220665e-38
-1.8657318 0.9304409 -0.26173335 1.5759336e-38
-1.8658228 0.93520635 -0.25965527 1.345552e-38
-1.8659072 0.94155747 -0.25700849 1.5759326e-38
-1.8658531 0.94807667 -0.25476632 1.5575285e-38
-1.8661665 0.95689666 -0.25042975 1.5114307e-38
-1.8663168 0.96566838 -0.24666086 1.5113947e-38
-1.8663608 0.97223258 -0.24407116 7.2794849e-39
-1.8676652 0.97703856 -0.23788741 8.1052659e-39
-1.8677099 0.98359799 -0.23529691 4.69295e-39
-1.8677547 0.99015737 -0.23270647 8.477291e-39
-1.8432804 0.23395272 -0.59643632 1.6963281e-38
-1.8432758 0.2394461 -0.59440929 1.6688131e-38
-1.8433135 0.24531031 -0.59210181 1.677925e-38
-1.8433521 0.25089499 -0.589894 1.6962923e-38
-1.8433909 0.25647956 -0.58768624 1.6962923e-38
-1.8434682 0.26240104 -0.58522356 1.7055487e-38
-1.8434649 0.26796415 -0.58316576 1.7055121e-38
-1.8438153 0.27319562 -0.58003855 1.7147675e-38
-1.844678 0.27792409 -0.57537282 1.705512e-38
-1.8449966 0.28312936 -0.5723632 1.7148037e-38
-1.8448715 0.30122474 -0.56605458 1.7331346e-38
-1.845297 0.30850166 -0.56191498 1.7239152e-38
-1.8463919 0.32240579 -0.55305326 1.7239865e-38
-1.8463885 0.33406532 -0.54872811 1.7332064e-38
-1.8467304 0.33942324 -0.54558325 1.7515375e-38
-1.8467299 0.34526032 -0.54341412 1.7699764e-38
-1.8466957 0.35095638 -0.54141086 1.7607932e-38
-1.8466614 0.35665244 -0.53940767 1.7791964e-38
-1.8482833 0.37615347 -0.52668899 1.7608293e-38
-1.8482836 0.38211778 -0.52446938 1.7792322e-38
-1.8483269 0.387537 -0.52230817 1.4842796e-38
-1.8482485 0.39548308 -0.5196175 1.474988e-38
-1.8489152 0.40061313 -0.51546228 1.5119726e-38
-1.8489077 0.40620613 -0.51340729 1.4934273e-38
-1.8497193 0.41098097 -0.50889599 1.7609007e-38
-1.8485112 0.41684541 -0.51078719 1.760793e-38
-1.8496476 0.42870176 -0.50254679 1.7975993e-38
-1.8496499 0.43489608 -0.50023592 1.7976351e-38
-1.8498901 0.4414295 -0.49699625 1.8067469e-38
-1.8500346 0.44685221 -0.49449289 1.7975632e-38
-1.8499982 0.45885137 -0.49015239 1.8160743e-38
-1.8503536 0.46423522 -0.48695248 1.8160022e-38
-1.8512348 0.46985334 -0.48189306 1.8159665e-38
-1.8515238 0.47662267 -0.47840112 1.8160743e-38
-1.8515463 0.48316365 -0.47589293 1.8160382e-38
-1.8515946 0.48999017 -0.47319096 1.8251859e-38
-1.8515552 0.4958896 -0.47112963 1.8159665e-38
-1.8528014 0.50063127 -0.46516582 1.8160382e-38
-1.8527611 0.50653714 -0.46310505 1.8436604e-38
-1.852721 0.51244307 -0.46104401 1.8252221e-38
-1.8531079 0.51821935 -0.45759198 1.8068185e-38
-1.8530668 0.52413255 -0.45553148 1.8344768e-38
-1.8530915 0.53086424 -0.45294401 1.8159664e-38
-1.8531003 0.53747618 -0.45045567 1.843589e-38
-1.8533199 0.54451096 -0.44709909 1.8343336e-38
-1.8546548 0.56205398 -0.43607593 1.8436611e-38
-1.8547027 0.56500554 -0.43481621 1.5855499e-38
-1.8547803 0.57125032 -0.43223241 1.8435895e-38
-1.8552554 0.57816905 -0.4280583 1.8528442e-38
-1.8552656 0.58496368 -0.42549679 1.8344772e-38
-1.8552432 0.59137684 -0.42318684 1.8435892e-38
-1.8566074 0.61113143 -0.41124138 1.8343696e-38
-1.8564496 0.6178745 -0.40926638 1.8436246e-38
-1.8566911 0.62333494 -0.40642115 1.8619561e-38
-1.8568698 0.62804854 -0.40406555 1.8435525e-38
-1.8568051 0.63650739 -0.40113771 1.8435888e-38
-1.8567599 0.6426028 -0.39902294 1.8527001e-38
-1.8581278 0.64869285 -0.39214784 1.8344412e-38
-1.8581413 0.655595 -0.38953531 1.8619916e-38
-1.8585906 0.66193938 -0.38566145 1.8527004e-38
-1.8585446 0.66808075 -0.38353267 1.843589e-38
-1.8585287 0.67481452 -0.38108173 1.8251859e-38
-1.8585614 0.6817748 -0.37838331 1.843517e-38
-1.8590318 0.68897861 -0.37411866 1.8342969e-38
-1.8587282 0.69525671 -0.37280697 1.8160024e-38
-1.8599571 0.70010555 -0.36686188 1.8434087e-38
-1.8602949 0.70721227 -0.36307964 1.8343329e-38
-1.8602464 0.7134127 -0.3609373 1.843481e-38
-1.8602611 0.72050697 -0.35824943 1.8251145e-38
-1.8602455 0.725896 -0.35629755 1.5577827e-38
-1.8606741 0.73624897 -0.35100263 1.7975628e-38
-1.860625 0.74249142 -0.34884644 1.8251136e-38
-1.8606057 0.7493614 -0.3463566 1.8250416e-38
-1.861773 0.75668085 -0.33970001 1.557675e-38
-1.8620996 0.76517546 -0.33544028 1.8251131e-38
-1.8620496 0.77146089 -0.33327109 1.8251133e-38
-1.8624656 0.77720821 -0.32973123 1.7974548e-38
-1.8625844 0.78641915 -0.3259055 1.8066741e-38
-1.8625335 0.79273975 -0.32372609 1.7881992e-38
-1.8625085 0.80256325 -0.32015711 1.7974552e-38
-1.8638371 0.80734307 -0.31390134 1.7881995e-38
-1.8637859 0.81368428 -0.31171575 1.7605405e-38
-1.8642101 0.8194834 -0.30812889 1.7789436e-38
-1.8641582 0.82582498 -0.30594534 1.7604689e-38
-1.8641829 0.83355474 -0.30298725 1.7512492e-38
-1.8642377 0.8418265 -0.29972622 1.7420655e-38
-1.8642619 0.84962499 -0.2967442 1.7329178e-38
-1.8647289 0.85630631 -0.29268545 1.7052592e-38
-1.864746 0.86383331 -0.28982911 1.7328454e-38
-1.8662214 0.87109691 -0.28215459 1.7235901e-38
-1.8661673 0.87753725 -0.27994135 1.7235901e-38
-1.866191 0.88523877 -0.27699742 1.7143351e-38
-1.8661774 0.89257753 -0.27431384 1.7234463e-38
-1.8666157 0.8984741 -0.2706435 1.6867473e-38
-1.8665613 0.90493596 -0.26842412 1.6591252e-38
-1.8668021 0.90785646 -0.26652566 1.3733545e-38
-1.8680289 0.91913211 -0.25819778 1.585332e-38
-1.8680649 0.92758149 -0.25493431 1.5393069e-38
-1.8678807 0.93289512 -0.25357834 1.3086743e-38
-1.8679881 0.93788087 -0.25136259 1.5391264e-38
-1.8681531 0.94375128 -0.2486226 1.5297626e-38
-1.868631 0.95161855 -0.24408552 1.4929563e-38
-1.8685788 0.96313429 -0.23997921 1.4561845e-38
-1.8685671 0.96577126 -0.23903766 8.0148807e-39
-1.8695564 0.97308153 -0.23298474 2.6711411e-39
-1.8696207 0.98826027 -0.22712295 4.6047578e-39
-1.8451241 0.23736489 -0.58895338 1.6872162e-38
-1.8451985 0.24318919 -0.58653659 1.6595215e-38
-1.8452779 0.24873637 -0.58420616 1.6871446e-38
-1.8453801 0.25477085 -0.58161765 1.7055124e-38
-1.8454322 0.25992063 -0.5795266 1.6779619e-38
-1.8457066 0.26552704 -0.57651681 1.6778893e-38
-1.8457025 0.27114159 -0.57444203 1.7148389e-38
-1.846707 0.27565745 -0.56937742 1.6686699e-38
-1.8468659 0.28102773 -0.56684434 1.7148033e-38
-1.8468335 0.28663254 -0.5648697 1.7147675e-38
-1.8468448 0.29233229 -0.5627113 1.7148034e-38
-1.8471543 0.29892889 -0.55921465 1.7239514e-38
-1.8471204 0.30456811 -0.55723155 1.7423541e-38
-1.8467629 0.31070143 -0.55615556 1.7331348e-38
-1.8470886 0.31594431 -0.55310804 1.7240588e-38
-1.8483142 0.32626194 -0.54514045 1.7516098e-38
-1.8482794 0.33194265 -0.5431444 1.7607573e-38
-1.848648 0.33734027 -0.5398944 1.7608645e-38
-1.8486265 0.3431294 -0.53781444 1.7608289e-38
-1.8486042 0.34893104 -0.53573173 1.7700482e-38
-1.8487113 0.35254693 -0.53402597 1.46584e-38
-1.8493706 0.35750979 -0.52995801 1.4934976e-38
-1.8489529 0.36345577 -0.5291543 1.7699773e-38
-1.8489165 0.36917683 -0.5271489 1.7700842e-38
-1.8500801 0.37444454 -0.52126825 1.7699766e-38
-1.8501183 0.37946174 -0.51927322 1.7976356e-38
-1.8501769 0.38586038 -0.51669604 1.7791966e-38
-1.8508275 0.39056677 -0.51275325 1.5118654e-38
-1.850144 0.39762685 -0.51243091 1.7976351e-38
-1.8504218 0.40427494 -0.50902212 1.7883442e-38
-1.8515364 0.40858164 -0.50366431 1.8068191e-38
-1.8517159 0.41362378 -0.50118339 1.8068546e-38
-1.8516704 0.42130798 -0.49847904 1.8068551e-38
-1.8516318 0.42711896 -0.49644804 1.7976353e-38
-1.8518095 0.43287 -0.4937107 1.7976702e-38
-1.8520291 0.43908027 -0.49066088 1.8067834e-38
-1.8519895 0.44491553 -0.4886238 1.7883807e-38
-1.85195 0.45075089 -0.48658657 1.806855e-38
-1.8532169 0.45560658 -0.48051047 1.8252217e-38
-1.853177 0.46145558 -0.47847062 1.8160381e-38
-1.8533565 0.46828756 -0.47532398 1.8251501e-38
-1.8535596 0.47330362 -0.47277397 1.8344775e-38
-1.8534971 0.48097315 -0.47013214 1.8344053e-38
-1.8535032 0.48736167 -0.46773535 1.8252217e-38
-1.8535123 0.49368808 -0.46535224 1.8067825e-38
-1.8544056 0.49518895 -0.46178296 1.5672196e-38
-1.8549303 0.50428605 -0.45663157 1.8159666e-38
-1.8551136 0.51009876 -0.45385179 1.8344052e-38
-1.8550839 0.51699615 -0.45138675 1.8435886e-38
-1.8551048 0.52287781 -0.44912875 1.8436605e-38
-1.8551137 0.52931213 -0.4467057 1.816038e-38
-1.8554972 0.54124504 -0.44097486 1.8712117e-38
-1.8554226 0.54818684 -0.43864486 1.834513e-38
-1.8554035 0.55655986 -0.43559539 1.8437327e-38
-1.8569983 0.57008594 -0.42518947 1.8252938e-38
-1.8572904 0.58307177 -0.4193756 1.8436613e-38
-1.857246 0.58911395 -0.41727772 1.8619567e-38
-1.8572544 0.5958823 -0.41473255 1.8436971e-38
-1.8586043 0.60150754 -0.40809059 1.8620277e-38
-1.8587122 0.60876983 -0.4050262 1.8252212e-38
-1.8589779 0.61360699 -0.40233207 1.8252573e-38
-1.8589319 0.61968845 -0.40022531 1.8251143e-38
-1.8589139 0.62624156 -0.3978484 1.8619553e-38
-1.8588825 0.63394868 -0.39508745 1.5854414e-38
-1.8592476 0.64032364 -0.3914867 1.8435888e-38
-1.8595839 0.64495426 -0.38863072 1.5669312e-38
-1.8606167 0.65279609 -0.38223329 1.8436248e-38
-1.8605218 0.66505867 -0.37799257 1.8527729e-38
-1.8606304 0.67451644 -0.37410909 1.8251498e-38
-1.8607305 0.68556452 -0.36966255 1.8435881e-38
-1.8609992 0.69240689 -0.36621255 1.8527724e-38
-1.861376 0.69781941 -0.36292955 1.5576048e-38
-1.8623499 0.70490026 -0.35701331 1.852701e-38
-1.8623668 0.71197355 -0.3543258 1.8251138e-38
-1.8622383 0.7176156 -0.35266039 1.5301253e-38
-1.8622346 0.72088081 -0.35145864 1.8526999e-38
-1.8628223 0.73234051 -0.34521574 1.8435169e-38
-1.8627183 0.7406345 -0.34248191 1.8250419e-38
-1.8629606 0.74201465 -0.34115195 1.5392717e-38
-1.8627386 0.74904865 -0.33928445 1.8434806e-38
-1.8631533 0.7547645 -0.33576021 1.8342967e-38
-1.8641798 0.76282817 -0.32930115 1.8158932e-38
-1.8646387 0.76929945 -0.32534873 1.8158579e-38
-1.8645865 0.77559423 -0.32318342 1.8066382e-38
-1.8646761 0.78405672 -0.31973368 1.8158578e-38
-1.8646245 0.79037786 -0.31755728 1.797347e-38
-1.8645726 0.79669905 -0.31538084 1.8065307e-38
-1.8659419 0.80221903 -0.30871287 1.797383e-38
-1.8659672 0.8096804 -0.30585283 1.7880916e-38
-1.8659149 0.81602275 -0.3036699 1.778908e-38
-1.866298 0.82426906 -0.29931223 1.7604692e-38
-1.866388 0.83185619 -0.29618704 1.742102e-38
-1.8664303 0.83823061 -0.29367369 1.7237346e-38
-1.8669436 0.84835744 -0.28817731 1.7421376e-38
-1.8668889 0.85476929 -0.28597739 1.7513207e-38
-1.8672901 0.86142516 -0.28214923 1.4563671e-38
-1.8684391 0.86700636 -0.2762014 1.7419935e-38
-1.8681904 0.87017304 -0.27586171 1.4470765e-38
-1.8684448 0.87842995 -0.2719335 1.7051876e-38
-1.8683903 0.88488346 -0.26971692 1.6959313e-38
-1.86884 0.89435691 -0.26467773 1.6958594e-38
-1.8687824 0.90405786 -0.26126426 1.6591608e-38
-1.8687267 0.91053647 -0.25904229 1.6129915e-38
-1.8702829 0.9272182 -0.24759305 1.5391993e-38
-1.8702264 0.93372768 -0.24536291 1.5299787e-38
-1.8701698 0.9402374 -0.24313244 1.5297987e-38
-1.870792 0.94916534 -0.23771453 1.4746249e-38
-1.870824 0.95733571 -0.23456843 1.492992e-38
-1.8707294 0.96332324 -0.23266032 7.371305e-39
-1.8709275 0.9737317 -0.2281217 3.3168581e-39
-1.8721455 0.97645414 -0.2230041 1.3177116e-38
-1.8726559 0.98353451 -0.21865007 9.3996298e-39
-1.8461745 0.23066199 -0.58790636 1.6872523e-38
-1.8470833 0.23546071 -0.58305854 1.6688132e-38
-1.8473356 0.24037468 -0.5803808 1.7056552e-38
-1.8472916 0.24594803 -0.57845622 1.6963281e-38
-1.8472881 0.25215256 -0.57615966 1.7146595e-38
-1.8472126 0.25826293 -0.57414234 1.6964359e-38
-1.8475333 0.26343393 -0.57113779 1.6964003e-38
-1.8475325 0.26903525 -0.56905776 1.7056913e-38
-1.848734 0.27892721 -0.56132889 1.7332421e-38
-1.8487117 0.28456175 -0.55930847 1.7148758e-38
-1.8487065 0.29022074 -0.55722135 1.7148035e-38
-1.8490326 0.29682472 -0.55366623 1.7331706e-38
-1.8489977 0.30246434 -0.55168617 1.7608286e-38
-1.8490018 0.30818743 -0.54954469 1.7332068e-38
-1.8489786 0.31389746 -0.54749918 1.7239877e-38
-1.8493459 0.31927201 -0.54426169 1.7608641e-38
-1.8502012 0.32409176 -0.53958678 1.7607572e-38
-1.8505579 0.33530286 -0.53421491 1.7792324e-38
-1.8504814 0.34085825 -0.53240663 1.75161e-38
-1.8504598 0.34664926 -0.53032559 1.7884513e-38
-1.8509086 0.35570979 -0.52544349 1.7700485e-38
-1.850871 0.36143762 -0.52344012 1.779197e-38
-1.8516725 0.366072 -0.51901448 1.7975993e-38
-1.8516823 0.3720153 -0.5167712 1.7976354e-38
-1.8520671 0.3775219 -0.51342702 1.7793045e-38
-1.8520919 0.38370109 -0.5110448 1.8068554e-38
-1.8524393 0.38901994 -0.50789577 1.8068187e-38
-1.852419 0.39493972 -0.50576264 1.7975277e-38
-1.8523561 0.40229097 -0.50324106 1.7884161e-38
-1.8537098 0.41197756 -0.4950754 1.7884159e-38
-1.8536011 0.41913837 -0.49277872 1.8069626e-38
-1.8537867 0.42476511 -0.49006054 1.7884167e-38
-1.8539358 0.4305124 -0.48742068 1.8160744e-38
-1.8539672 0.43690139 -0.48493853 1.8160744e-38
-1.8539268 0.44273713 -0.48290461 1.8160389e-38
-1.8538862 0.44857284 -0.48087049 1.8068909e-38
-1.8546957 0.45239562 -0.4767212 1.5486715e-38
-1.8551191 0.45926958 -0.47273722 1.8344419e-38
-1.8551248 0.46546915 -0.47041267 1.8252224e-38
-1.8555077 0.47110912 -0.46702385 1.8344772e-38
-1.8555702 0.47787938 -0.46429569 1.8160384e-38
-1.8554567 0.48516771 -0.46196726 1.8343695e-38
-1.8557531 0.49140814 -0.45864767 1.8251501e-38
-1.8559626 0.49610296 -0.45619509 1.8436967e-38
-1.8571202 0.5019784 -0.45010868 1.8344055e-38
-1.857077 0.50789243 -0.44805482 1.8528443e-38
-1.8570566 0.51410544 -0.44581276 1.8712836e-38
-1.8570735 0.52066702 -0.44331563 1.8436615e-38
-1.8576999 0.53716522 -0.43506899 1.585406e-38
-1.8575658 0.54860538 -0.43126562 1.8161101e-38
-1.8589637 0.560974 -0.4219543 1.880431e-38
-1.8588083 0.5675602 -0.4200286 1.8620283e-38
-1.8592554 0.57382727 -0.41619056 1.8712476e-38
-1.8592451 0.58084142 -0.41361666 1.788308e-38
-1.8592478 0.58685201 -0.41137204 1.8436968e-38
-1.8596933 0.59311306 -0.40754211 1.8252574e-38
-1.8601084 0.59788769 -0.40436724 1.5210847e-38
-1.8609216 0.60388237 -0.39939719 1.8436248e-38
-1.8609335 0.61057431 -0.39686808 1.8528799e-38
-1.8609176 0.61710781 -0.39449173 1.8344414e-38
-1.8608617 0.62217051 -0.39279741 1.567111e-38
-1.8608724 0.63245392 -0.38893709 1.8619926e-38
-1.86127 0.63805115 -0.38551518 1.8252215e-38
-1.8611507 0.64423645 -0.38361651 1.8252577e-38
-1.8617306 0.64742392 -0.38047665 1.5486712e-38
-1.8612648 0.6581552 -0.37805569 1.8252218e-38
-1.8626518 0.66369945 -0.37131882 1.8619922e-38
-1.8626195 0.66794837 -0.36984769 1.8436248e-38
-1.8625855 0.67691547 -0.36662722 1.834477e-38
-1.862638 0.68460864 -0.36358911 1.8528082e-38
-1.8631133 0.69109839 -0.35957325 1.86192e-38
-1.8630638 0.69729102 -0.35743722 1.8435169e-38
-1.8643649 0.70194966 -0.35131976 1.8434811e-38
-1.8641144 0.70787883 -0.34995857 1.53938e-38
-1.8640852 0.71392041 -0.3478097 1.5670021e-38
-1.8648309 0.71644479 -0.34435806 1.8251138e-38
-1.8647718 0.72530407 -0.34126219 1.8067465e-38
-1.864836 0.73330802 -0.33806884 1.8159655e-38
-1.8648562 0.74046665 -0.33533871 1.7974545e-38
-1.8648049 0.74671775 -0.33318645 1.8342256e-38
-1.8657266 0.75224048 -0.32802615 1.5391286e-38
-1.8664166 0.76000184 -0.32281414 1.7974911e-38
-1.8666564 0.76607955 -0.31974518 1.8065665e-38
-1.8666697 0.7732479 -0.31703469 1.8066739e-38
-1.8666931 0.78071201 -0.31417909 1.7974907e-38
-1.8666401 0.78702223 -0.31201142 1.7789441e-38
-1.8666281 0.79409635 -0.30942139 1.8066023e-38
-1.8674824 0.79891497 -0.30474949 1.5300873e-38
-1.8674489 0.80507267 -0.30257225 1.548454e-38
-1.8685436 0.8141008 -0.29552525 1.7789794e-38
-1.868571 0.82159859 -0.29264405 1.7697595e-38
-1.8685609 0.82877666 -0.29000878 1.7513208e-38
-1.8685498 0.83597225 -0.28737 1.7421374e-38
-1.8690741 0.84320289 -0.2829136 1.7696879e-38
-1.8690083 0.8523919 -0.27971807 1.7421731e-38
-1.8691032 0.86047149 -0.2763935 1.7052234e-38
-1.8705699 0.86459702 -0.26991561 1.7419935e-38
-1.8702198 0.86787277 -0.2698772 1.4654436e-38
-1.8704921 0.87477183 -0.26639345 1.7145143e-38
-1.8706764 0.88267237 -0.26283386 1.6776363e-38
-1.8707891 0.89452881 -0.25804481 1.6406142e-38
-1.8711314 0.89561087 -0.25648844 1.3826107e-38
-1.8709847 0.90344185 -0.25407064 1.6130277e-38
-1.8710189 0.91145813 -0.25097379 1.6037719e-38
-1.8709627 0.91794974 -0.24874876 1.5852969e-38
-1.8724334 0.92478532 -0.24124953 1.5116476e-38
-1.8729416 0.93175477 -0.23694484 1.5299427e-38
-1.8729852 0.94000143 -0.23373061 1.4931368e-38
-1.8729264 0.94653922 -0.23149796 1.4746259e-38
-1.8729491 0.95432699 -0.22852474 1.4654774e-38
-1.8728086 0.95961469 -0.22703178 1.2810508e-38
-1.8734969 0.96958196 -0.22100501 1.3364396e-38
-1.8738973 0.97370523 -0.21812238 1.1151344e-38
-1.8480227 0.22858113 -0.58245105 1.7056556e-38
-1.8490965 0.23882508 -0.57502198 1.7239868e-38
-1.8491801 0.24383618 -0.5728761 1.7239509e-38
-1.8490846 0.2506164 -0.57067651 1.733206e-38
-1.8490664 0.25618193 -0.56866837 1.6780688e-38
-1.8493887 0.26135033 -0.56565958 1.6963288e-38
-1.8493911 0.26694724 -0.5635699 1.7148749e-38
-1.8493932 0.27256909 -0.56147188 1.6688495e-38
-1.8506142 0.27685025 -0.55576402 1.7516098e-38
-1.8506351 0.28253359 -0.55358022 1.7148393e-38
-1.8509653 0.28774211 -0.55053097 1.7148753e-38
-1.8509099 0.29472172 -0.54812115 1.7423908e-38
-1.8508741 0.3003616 -0.54614431 1.7700125e-38
-1.8508515 0.30605537 -0.54410237 1.7517175e-38
-1.8511864 0.31128114 -0.54103053 1.7700492e-38
-1.8512312 0.31715688 -0.53869486 1.7700126e-38
-1.8524373 0.32151669 -0.53300774 1.7607926e-38
-1.8512012 0.32866591 -0.53451532 1.7884875e-38
-1.8523256 0.33853745 -0.52705443 1.7608288e-38
-1.8523521 0.3445242 -0.52473831 1.7700123e-38
-1.8529536 0.34784195 -0.52147704 1.5210847e-38
-1.8527218 0.3531805 -0.52027303 1.7607926e-38
-1.8527741 0.35929728 -0.51782155 1.78838e-38
-1.8539759 0.36362183 -0.51216251 1.8067827e-38
-1.8539872 0.36956567 -0.50991434 1.7700132e-38
-1.8540444 0.37578046 -0.50740987 1.7884877e-38
-1.8544146 0.38124093 -0.50413156 1.8160028e-38
-1.854375 0.38700959 -0.50211924 1.8068547e-38
-1.8543357 0.39277825 -0.50010681 1.7977069e-38
-1.8543458 0.39887333 -0.49780563 1.8161099e-38
-1.8544877 0.40579656 -0.49475217 1.8068185e-38
-1.8555875 0.40944901 -0.48968759 1.8068547e-38
-1.8556947 0.41618261 -0.48682153 1.8068544e-38
-1.8559873 0.42305127 -0.48328075 1.8160743e-38
-1.8559458 0.42888737 -0.4812502 1.8068547e-38
-1.8559043 0.43472353 -0.4792195 1.8436606e-38
-1.8559158 0.44097492 -0.47685611 1.8344055e-38
-1.8558743 0.44682473 -0.47482064 1.8160382e-38
-1.8562366 0.45221099 -0.47159618 1.8712112e-38
-1.857491 0.45684981 -0.46564272 1.8161108e-38
-1.8574977 0.46304965 -0.46331474 1.7976358e-38
-1.8574549 0.46891558 -0.46127701 1.8528802e-38
-1.8574685 0.47527179 -0.45886722 1.797635e-38
-1.8578931 0.4810873 -0.45527312 1.8344055e-38
-1.8577244 0.48855564 -0.45306388 1.8528443e-38
-1.8578386 0.49505541 -0.4502618 1.8528806e-38
-1.859067 0.50563699 -0.44218621 1.852808e-38
-1.8588248 0.51021868 -0.44129863 1.354953e-38
-1.8593115 0.51912773 -0.43634498 1.8251499e-38
-1.859508 0.5248515 -0.4335537 1.8527727e-38
-1.8594624 0.53080857 -0.43149224 1.8436252e-38
-1.859632 0.53567851 -0.42910931 1.557891e-38
-1.8594916 0.54104173 -0.42758816 1.8344772e-38
-1.8611616 0.56541014 -0.41289657 1.843553e-38
-1.8612338 0.57797176 -0.40798149 1.8619563e-38
-1.8612485 0.58459115 -0.40546992 1.8344414e-38
-1.8616713 0.59056485 -0.40182304 1.8437327e-38
-1.8616562 0.59705842 -0.3994588 1.8804306e-38
-1.8629303 0.60161734 -0.39346904 1.8251861e-38
-1.8628823 0.60767555 -0.39137816 1.8896147e-38
-1.8628877 0.62110919 -0.38636369 1.5670384e-38
-1.8631997 0.63001633 -0.38199937 1.889579e-38
-1.8634478 0.63519681 -0.3792364 1.8436244e-38
-1.8632799 0.6424464 -0.37710619 1.8436606e-38
-1.8633077 0.64955336 -0.37436929 1.8436606e-38
-1.864625 0.65381163 -0.3683455 1.8435527e-38
-1.8644953 0.65810877 -0.36718497 1.5394156e-38
-1.8647199 0.66356075 -0.36440033 1.8527722e-38
-1.8652304 0.67044693 -0.3601183 1.8435885e-38
-1.8650866 0.68211377 -0.35626414 1.8066748e-38
-1.8653262 0.68332374 -0.35500675 1.5669661e-38
-1.8651116 0.69498265 -0.35139439 1.8251136e-38
-1.8661047 0.69963515 -0.34631634 1.5668952e-38
-1.8660737 0.70567763 -0.34417319 1.539236e-38
-1.8654345 0.71071422 -0.34445468 1.8435885e-38
-1.8668841 0.71411997 -0.33830184 1.8159303e-38
-1.8668669 0.72359645 -0.33483514 1.7883074e-38
-1.8668016 0.7299903 -0.33267793 1.530089e-38
-1.8669224 0.73813635 -0.32924089 1.8066385e-38
-1.8672663 0.74292785 -0.32629979 1.8342251e-38
-1.8674173 0.75202435 -0.32240778 1.8250773e-38
-1.8683118 0.75800282 -0.31717002 1.8250413e-38
-1.8688205 0.76209211 -0.31393412 1.7973472e-38
-1.8686819 0.77002841 -0.31144956 1.7883066e-38
-1.8688242 0.77911127 -0.30759215 1.7882352e-38
-1.869254 0.78487676 -0.30399925 1.7974189e-38
-1.8691987 0.79119641 -0.30183524 1.7790158e-38
-1.8691436 0.79751611 -0.29967099 1.769868e-38
-1.8690883 0.80383587 -0.29750645 1.7697238e-38
-1.8706459 0.81173539 -0.28931904 1.7789438e-38
-1.8707424 0.82055956 -0.28571168 1.7512136e-38
-1.8707839 0.82693577 -0.28320071 1.7237351e-38
-1.8712479 0.83442229 -0.27885267 1.714551e-38
-1.8711905 0.84082478 -0.27666426 1.7420657e-38
-1.8711334 0.84722722 -0.27447566 1.7328821e-38
-1.8712567 0.85627335 -0.27069592 1.7052949e-38
-1.8721496 0.85746455 -0.26724327 1.4471124e-38
-1.872111 0.86370999 -0.26505134 1.4378565e-38
-1.8725879 0.87211931 -0.26031607 1.6775283e-38
-1.8725302 0.87855893 -0.25811538 1.6591611e-38
-1.8730569 0.88556635 -0.25373441 1.6590888e-38
-1.872999 0.89201772 -0.25153035 1.6406138e-38
-1.8732178 0.90252954 -0.2468829 1.6221745e-38
-1.8732158 0.91003782 -0.24409723 1.5852967e-38
-1.8737179 0.91688585 -0.23985831 1.5577094e-38
-1.8747965 0.92317486 -0.23388413 1.5023205e-38
-1.8750049 0.92800975 -0.23138377 1.502427e-38
-1.8749447 0.93451834 -0.22916608 1.4930999e-38
-1.8749926 0.942765 -0.22593729 1.4653691e-38
-1.8751248 0.95226258 -0.22195935 1.4377825e-38
-1.8755822 0.95821768 -0.21820287 1.4101234e-38
-1.8755217 0.96477234 -0.21596965 1.3364392e-38
-1.8754225 0.97474939 -0.21259287 1.0782566e-38
-1.8498113 0.22679356 -0.5770871 1.6962913e-38
-1.8510691 0.23617612 -0.56935829 1.6964725e-38
-1.8509936 0.2417753 -0.56753057 1.7240237e-38
-1.8513737 0.24689251 -0.56434608 1.7238436e-38
-1.8512777 0.25369585 -0.56213927 1.6963644e-38
-1.8512836 0.25927567 -0.56004429 1.7055122e-38
-1.8512486 0.26486021 -0.55808532 1.714839e-38
-1.8516163 0.27006465 -0.5549103 1.7057275e-38
-1.852831 0.27997056 -0.54713249 1.7332783e-38
-1.8528384 0.28563383 -0.54500103 1.7148757e-38
-1.8528017 0.29266119 -0.54251146 1.7239511e-38
-1.8527492 0.29825985 -0.54060566 1.7515736e-38
-1.8531464 0.30360493 -0.53727931 1.7332787e-38
-1.8531091 0.30926007 -0.53530169 1.7700132e-38
-1.853115 0.31504279 -0.53313124 1.7701204e-38
-1.8542694 0.32506126 -0.52551436 1.7791606e-38
-1.8530207 0.33213568 -0.52709246 1.769977e-38
-1.8546362 0.34523845 -0.516774 1.8068191e-38
-1.8546481 0.35115516 -0.5145337 1.7976357e-38
-1.8546764 0.35715795 -0.51220608 1.7885233e-38
-1.8554713 0.36194783 -0.5077455 1.5026458e-38
-1.8558941 0.36741784 -0.50428593 1.7976357e-38
-1.856324 0.37311262 -0.50071913 1.7975994e-38
-1.8563319 0.37907967 -0.49847275 1.7701211e-38
-1.8562915 0.38484871 -0.49646357 1.7884875e-38
-1.8563056 0.39092547 -0.49415621 1.7884161e-38
-1.8563081 0.3970336 -0.49187556 1.8436971e-38
-1.8564304 0.40322128 -0.4891623 1.8068553e-38
-1.8579119 0.41474453 -0.47988364 1.8068547e-38
-1.8579253 0.42087355 -0.4775587 1.825294e-38
-1.8578829 0.4267101 -0.47553137 1.82533e-38
-1.8578404 0.43254665 -0.47350371 1.834477e-38
-1.858206 0.43791762 -0.47027406 1.8436968e-38
-1.858245 0.44439709 -0.46773273 1.8160031e-38
-1.8582016 0.45025387 -0.46570107 1.8160021e-38
-1.8594445 0.46085677 -0.45756817 1.7976713e-38
-1.8594009 0.46672305 -0.4555335 1.8344771e-38
-1.8596917 0.476414 -0.45094901 1.8344771e-38
-1.8597665 0.4862709 -0.44703144 1.8342981e-38
-1.8598847 0.49276385 -0.44421792 1.8712114e-38
-1.8599237 0.49870384 -0.44187745 1.8436967e-38
-1.8612102 0.50414264 -0.43551862 1.8528086e-38
-1.860849 0.50731719 -0.43555516 1.5578199e-38
-1.8607745 0.51251727 -0.43387267 1.585478e-38
-1.8611332 0.5187332 -0.43035161 1.8436251e-38
-1.8616147 0.52518588 -0.42632931 1.852737e-38
-1.8615605 0.53099906 -0.42434987 1.83437e-38
-1.8616155 0.53800601 -0.42155859 1.8712112e-38
-1.8619883 0.54571134 -0.41743633 1.8620279e-38
-1.8619401 0.55171579 -0.41536537 1.8805027e-38
-1.861863 0.5569135 -0.41369212 1.8711401e-38
-1.8632571 0.56330681 -0.40661559 1.834226e-38
-1.8631977 0.56836253 -0.40493584 1.8527724e-38
-1.8633351 0.57539696 -0.40185654 1.8436248e-38
-1.8636945 0.58210248 -0.3981514 1.8619922e-38
-1.8637103 0.58873916 -0.39563 1.8620999e-38
-1.8636616 0.59479761 -0.39354053 1.8528802e-38
-1.8649591 0.60615665 -0.38494298 1.8711753e-38
-1.8646978 0.61785513 -0.3814733 1.5854414e-38
-1.865007 0.62666196 -0.3771556 1.8160384e-38
-1.8654745 0.63290888 -0.37325689 1.8344051e-38
-1.8653821 0.63861156 -0.37144697 1.8435888e-38
-1.8654099 0.64563745 -0.36874002 1.8435889e-38
-1.8668231 0.65158343 -0.36176556 1.8342984e-38
-1.866434 0.65591985 -0.3614648 1.5485634e-38
-1.8672553 0.66126525 -0.35670805 1.8435529e-38
-1.867272 0.66813999 -0.35409549 1.8158592e-38
-1.8671854 0.67948824 -0.35016707 1.8435529e-38
-1.8671333 0.68567044 -0.34804291 1.825114e-38
-1.8681062 0.68727815 -0.34416538 1.5761502e-38
-1.8676559 0.69390488 -0.34321931 1.8251139e-38
-1.8676802 0.70094067 -0.34052062 1.8342969e-38
-1.8687787 0.70694715 -0.33458409 1.7974909e-38
-1.8689785 0.7123912 -0.33188599 1.8159296e-38
-1.8690087 0.71965152 -0.32908452 1.8159308e-38
-1.8690133 0.72702301 -0.32632744 1.7973832e-38
-1.8689089 0.73490804 -0.32374617 1.8067097e-38
-1.8694674 0.74250364 -0.31903875 1.8066386e-38
-1.8695388 0.75040466 -0.31586003 1.7882717e-38
-1.8709003 0.75974452 -0.30779788 1.7698324e-38
-1.8709179 0.76689607 -0.30507872 1.7974551e-38
-1.8709123 0.77676451 -0.30142698 1.7973473e-38
-1.8713441 0.78252721 -0.29782861 1.7790162e-38
-1.8712878 0.78884751 -0.29566759 1.7881992e-38
-1.8713254 0.79647756 -0.29270342 1.7882707e-38
-1.8713998 0.80460769 -0.28942892 1.7789435e-38
-1.8726999 0.80883503 -0.28347519 1.7513931e-38
-1.8727965 0.81829423 -0.27963102 1.7421733e-38
-1.8732665 0.83066481 -0.2734462 1.6961118e-38
-1.8733063 0.83844739 -0.27041787 1.7052592e-38
-1.8732482 0.84485042 -0.26823243 1.6960043e-38
-1.87319 0.85125375 -0.26604655 1.7052234e-38
-1.8742613 0.85663366 -0.2604351 1.4471117e-38
-1.8738525 0.86432457 -0.25895262 1.7051513e-38
-1.8749678 0.86970598 -0.25319216 1.6867124e-38
-1.8750087 0.87614363 -0.2506603 1.6590537e-38
-1.8751912 0.88028383 -0.24850562 1.6499056e-38
-1.8750428 0.88846958 -0.24596135 1.6406139e-38
-1.875164 0.89732218 -0.24226001 1.5945882e-38
-1.8758707 0.90701401 -0.23627388 1.566894e-38
-1.8759283 0.91548651 -0.23292878 1.539235e-38
-1.876246 0.9207018 -0.22991867 1.2626845e-38
-1.8771551 0.92559248 -0.22503559 1.4563666e-38
-1.8770938 0.93210179 -0.22282106 1.4654065e-38
-1.8771467 0.94034314 -0.21957779 1.4745888e-38
-1.8771819 0.9482078 -0.21653396 1.4101954e-38
-1.8774065 0.95561928 -0.21302079 1.3641338e-38
-1.8776847 0.96233058 -0.20958662 1.3364031e-38
-1.8517317 0.22463977 -0.57141548 1.7055475e-38
-1.8518279 0.23013642 -0.56904715 1.7056196e-38
-1.8532668 0.23922251 -0.56081802 1.6963646e-38
-1.8531679 0.2460445 -0.55861437 1.7516096e-38
-1.8531771 0.2516045 -0.55651575 1.705728e-38
-1.8531412 0.25718939 -0.55456001 1.7148031e-38
-1.8531499 0.26278982 -0.5524469 1.7240225e-38
-1.8534956 0.26798496 -0.54934984 1.7148754e-38
-1.8533829 0.27379122 -0.54757047 1.7330632e-38
-1.8545758 0.27822405 -0.54190165 1.7424252e-38
-1.8546813 0.28351319 -0.53957826 1.733242e-38
-1.8547797 0.28969747 -0.53694713 1.7515009e-38
-1.8547487 0.29813138 -0.53391451 1.7516099e-38
-1.8549886 0.30715147 -0.52975106 1.7608655e-38
-1.8549979 0.31292972 -0.52757102 1.7609004e-38
-1.8549798 0.31867358 -0.52549595 1.7792682e-38
-1.8562714 0.32326406 -0.51943517 1.7884519e-38
-1.8562315 0.32896426 -0.51744998 1.7424977e-38
-1.8565787 0.33422267 -0.51432419 1.7791966e-38
-1.8565768 0.33827987 -0.51282132 1.5028265e-38
-1.8566083 0.34341481 -0.51080596 1.7884519e-38
-1.8565115 0.34892172 -0.50908393 1.7975995e-38
-1.8565217 0.35479313 -0.50686592 1.8068909e-38
-1.8569292 0.36030233 -0.50344336 1.8068553e-38
-1.8579867 0.36516011 -0.49807253 1.788524e-38
-1.8582381 0.37095702 -0.49506879 1.7976356e-38
-1.8582484 0.37691948 -0.49281731 1.8069271e-38
-1.8582069 0.38268885 -0.49081129 1.8068551e-38
-1.8581895 0.38861355 -0.48866621 1.8160385e-38
-1.8582069 0.39470583 -0.48634213 1.8160029e-38
-1.8584352 0.40097484 -0.48324087 1.7976001e-38
-1.8586881 0.40678564 -0.48022714 1.8069266e-38
-1.8597836 0.41222286 -0.47451293 1.843733e-38
-1.8598026 0.41839987 -0.47215158 1.8068909e-38
-1.8598212 0.4246043 -0.46978113 1.8345131e-38
-1.8602766 0.43049896 -0.46605423 1.8344416e-38
-1.86017 0.43595183 -0.46438545 1.8344772e-38
-1.8601875 0.44221345 -0.46199757 1.8252584e-38
-1.8601431 0.44807068 -0.45996901 1.8252937e-38
-1.8600986 0.45392796 -0.45794034 1.8436618e-38
-1.8614129 0.45874408 -0.45171961 1.8252938e-38
-1.8614504 0.4646267 -0.4494057 1.8251859e-38
-1.8615676 0.47300798 -0.4458932 1.8528803e-38
-1.8618087 0.48398557 -0.44099799 1.8344408e-38
-1.8618468 0.48991254 -0.43866548 1.8252226e-38
-1.8620645 0.49719456 -0.43522346 1.8344056e-38
-1.8620178 0.5002659 -0.43423861 1.5578908e-38
-1.8627251 0.50520396 -0.43001819 1.576258e-38
-1.8622437 0.51132292 -0.42936537 1.8436251e-38
-1.8635938 0.52295285 -0.4204894 1.8343698e-38
-1.8636458 0.52977616 -0.41777593 1.8436609e-38
-1.8640345 0.53526324 -0.4144251 1.8712474e-38
-1.8640183 0.54158676 -0.41212827 1.8344408e-38
-1.8639278 0.54948717 -0.40949488 1.8528802e-38
-1.8651984 0.55400312 -0.40353328 1.8712117e-38
-1.8652273 0.56072658 -0.40093455 1.8528445e-38
-1.8653806 0.56701726 -0.39807865 1.8436246e-38
-1.865419 0.57306319 -0.39570031 1.8803585e-38
-1.8656976 0.57984942 -0.39223808 1.8528799e-38
-1.8656476 0.58589822 -0.39015704 1.8529159e-38
-1.8655976 0.5919469 -0.3880758 1.8252573e-38
-1.8656869 0.59932965 -0.38502923 1.8435529e-38
-1.8670082 0.60434932 -0.37870848 1.8711391e-38
-1.866643 0.60978782 -0.37791738 1.5578185e-38
-1.8666128 0.61570007 -0.37581992 1.5578189e-38
-1.8674814 0.62386012 -0.36985782 1.8252221e-38
-1.8675441 0.63116813 -0.36692822 1.8252211e-38
-1.8674926 0.63729876 -0.36482206 1.8344058e-38
-1.8683739 0.64138931 -0.36033008 1.5762217e-38
-1.8683404 0.64736187 -0.35822183 1.5486715e-38
-1.8684396 0.65461904 -0.35518843 1.5394149e-38
-1.8692936 0.6589672 -0.35069281 1.8251136e-38
-1.8692405 0.6651246 -0.34858161 1.8159303e-38
-1.8691299 0.67169237 -0.34651211 1.5301965e-38
-1.8692193 0.67840445 -0.34371427 1.8067465e-38
-1.8694817 0.68616766 -0.33994266 1.8067108e-38
-1.8697033 0.691594 -0.33717814 1.8067464e-38
-1.8696494 0.69778562 -0.33505678 1.7975265e-38
-1.8704872 0.70297068 -0.33030429 1.8067105e-38
-1.8710009 0.70987755 -0.3260043 1.8158943e-38
-1.8711158 0.71799731 -0.32259774 1.7606494e-38
-1.8715833 0.73108381 -0.31615478 1.7974545e-38
-1.8716232 0.73852056 -0.31325436 1.7882715e-38
-1.8716176 0.74549562 -0.31067908 1.8066748e-38
-1.8716929 0.75411022 -0.30722168 1.769868e-38
-1.8729789 0.75739765 -0.3016648 1.7789799e-38
-1.8729742 0.76442039 -0.29906869 1.7789799e-38
-1.8734142 0.77299404 -0.29439697 1.7973469e-38
-1.8734331 0.78017867 -0.29166096 1.7697598e-38
-1.8733759 0.78649962 -0.2895031 1.7697244e-38
-1.8734179 0.79412448 -0.28652573 1.7422452e-38
-1.8733988 0.80092716 -0.2840603 1.7605402e-38
-1.8745409 0.80335355 -0.27930835 1.4471852e-38
-1.8746574 0.81140786 -0.27592021 1.4748435e-38
-1.8750006 0.81725949 -0.27258694 1.7328824e-38
-1.8753767 0.82829326 -0.26721591 1.7236983e-38
-1.8753812 0.8366552 -0.26409072 1.7421011e-38
-1.8754801 0.84529531 -0.26054442 1.7420298e-38
-1.8755711 0.85217798 -0.25767753 1.6959674e-38
-1.875957 0.8586275 -0.2539787 1.714406e-38
-1.8762559 0.86248159 -0.25153768 1.4654066e-38
-1.8773783 0.87143552 -0.24442405 1.6315385e-38
-1.877318 0.87787759 -0.24223165 1.6499412e-38
-1.8772871 0.89190364 -0.23711932 1.5946243e-38
-1.8780092 0.90154928 -0.2310984 1.5485979e-38
-1.8779484 0.90804082 -0.22888923 1.5209032e-38
-1.8779464 0.91547388 -0.22613148 1.4931728e-38
-1.8792298 0.91903883 -0.22048002 1.4655134e-38
-1.8793339 0.92788529 -0.21683867 1.4562941e-38
-1.8792998 0.93792194 -0.21322128 1.35495e-38
-1.8793378 0.94577467 -0.21017303 1.3455862e-38
-1.853719 0.22238116 -0.56555784 1.6780329e-38
-1.8539479 0.23292881 -0.56086338 1.7148757e-38
-1.8550788 0.23837252 -0.55502713 1.7148031e-38
-1.855023 0.24396217 -0.55313617 1.724023e-38
-1.8550837 0.2495046 -0.55087 1.71484e-38
-1.8550466 0.25510234 -0.54891318 1.7148756e-38
-1.8554182 0.26029518 -0.5457297 1.7332071e-38
-1.8553799 0.26590458 -0.54377234 1.7240587e-38
-1.8553603 0.27153149 -0.54174626 1.7148397e-38
-1.8565512 0.28140938 -0.53405851 1.7700126e-38
-1.8565707 0.28710896 -0.53187293 1.7700483e-38
-1.8569772 0.2955642 -0.52735847 1.7609375e-38
-1.8568388 0.30502951 -0.52430463 1.7516819e-38
-1.8568507 0.3108004 -0.52211839 1.7976353e-38
-1.8568108 0.31646559 -0.52014595 1.7792324e-38
-1.8584983 0.3321867 -0.50861084 1.8069271e-38
-1.8585072 0.34128121 -0.50519907 1.7977074e-38
-1.8584048 0.34679377 -0.50349408 1.788488e-38
-1.8586261 0.35220811 -0.50073421 1.806783e-38
-1.8588567 0.35828489 -0.49769691 1.8069264e-38
-1.8591728 0.36377886 -0.49458832 1.5303403e-38
-1.8601514 0.36880243 -0.48942181 1.8161107e-38
-1.8601086 0.37456271 -0.48742348 1.8161104e-38
-1.8600659 0.38032296 -0.48542503 1.7976716e-38
-1.8604542 0.38577414 -0.48208955 1.8160744e-38
-1.8602457 0.39219716 -0.48040289 1.8159662e-38
-1.8603565 0.39829829 -0.47776094 1.8067831e-38
-1.8603934 0.40410092 -0.4754782 1.8620638e-38
-1.8617351 0.41623023 -0.46644497 1.8161467e-38
-1.8617857 0.42262974 -0.46389478 1.8068185e-38
-1.8621866 0.42820957 -0.46046841 1.8343692e-38
-1.8621402 0.43406364 -0.45844692 1.8160027e-38
-1.8621582 0.44024968 -0.45608568 1.8345134e-38
-1.8622143 0.44600838 -0.45375475 1.8161104e-38
-1.8622514 0.45189163 -0.45144174 1.8252219e-38
-1.8628931 0.45590609 -0.44778615 1.5302326e-38
-1.8632945 0.46252665 -0.44397119 1.8252224e-38
-1.8636272 0.46690521 -0.44122094 1.5486363e-38
-1.8635957 0.47072998 -0.43990487 1.8160028e-38
-1.8637389 0.48078692 -0.435682 1.8528802e-38
-1.8637927 0.48740783 -0.4330385 1.8344774e-38
-1.8642442 0.49325502 -0.42934161 1.8344055e-38
-1.8646251 0.49731719 -0.42654696 1.5394162e-38
-1.8642583 0.50315922 -0.42561117 1.8344412e-38
-1.8653245 0.52016902 -0.41569117 1.5301963e-38
-1.8659886 0.52638495 -0.41114131 1.8252578e-38
-1.8659741 0.53268725 -0.40884608 1.825258e-38
-1.8659735 0.5392167 -0.4064199 1.8436606e-38
-1.8659928 0.54572678 -0.40393355 1.8436248e-38
-1.8672463 0.55871713 -0.39487782 1.825258e-38
-1.8673707 0.56395024 -0.39251137 1.8344059e-38
-1.8670288 0.56868237 -0.39190403 1.5303041e-38
-1.8672575 0.57599998 -0.38841197 1.8161099e-38
-1.8677198 0.58421963 -0.38379699 1.8528086e-38
-1.8676376 0.59014118 -0.38187176 1.8344053e-38
-1.8681147 0.59627181 -0.37798324 1.8343326e-38
-1.8685896 0.60172069 -0.37435633 1.5577829e-38
-1.8695513 0.62212014 -0.36352828 1.8067828e-38
-1.8695714 0.62888306 -0.36094502 1.8344407e-38
-1.869561 0.6355148 -0.35851401 1.8436249e-38
-1.8700179 0.64162707 -0.35470086 1.8251135e-38
-1.8699638 0.64777428 -0.3525967 1.806746e-38
-1.8702404 0.65116656 -0.35040274 1.5394151e-38
-1.8711241 0.65576673 -0.34571353 1.7974909e-38
-1.8713595 0.66120851 -0.34289622 1.8159306e-38
-1.8713624 0.67054129 -0.33941531 1.7974911e-38
-1.8713078 0.67672294 -0.33730024 1.8251498e-38
-1.871343 0.68387932 -0.3345207 1.8342614e-38
-1.8716184 0.69472581 -0.32955831 1.797563e-38
-1.8729482 0.70099103 -0.32274625 1.7606138e-38
-1.8731469 0.70859349 -0.31924874 1.7975634e-38
-1.8730906 0.71481746 -0.31712374 1.7883796e-38
-1.8736596 0.72203684 -0.31252119 1.8067104e-38
-1.8736876 0.7268979 -0.31061882 1.53938e-38
-1.8736941 0.73618454 -0.30714345 1.7791241e-38
-1.8737767 0.74406201 -0.3039352 1.7697964e-38
-1.8737199 0.75034994 -0.30178827 1.7790518e-38
-1.8745911 0.75303543 -0.29785272 1.4840628e-38
-1.8749992 0.76133955 -0.29338941 1.7790514e-38
-1.875587 0.7689507 -0.28857708 1.7697967e-38
-1.8754416 0.77696627 -0.28608629 1.7697964e-38
-1.8754388 0.78405321 -0.28345993 1.7789442e-38
-1.8754846 0.79167181 -0.28047261 1.7329904e-38
-1.8758765 0.80035603 -0.27592129 1.7513573e-38
-1.8759162 0.80671823 -0.2734217 1.714551e-38
-1.8766645 0.80913061 -0.27000231 1.4839549e-38
-1.8774271 0.81586891 -0.26492622 1.7144433e-38
-1.8776089 0.82149625 -0.26222029 1.732954e-38
-1.8775491 0.82788444 -0.26004636 1.72377e-38
-1.8774891 0.83427298 -0.2578724 1.7145507e-38
-1.8775376 0.8420614 -0.25481224 1.7144789e-38
-1.8780464 0.84873796 -0.25061411 1.7053312e-38
-1.8780768 0.85623002 -0.24772573 1.7144421e-38
-1.8781326 0.86422116 -0.24456553 1.6776e-38
-1.8795054 0.86902934 -0.23814999 1.6316103e-38
-1.8793652 0.88301384 -0.23342158 1.3456972e-38
-1.8796973 0.89204776 -0.22894229 1.5852969e-38
-1.880143 0.89461285 -0.22648636 1.2812318e-38
-1.8799251 0.91083366 -0.22118811 1.4931731e-38
-1.8555812 0.22031021 -0.5600518 1.705655e-38
-1.8569356 0.23628891 -0.54954386 1.7424975e-38
-1.8569311 0.24184918 -0.54749113 1.751574e-38
-1.8569639 0.24741054 -0.54531223 1.7515739e-38
-1.8569255 0.25301418 -0.54335749 1.7332785e-38
-1.8572831 0.25819963 -0.54022348 1.7332425e-38
-1.8572439 0.26380947 -0.5382691 1.7516095e-38
-1.8572249 0.26943511 -0.53624076 1.7240232e-38
-1.8571856 0.27505055 -0.53428531 1.742498e-38
-1.8583727 0.27927616 -0.52871251 1.7518246e-38
-1.8586273 0.28525367 -0.52563107 1.7608645e-38
-1.858801 0.29338473 -0.52202177 1.7609725e-38
-1.8587153 0.30292553 -0.51876277 1.7424984e-38
-1.8586745 0.3085787 -0.51679766 1.7977072e-38
-1.8591032 0.31398878 -0.51334059 1.7976716e-38
-1.8591164 0.3197605 -0.51114953 1.7884879e-38
-1.859159 0.32568294 -0.50880325 1.7885242e-38
-1.8601329 0.33408415 -0.50239593 1.5303403e-38
-1.8604052 0.33914855 -0.49959514 1.8068907e-38
-1.8602971 0.34466678 -0.49790719 1.8068553e-38
-1.8603458 0.35070592 -0.49549684 1.8161101e-38
-1.8607596 0.35614467 -0.49207938 1.7884882e-38
-1.8607163 0.36188123 -0.49009198 1.8069629e-38
-1.8619207 0.36619294 -0.48442915 1.8069267e-38
-1.8621329 0.37258697 -0.48133579 1.8161101e-38
-1.8619761 0.37817028 -0.47978747 1.8345497e-38
-1.8622051 0.38416922 -0.47678471 1.7884521e-38
-1.8622413 0.38996035 -0.47450915 1.7976353e-38
-1.8622774 0.39575148 -0.47223356 1.816075e-38
-1.8624821 0.40230182 -0.46910718 1.8253296e-38
-1.8627838 0.4089874 -0.4656041 1.7976357e-38
-1.8637693 0.41460797 -0.46019235 1.8161468e-38
-1.8641751 0.42017767 -0.45675299 1.8345493e-38
-1.864128 0.42603233 -0.45473474 1.8528803e-38
-1.8640807 0.431887 -0.45271638 1.8068913e-38
-1.8641362 0.43831316 -0.45013908 1.8345495e-38
-1.8640893 0.44418576 -0.44811395 1.8160748e-38
-1.8640419 0.45005837 -0.44608855 1.8252578e-38
-1.8644208 0.45544615 -0.44280842 1.8252585e-38
-1.8657423 0.46030927 -0.43654507 1.8251865e-38
-1.8654838 0.46482968 -0.43573579 1.5762583e-38
-1.8657111 0.46978417 -0.43312693 1.8067111e-38
-1.8656931 0.47858965 -0.42991248 1.8160384e-38
-1.8664358 0.48296118 -0.42578399 1.5302333e-38
-1.8661712 0.48807505 -0.4247731 1.8344771e-38
-1.8661928 0.49442199 -0.42234027 1.8252578e-38
-1.8662251 0.5009408 -0.41980684 1.8344772e-38
-1.8673986 0.5048058 -0.41441411 1.8160021e-38
-1.8672309 0.51226586 -0.41220558 1.5210848e-38
-1.8674257 0.51764488 -0.40954816 1.8252571e-38
-1.8680913 0.54244733 -0.39807996 1.5394528e-38
-1.8679688 0.54988509 -0.39572722 1.8344409e-38
-1.8694078 0.55562818 -0.38874087 1.8068187e-38
-1.8697375 0.5606094 -0.38577712 1.8343688e-38
-1.8696851 0.56663907 -0.38371161 1.8436249e-38
-1.8697065 0.57322448 -0.38118988 1.8344414e-38
-1.8695743 0.58083087 -0.37880671 1.8620279e-38
-1.869639 0.58789194 -0.37596175 1.8067469e-38
-1.8699719 0.59284288 -0.37299922 1.8159665e-38
-1.8701482 0.60081488 -0.36944008 1.8343335e-38
-1.871621 0.6203292 -0.35721833 1.8067828e-38
-1.8715667 0.6264587 -0.35512194 1.8067469e-38
-1.8717334 0.63284522 -0.3521848 1.7790887e-38
-1.8720034 0.63883287 -0.34904736 1.8343333e-38
-1.872209 0.64302599 -0.34679556 1.5393079e-38
-1.871974 0.64901787 -0.34535894 1.8158949e-38
-1.8733096 0.65813869 -0.33746496 1.8251503e-38
-1.8734356 0.66600007 -0.33411679 1.7975275e-38
-1.8738283 0.67387837 -0.32986358 1.8159308e-38
-1.8738664 0.68102825 -0.3270759 1.7974551e-38
-1.8737646 0.68681872 -0.32526514 1.8066382e-38
-1.8737081 0.69300938 -0.32315341 1.825078e-38
-1.8748008 0.70598531 -0.31464469 1.4933907e-38
-1.8752015 0.71318042 -0.31061819 1.7883077e-38
-1.8758304 0.72085583 -0.30564371 1.7790159e-38
-1.875715 0.72642291 -0.30396241 1.7975271e-38
-1.8758531 0.73472804 -0.30040827 1.77916e-38
-1.8758519 0.74171954 -0.29781181 1.7606851e-38
-1.8757942 0.74800813 -0.29566801 1.7698688e-38
-1.8762872 0.75445718 -0.2916078 1.7790522e-38
-1.8766221 0.75816107 -0.28910145 1.5302314e-38
-1.8777939 0.76221257 -0.28364521 1.7974544e-38
-1.8771166 0.77348816 -0.28173438 1.7789799e-38
-1.8776129 0.77999377 -0.27764148 1.7881994e-38
-1.8776121 0.78709257 -0.27500498 1.769832e-38
-1.878251 0.79503518 -0.26989773 1.7513934e-38
-1.8783894 0.79718316 -0.26863217 1.4749141e-38
-1.8783163 0.80686426 -0.26527774 1.7422092e-38
-1.8786261 0.8130697 -0.26192576 1.4748781e-38
-1.8797178 0.81911343 -0.25599867 1.7421377e-38
-1.8796569 0.82550251 -0.25382799 1.7144783e-38
-1.8797097 0.83326972 -0.25076035 1.7145149e-38
-1.880161 0.83908325 -0.24707749 1.6961113e-38
-1.8802572 0.84740776 -0.24365732 1.7144071e-38
-1.880318 0.85537589 -0.24048884 1.6868559e-38
-1.8802562 0.86181897 -0.23830119 1.6591972e-38
-1.8807448 0.87520254 -0.23167683 1.6407225e-38
-1.8807533 0.88265812 -0.22887573 1.603808e-38
-1.8816109 0.88808429 -0.22396725 1.5578179e-38
-1.8576229 0.2177528 -0.55412114 1.7239868e-38
-1.8576379 0.2232437 -0.55202812 1.724131e-38
-1.858835 0.23294385 -0.54438603 1.7516455e-38
-1.8591466 0.24492031 -0.53888208 1.7424268e-38
-1.8591325 0.25051132 -0.53684974 1.7148394e-38
-1.859092 0.25611222 -0.53490305 1.7516456e-38
-1.8590739 0.26172146 -0.53287798 1.7516098e-38
-1.8590888 0.26733959 -0.53073841 1.7516815e-38
-1.8594307 0.27251863 -0.52765995 1.7425697e-38
-1.860675 0.29127288 -0.516491 1.7609008e-38
-1.8605607 0.3008132 -0.51332879 1.7517534e-38
-1.860797 0.30584902 -0.51065874 1.7608646e-38
-1.8609856 0.31187716 -0.50778115 1.7793043e-38
-1.8610255 0.31771177 -0.50547689 1.7885233e-38
-1.8620874 0.31867337 -0.50154006 1.4843858e-38
-1.861109 0.32538092 -0.50234288 1.788524e-38
-1.8622755 0.33112612 -0.4962748 1.7977077e-38
-1.8623022 0.33701685 -0.49399433 1.770049e-38
-1.8626601 0.34228289 -0.4908295 1.806855e-38
-1.8627058 0.3482683 -0.48844928 1.8252942e-38
-1.8626615 0.35400531 -0.48646501 1.8069267e-38
-1.8626469 0.3598693 -0.48433307 1.8252582e-38
-1.8638937 0.37018758 -0.47629303 1.7884883e-38
-1.8640759 0.37584805 -0.47357428 1.8160751e-38
-1.8640138 0.38124463 -0.47177652 1.8160751e-38
-1.8641464 0.38740471 -0.46903878 1.8436975e-38
-1.8642728 0.39351502 -0.46633983 1.8068909e-38
-1.8642756 0.39947298 -0.46411514 1.8346216e-38
-1.8648573 0.40571213 -0.45983335 1.8069273e-38
-1.8661555 0.41822276 -0.45080489 1.8345497e-38
-1.866107 0.42408568 -0.44878823 1.8621719e-38
-1.8660585 0.4299486 -0.44677138 1.8252938e-38
-1.86601 0.43581155 -0.44475436 1.8436255e-38
-1.8663914 0.44118693 -0.4414691 1.8344416e-38
-1.8663424 0.44704998 -0.43945402 1.8436245e-38
-1.8663648 0.45326263 -0.43706825 1.8160385e-38
-1.8673384 0.46275598 -0.43025616 1.5210125e-38
-1.8677027 0.46788266 -0.42712128 1.8436251e-38
-1.8679199 0.47908479 -0.42222309 1.8068185e-38
-1.8682078 0.48435652 -0.41929218 1.8252938e-38
-1.8681545 0.49220961 -0.41655126 1.8252582e-38
