# .PCD v0.7 - Point Cloud Data file format
VERSION 0.7
FIELDS x y z rgb
SIZE 4 4 4 4
TYPE F F F F
COUNT 1 1 1 1
WIDTH 1070
HEIGHT 1
VIEWPOINT 0 0 0 1 0 0 0
POINTS 1070
DATA ascii
0.8035627 2.3118765 -1.119904 2.7647899e-39
0.80005461 2.3085027 -1.1124908 2.7647801e-39
0.79355568 2.3019559 -1.098115 2.672953e-39
1.0391763 2.529213 -1.5977371 1.8439266e-40
1.0349364 2.5238972 -1.5860946 2.7658829e-40
1.0241505 2.5134964 -1.5632418 2.7658969e-40
0.96751517 2.46527 -1.4570845 1.0120037e-39
0.95887709 2.4566848 -1.438229 9.2052277e-40
0.91592455 2.4208324 -1.3592842 1.1974572e-39
0.90870339 2.4135025 -1.3431896 1.0137918e-39
0.90116709 2.4060659 -1.3268552 1.7495506e-39
0.89403605 2.4007592 -1.3151479 9.2267376e-40
0.88857853 2.3948734 -1.3022342 9.219619e-40
0.88569134 2.3916762 -1.295222 1.0141477e-39
0.87666488 2.383461 -1.2771568 2.7838476e-40
0.87415648 2.3860257 -1.2826399 1.8421189e-39
0.86311901 2.3753498 -1.2591835 1.0155925e-39
0.85920066 2.3695455 -1.2464919 4.6350049e-40
0.85601878 2.3704433 -1.2483441 1.4744098e-39
0.84942913 2.3633282 -1.2327343 1.2914521e-39
0.84125167 2.3544919 -1.2133479 1.2921737e-39
0.8356095 2.3480093 -1.199136 1.2003369e-39
0.80755359 2.3247166 -1.1478426 1.8446287e-39
0.80094397 2.3206711 -1.1388828 2.3034446e-39
0.79591411 2.3137474 -1.1237328 2.8569855e-39
0.79092664 2.3093319 -1.1140194 1.8439126e-39
0.79013485 2.3083782 -1.1119299 2.8569855e-39
0.78460401 2.3027349 -1.0995401 2.6740278e-39
0.96522558 2.4742835 -1.4765469 5.5245631e-40
0.95866948 2.4674399 -1.4615263 7.3648884e-40
0.90177751 2.4168675 -1.3502775 1.1967467e-39
0.88749361 2.4049237 -1.323979 1.1974656e-39
0.88298035 2.3995733 -1.3122531 1.1974642e-39
0.87713087 2.3931448 -1.2981524 1.106349e-39
0.85468936 2.3767133 -1.2618908 1.0148652e-39
0.84893715 2.3710771 -1.2495092 2.2108973e-39
0.84506887 2.3673143 -1.2412432 1.9346663e-39
0.81599826 2.3380167 -1.1769084 2.3970836e-39
0.79921979 2.3273118 -1.153221 2.3974451e-39
0.79031992 2.3179057 -1.1325785 2.5811217e-39
0.78685939 2.314527 -1.1251564 2.6725943e-39
0.77580088 2.3046243 -1.1033751 1.3858211e-39
0.98931408 2.5040057 -1.5416551 3.6734899e-40
0.93842918 2.4578526 -1.4401581 1.0123583e-39
0.90334892 2.4230912 -1.3638086 1.1059986e-39
0.89606428 2.4220481 -1.3613344 1.0134331e-39
0.88597488 2.4141338 -1.3438904 1.0141477e-39
0.8813343 2.4090924 -1.3328308 7.3864684e-40
0.86723292 2.3943386 -1.3004484 1.8655346e-40
0.86793619 2.3943031 -1.3003926 1.1067007e-39
0.85937637 2.3849332 -1.279839 1.0134345e-39
0.84083009 2.3730435 -1.2535322 2.3952801e-39
0.83316576 2.3637006 -1.2330632 1.5676788e-39
0.79145366 2.3291907 -1.157064 2.213051e-39
0.78598166 2.3235252 -1.1446272 2.3974409e-39
0.77978241 2.3170915 -1.1305052 2.4892862e-39
0.77205187 2.3094115 -1.1136376 2.6743865e-39
0.98530304 2.5115457 -1.5578744 3.6806505e-40
0.87435919 2.4128523 -1.3407722 1.0137946e-39
0.87107021 2.4077888 -1.3297048 1.8421287e-39
0.85931438 2.3961339 -1.3041062 1.1070594e-39
0.83645612 2.379205 -1.2667537 2.0272108e-39
0.77497864 2.3227527 -1.1426303 2.0275836e-39
0.77012372 2.3166761 -1.1293216 2.8559065e-39
0.76873285 2.3155897 -1.1269269 3.1332067e-39
0.76246184 2.3089883 -1.112439 2.8573443e-39
0.94411302 2.4795239 -1.4872814 4.6098095e-40
0.86270809 2.4098277 -1.3338767 1.6580864e-39
0.85347849 2.4007413 -1.3139176 1.1988977e-39
0.85073119 2.3975761 -1.3069788 1.2910863e-39
0.83729631 2.3824596 -1.2738305 1.2896584e-39
0.82382172 2.3751442 -1.2575845 1.4747671e-39
0.80816835 2.3604472 -1.2252797 1.4754846e-39
0.77144498 2.3282635 -1.1544671 2.6725901e-39
0.76108879 2.3174489 -1.1307303 2.9484567e-39
0.7530399 2.3087049 -1.1115477 3.0402922e-39
0.96798009 2.5151784 -1.5652368 4.5954322e-40
0.94313836 2.4894164 -1.5086875 3.6842519e-40
0.84765899 2.4057107 -1.3245136 9.230367e-40
0.84085447 2.3980043 -1.3076162 1.2892955e-39
0.75343972 2.3193052 -1.134528 2.7647857e-39
0.74546975 2.3105469 -1.1153172 2.5821909e-39
0.77225089 2.3446889 -1.1900808 1.935388e-39
0.76044154 2.330426 -1.1588296 2.3038047e-39
0.74669808 2.3225369 -1.1413327 1.9368229e-39
0.73789436 2.312387 -1.1190811 2.7647899e-39
0.95554149 2.5256932 -1.5876542 1.8439126e-40
0.91740477 2.4860382 -1.5006119 6.4393308e-40
0.76408488 2.3460305 -1.1927476 1.568755e-39
0.7410658 2.3266237 -1.1500221 2.0290185e-39
0.78847849 2.3744614 -1.2550665 1.7499163e-39
0.75555843 2.3469536 -1.1944975 1.6602346e-39
0.75127202 2.3417926 -1.1831888 1.8435455e-39
0.74710602 2.3367691 -1.1721818 1.7520701e-39
0.7909469 2.3893747 -1.2874527 1.1981803e-39
0.77762455 2.3737898 -1.2532929 2.0265088e-39
0.93622506 2.5355711 -1.6084902 1.4012985e-45
0.8177036 2.4205563 -1.3558007 9.219619e-40
0.77604729 2.3829091 -1.2730055 5.5353531e-40
0.76218557 2.3662083 -1.236412 1.4747629e-39
0.74858558 2.3579271 -1.2180697 1.5666054e-39
0.92082644 2.5299072 -1.5957651 1.8439266e-40
0.82052225 2.4363239 -1.3900478 6.4536941e-40
0.81778723 2.4330323 -1.3828359 6.4537221e-40
0.75087309 2.3657928 -1.2351792 1.8446287e-39
0.72249532 2.3410189 -1.1806673 2.0268591e-39
0.91753721 2.5396581 -1.6167967 9.2925706e-41
0.86066055 2.4845216 -1.4956591 3.6878392e-40
0.81168717 2.4377778 -1.3929387 9.2051857e-40
0.80725282 2.4324312 -1.3812239 8.2975927e-40
0.7696268 2.3990979 -1.3078938 1.1978215e-39
0.73940134 2.3667729 -1.2369664 9.2123603e-40
0.73798978 2.3633802 -1.2295736 1.6588011e-39
0.73438829 2.3589387 -1.2198441 1.6584451e-39
0.71836621 2.3473492 -1.1942621 1.5687592e-39
0.71561354 2.3438747 -1.1866533 1.6598801e-39
0.71211934 2.3394892 -1.1770476 1.6598801e-39
0.798648 2.4339163 -1.3841892 1.1059874e-39
0.79528487 2.4303174 -1.3762923 7.3792657e-40
0.74647939 2.3821414 -1.2704738 1.2907388e-39
0.72634143 2.3608606 -1.2237723 1.4758419e-39
0.71196574 2.3502684 -1.2003996 2.1208554e-39
0.70746946 2.3455873 -1.1901246 1.8439154e-39
0.8319146 2.4751594 -1.4745293 4.6062502e-40
0.80696613 2.4480498 -1.4150573 9.2015983e-40
0.79097492 2.4372606 -1.3912104 5.5388984e-40
0.74806339 2.3966374 -1.3019292 9.2339403e-40
0.72961032 2.3724043 -1.2488803 8.2976768e-40
0.72443539 2.3702283 -1.2440138 1.7506366e-39
0.70113868 2.3492043 -1.1977756 1.7513596e-39
0.82279223 2.4766407 -1.4774715 6.4429321e-40
0.81589526 2.4679887 -1.458522 4.6098375e-40
0.80766714 2.457571 -1.4357082 7.3648464e-40
0.79417282 2.4454799 -1.4091127 9.2201235e-41
0.77981347 2.4362369 -1.3886642 6.4537221e-40
0.77883327 2.4349804 -1.3859128 9.219563e-40
0.77258044 2.4270217 -1.3684843 7.3899857e-40
0.75905496 2.413821 -1.3394845 9.2231083e-40
0.7486192 2.4015326 -1.3125521 4.6134249e-40
0.73858929 2.3967803 -1.3019607 1.474414e-39
0.73432004 2.3912287 -1.2898062 1.3829358e-39
0.72791058 2.3810539 -1.2675723 8.2976347e-40
0.71858013 2.3748176 -1.2537855 1.5673243e-39
0.70797127 2.3610525 -1.2236483 2.1197736e-39
0.70397925 2.3559339 -1.2124405 1.659157e-39
0.68517047 2.338371 -1.1738334 1.3832918e-39
0.87504584 2.5310302 -1.596854 2.7587923e-40
0.86704141 2.5314682 -1.5975678 3.6878392e-40
0.86221755 2.5254292 -1.5843414 2.7694842e-40
0.85317928 2.5183175 -1.5686663 3.6878672e-40
0.84566373 2.5088606 -1.5479553 3.6843219e-40
0.82271081 2.4894164 -1.5051504 6.4501348e-40
0.81759214 2.4836445 -1.4924934 7.3756644e-40
0.81312019 2.4778621 -1.4798337 6.4429321e-40
0.79584008 2.4606798 -1.4420962 4.2038954e-45
0.79174978 2.4547236 -1.4290707 8.290376e-40
0.7746526 2.4424148 -1.4018981 6.4537642e-40
0.76404417 2.4263682 -1.3668177 1.7978659e-42
0.74138153 2.4035332 -1.3166745 9.2374716e-40
0.73920083 2.4006743 -1.3104163 1.1070664e-39
0.73027164 2.3988082 -1.3061107 1.2910961e-39
0.72471929 2.391768 -1.290693 1.751361e-39
0.7226944 2.3865082 -1.2792363 4.6313475e-40
0.71971798 2.3850307 -1.2759482 1.3822142e-39
0.71544302 2.3794889 -1.2638149 1.5673201e-39
0.6966539 2.3590441 -1.2189642 1.752433e-39
0.69622415 2.3591506 -1.2191826 1.7538666e-39
0.68190902 2.3456714 -1.1895561 1.6580808e-39
0.67701912 2.3391516 -1.1752858 1.3832932e-39
0.89154267 2.5665753 -1.6743556 9.1845305e-41
0.87906861 2.5508456 -1.6399072 2.8025969e-45
0.84241128 2.5173852 -1.5663306 5.6051939e-45
0.83566058 2.5100629 -1.5502667 5.5246052e-40
0.77506208 2.4462671 -1.4102575 6.4393728e-40
0.76308924 2.4408789 -1.3982307 8.290432e-40
0.75029707 2.4258206 -1.3652279 1.0155883e-39
0.71798873 2.392215 -1.2914641 4.6277602e-40
0.71382821 2.3857462 -1.2773254 8.2976067e-40
0.71184474 2.3847876 -1.2751902 9.5082305e-41
0.70565832 2.3812392 -1.2673197 1.6613122e-39
0.68845159 2.3605299 -1.2219424 1.5673285e-39
0.68142396 2.3551941 -1.2101752 1.9357411e-39
0.67801815 2.3506527 -1.2002345 1.9357467e-39
0.67324072 2.3441834 -1.1860771 2.2119706e-39
0.84324861 2.5308952 -1.5956274 8.2868447e-40
0.83251011 2.5196114 -1.5708627 4.6025788e-40
0.82888126 2.5149188 -1.5605887 5.5209758e-40
0.76584584 2.4482069 -1.4141898 8.2941034e-40
0.76377875 2.4449968 -1.4071734 7.3792517e-40
0.75332308 2.4409926 -1.3981903 8.2868447e-40
0.74837559 2.4344394 -1.3838456 1.0141477e-39
0.74241883 2.4265571 -1.3665917 9.219563e-40
0.73174328 2.4171538 -1.3459038 1.1049126e-39
0.72747511 2.4114442 -1.3334075 1.3807764e-39
0.71336102 2.3951921 -1.2977786 8.2976067e-40
0.71001214 2.3923271 -1.291472 1.1070706e-39
0.70504653 2.3872974 -1.2804284 2.7947356e-40
0.69863957 2.3825245 -1.2698985 1.5669642e-39
0.68568194 2.3691559 -1.2405517 1.7509967e-39
0.68083954 2.3625417 -1.2260776 1.7513554e-39
0.67888719 2.3606246 -1.2218673 2.303816e-39
0.67493069 2.3560138 -1.2117605 2.213051e-39
0.66459483 2.3447444 -1.1870389 1.9364586e-39
0.81730449 2.5140553 -1.5583775 4.6061942e-40
0.78141487 2.4736261 -1.4697243 1.0804011e-42
0.71848768 2.4122188 -1.3348215 1.2885794e-39
0.71429408 2.406523 -1.3223572 9.2231923e-40
0.71072352 2.4011178 -1.3105403 9.4356432e-41
0.69172722 2.3820448 -1.2686564 1.0127128e-39
0.68337196 2.3785908 -1.2609267 1.5666012e-39
0.67609096 2.3686368 -1.2391459 1.5673285e-39
0.67130369 2.3620005 -1.2246252 1.9350278e-39
0.78503913 2.4875731 -1.5000497 5.5282345e-40
0.77888024 2.4814956 -1.486701 4.6026489e-40
0.77548856 2.4775276 -1.4780029 6.4465194e-40
0.71151775 2.4133081 -1.336977 4.6133548e-40
0.69966894 2.4002469 -1.3083287 6.4501908e-40
0.69171166 2.3919923 -1.2902098 1.9343146e-39
0.68650216 2.386111 -1.2773132 1.6587941e-39
0.67446756 2.3796191 -1.2628937 1.1074224e-39
0.66890579 2.3718488 -1.2458942 1.4754832e-39
0.6639474 2.3633416 -1.2273154 1.3818526e-39
0.65957928 2.3578212 -1.2152256 1.2903885e-39
0.863276 2.5788488 -1.7001191 9.2915897e-41
0.83117706 2.547189 -1.6305777 4.6097815e-40
0.77626002 2.489661 -1.5043161 5.5318219e-40
0.77483249 2.485769 -1.4958414 6.4393728e-40
0.76298213 2.4757791 -1.4738473 3.629363e-43
0.72192848 2.4331996 -1.380383 6.4716167e-40
0.71734285 2.4279792 -1.3689371 1.8439546e-40
0.70755678 2.418128 -1.3473046 5.5317378e-40
0.69963038 2.4130697 -1.3361111 1.0141547e-39
0.69415653 2.4054785 -1.3195027 1.2900186e-39
0.68936568 2.3988674 -1.305037 1.6569976e-39
0.68426007 2.3946307 -1.2957076 1.8421175e-39
0.67534935 2.3839524 -1.2723086 1.4747727e-39
0.65967304 2.3723772 -1.246767 1.6591598e-39
0.65435481 2.3621225 -1.2243918 1.1981859e-39
0.65109587 2.3593197 -1.2182231 1.2907388e-39
0.82105631 2.5489597 -1.6341172 4.6098656e-40
0.76136416 2.4860108 -1.4959691 6.4393168e-40
0.75901711 2.4827843 -1.4889094 4.6169561e-40
0.7389614 2.466203 -1.4523931 5.5317938e-40
0.73473215 2.4603112 -1.4395032 7.3721471e-40
0.71019846 2.4309943 -1.3752598 1.1056231e-39
0.70808965 2.4280512 -1.3688208 9.2124304e-40
0.70061213 2.4206917 -1.3526555 4.6026909e-40
0.69280469 2.4147243 -1.3394966 4.6169281e-40
0.68963766 2.4124634 -1.3345047 1.2892969e-39
0.68637234 2.4056838 -1.3197185 4.6133548e-40
0.68026078 2.4014618 -1.3103914 1.750275e-39
0.67454356 2.3941302 -1.2943376 1.6580794e-39
0.67349213 2.3949418 -1.2960653 1.4744084e-39
0.66493845 2.3828905 -1.2697017 1.5662467e-39
0.65131187 2.3712685 -1.2441195 9.219535e-40
0.64889246 2.3676915 -1.2362983 1.1067035e-39
0.63935542 2.3565941 -1.2119728 1.7520729e-39
0.80880976 2.5495231 -1.6349778 9.3636165e-41
0.8038556 2.5427163 -1.6200839 2.7695123e-40
0.80082238 2.5386477 -1.6111789 2.7659249e-40
0.79437691 2.5297265 -1.5916595 2.7694842e-40
0.75627106 2.4921706 -1.5091664 8.2832434e-40
0.74760109 2.4815872 -1.4859804 5.5317518e-40
0.74148142 2.4739501 -1.4692532 3.629363e-43
0.73010683 2.4654012 -1.4503958 1.8439406e-40
0.70091844 2.4320884 -1.3773575 7.3828531e-40
0.69725847 2.4269557 -1.3661288 8.3047533e-40
0.69340479 2.4214821 -1.3541559 9.2231223e-40
0.68091792 2.4115338 -1.3322343 2.7694702e-40
0.67128921 2.4003811 -1.3077861 1.1978187e-39
0.67054379 2.399477 -1.3058053 1.0145107e-39
0.66419947 2.3950794 -1.2960906 1.1985418e-39
0.6571334 2.3848965 -1.2738192 4.6241728e-40
0.65322733 2.3792274 -1.2614213 8.2941034e-40
0.65150154 2.3774521 -1.2575239 8.2976347e-40
0.64570099 2.374362 -1.2506578 9.219591e-40
0.79710752 2.548703 -1.6328574 2.7658969e-40
0.79182816 2.5420296 -1.6182427 3.61535e-43
0.7887221 2.5370538 -1.6073699 2.7658829e-40
0.78188771 2.5275681 -1.5866163 3.6878392e-40
0.74418855 2.4895709 -1.5031787 9.2016544e-40
0.73758048 2.4816315 -1.4857823 6.4464914e-40
0.73417938 2.4769359 -1.4755079 4.6169421e-40
0.72928113 2.4701052 -1.4605634 4.6169842e-40
0.72388309 2.4663248 -1.4522141 8.4077908e-45
0.71575779 2.4585459 -1.4351202 2.7551069e-40
0.70998788 2.4502659 -1.4170104 4.2038954e-45
0.70157754 2.441726 -1.3982595 1.44614e-42
0.69579285 2.4385812 -1.3912759 8.290418e-40
0.69216388 2.4334295 -1.3800063 6.4573094e-40
0.68784159 2.4273105 -1.3666214 1.1056231e-39
0.68474025 2.422817 -1.3567938 1.0145037e-39
0.67922628 2.4149208 -1.3395234 1.1974642e-39
0.66464096 2.4044938 -1.3165021 1.1059902e-39
0.64818746 2.3856218 -1.2751278 4.6169702e-40
0.63441199 2.3730717 -1.2475301 7.3972024e-40
0.78164291 2.5420294 -1.6179433 3.6842239e-40
0.77719659 2.5358124 -1.604342 4.6026209e-40
0.75055373 2.5063586 -1.5397406 3.643376e-43
0.74427569 2.5020437 -1.5302069 4.6133968e-40
0.73218566 2.4882593 -1.4999843 5.5245491e-40
0.72978133 2.4845221 -1.4918164 5.5281505e-40
0.72680861 2.4798601 -1.4816276 5.5317378e-40
0.71760076 2.4687545 -1.4572943 3.643376e-43
0.71513641 2.4645686 -1.4481523 6.4572814e-40
0.70603931 2.4564011 -1.4301879 1.0123541e-39
0.69502169 2.446732 -1.4089135 9.2123603e-40
0.68092567 2.4312849 -1.3750298 9.219577e-40
0.67451257 2.4219196 -1.3545492 1.1059846e-39
0.67171943 2.417901 -1.3457596 1.2893011e-39
0.66649389 2.4128835 -1.3347344 1.6580794e-39
0.65919584 2.407192 -1.3221881 3.6949858e-40
0.6400727 2.3867424 -1.2773179 4.6169702e-40
0.62636858 2.3741624 -1.2496573 1.2893011e-39
0.74230677 2.5051887 -1.5369636 3.6950279e-40
0.73068249 2.4935901 -1.5114909 7.2026741e-43
0.72335958 2.4901474 -1.5038159 2.7695263e-40
0.71759522 2.4828537 -1.4878433 4.6098375e-40
0.71435517 2.4778399 -1.4768846 3.6986432e-40
0.70476574 2.4626734 -1.4437408 1.8475139e-40
0.70018476 2.4623561 -1.442919 8.2904461e-40
0.68645853 2.4441574 -1.4030839 7.2166871e-43
0.68542993 2.4459348 -1.4069046 7.0064923e-45
0.67298353 2.4343102 -1.3813516 9.2159897e-40
0.66734529 2.4259312 -1.3630307 9.2267236e-40
0.66304708 2.4196651 -1.3493277 1.1974656e-39
0.65481913 2.4123302 -1.3331929 1.1063448e-39
0.65240622 2.4088712 -1.3256272 1.2893039e-39
0.6428057 2.3961809 -1.2978486 1.1052644e-39
0.63952106 2.3992453 -1.3043922 1.5669698e-39
0.63122118 2.388685 -1.2812669 1.4747601e-39
0.62737542 2.382988 -1.2688094 1.8431895e-39
0.76052046 2.5415919 -1.6163745 2.8025969e-45
0.74676383 2.522964 -1.575609 3.6914265e-40
0.73484832 2.511054 -1.5494527 2.7694842e-40
0.71770102 2.4972353 -1.5190077 5.5318079e-40
0.71043795 2.4874771 -1.4976507 5.5245912e-40
0.70817703 2.483835 -1.4896929 3.6950419e-40
0.70448917 2.4781694 -1.4773091 3.6914546e-40
0.70033246 2.4726717 -1.4652747 4.6205295e-40
0.6826061 2.4516339 -1.4191709 6.4573235e-40
0.67704988 2.4449008 -1.404418 1.8439546e-40
0.67625248 2.4436829 -1.4017562 2.7659109e-40
0.66710514 2.4404171 -1.3944108 7.3756784e-40
0.66078365 2.4309008 -1.3736062 9.219535e-40
0.655563 2.4230919 -1.3565325 8.2976347e-40
0.65232414 2.4199173 -1.3495592 1.3825785e-39
0.64974922 2.4169731 -1.3431039 6.4501908e-40
0.64452875 2.4117467 -1.3316261 1.1059944e-39
0.6345576 2.3978696 -1.3012652 3.7093632e-40
0.61810446 2.3827934 -1.268116 1.3840134e-39
0.61427248 2.3783574 -1.2583919 1.7531603e-39
0.61248386 2.3743615 -1.2496812 1.935388e-39
0.77118427 2.5639191 -1.6650654 3.61535e-43
0.73377842 2.5200632 -1.5689418 3.6985451e-40
0.72774315 2.513572 -1.5547003 3.6914405e-40
0.72205448 2.5070007 -1.5402944 2.7694702e-40
0.71951234 2.5048363 -1.5355304 2.7694702e-40
0.71269959 2.495393 -1.5148689 2.8025969e-45
0.7034514 2.486656 -1.4956665 3.7274539e-43
0.69854033 2.4858649 -1.4938082 5.5317378e-40
0.69425797 2.4791982 -1.4792377 3.6950139e-40
0.69127619 2.4740379 -1.4679682 5.5317518e-40
0.67563689 2.4559112 -1.428233 6.4573094e-40
0.67118347 2.4493077 -1.4137942 8.2976207e-40
0.65724683 2.4400868 -1.3934059 8.2976347e-40
0.65205246 2.4322066 -1.3761789 1.0127198e-39
0.64421558 2.4203587 -1.3502771 1.1056315e-39
0.63593292 2.4130197 -1.3341322 1.1063448e-39
0.63248056 2.4077456 -1.3226038 1.2900157e-39
0.72579354 2.5224166 -1.5738065 2.7658689e-40
0.72041857 2.5155144 -1.5586935 2.7694983e-40
0.71373588 2.5098009 -1.546118 1.4377322e-42
0.70688444 2.501024 -1.526899 3.5873241e-43
0.70788389 2.5019045 -1.5288359 2.7694983e-40
0.69723099 2.4880984 -1.4986091 7.1746481e-43
0.6819793 2.474853 -1.4694619 5.5317378e-40
0.67792052 2.4659081 -1.4499608 9.2914496e-41
0.66321802 2.4526961 -1.4209021 1.8439686e-40
0.66076016 2.4487302 -1.4122372 8.2976067e-40
0.63557708 2.4216418 -1.3528033 1.0141547e-39
0.62403399 2.4092517 -1.3256181 1.3825673e-39
0.61922479 2.4022353 -1.3102745 1.4744098e-39
0.61373746 2.3938029 -1.2918422 7.3792097e-40
0.6031546 2.3884988 -1.280039 1.6598717e-39
0.60047311 2.3796415 -1.2607682 3.7202933e-40
0.6011225 2.3793333 -1.2601196 1.8431951e-39
0.75023067 2.5625541 -1.6614926 3.6842519e-40
0.7145741 2.5225763 -1.5738231 2.7694562e-40
0.7095241 2.519944 -1.5679711 2.7658689e-40
0.70381385 2.5114329 -1.5493619 2.7658689e-40
0.69877958 2.5033813 -1.5317689 2.7694562e-40
0.69318044 2.4964442 -1.5165735 3.629363e-43
0.68945324 2.4901371 -1.5027978 3.6913985e-40
0.68716437 2.4877973 -1.4976608 5.5353391e-40
0.67354494 2.4777899 -1.4755772 3.6914686e-40
0.66916043 2.4679255 -1.4540752 2.8025969e-45
0.66837734 2.4666836 -1.4513613 4.5954182e-40
0.65742218 2.4586253 -1.4335793 1.8367099e-40
0.6538986 2.4531603 -1.4216342 1.4349296e-42
0.65189028 2.4500427 -1.4148203 9.208787e-40
0.64771152 2.4436677 -1.4008842 8.2976067e-40
0.64403903 2.4379733 -1.3884381 9.2123743e-40
0.63896972 2.4327531 -1.3769788 9.230395e-40
0.63120854 2.4255204 -1.3610792 2.7623797e-40
0.62700701 2.417367 -1.3432893 1.1059902e-39
0.6212768 2.4199686 -1.3487587 1.1056273e-39
0.62062478 2.4137311 -1.3352239 1.4733294e-39
0.60469139 2.3936665 -1.2912816 8.2975646e-40
0.59375912 2.3887627 -1.2803352 1.3840134e-39
0.59118235 2.3816791 -1.2649102 8.2976908e-40
0.58947903 2.3789973 -1.2590499 1.1063504e-39
0.70792872 2.5277669 -1.5848749 4.5954322e-40
0.70361096 2.5239582 -1.5764956 4.6097955e-40
0.69584042 2.5158124 -1.5586174 2.7658969e-40
0.69248945 2.5101423 -1.5462335 3.5873241e-43
0.68629128 2.501766 -1.5279019 2.7694702e-40
0.65824878 2.4701126 -1.4584935 6.4500787e-40
0.66235477 2.4693503 -1.4569625 6.4429601e-40
0.64031559 2.447747 -1.4095062 6.4500928e-40
0.63521671 2.4397392 -1.3920058 5.5424717e-40
0.61765403 2.4244652 -1.3583945 1.1971111e-39
0.61008668 2.4178221 -1.3437787 1.4733322e-39
0.60184056 2.4041657 -1.313947 5.5425698e-40
0.59451342 2.3930693 -1.2896883 1.0152267e-39
0.58307964 2.3827198 -1.2669275 9.2267236e-40
0.69658434 2.522542 -1.5732204 7.1746481e-43
0.6919753 2.522656 -1.5733323 5.5317378e-40
0.6855188 2.5134683 -1.5532353 2.7658689e-40
0.6448133 2.4675653 -1.4525797 5.5317518e-40
0.64315444 2.4615417 -1.4394788 4.2038954e-45
0.63356614 2.4528751 -1.4204193 4.6134109e-40
0.63000381 2.447186 -1.407988 7.3720491e-40
0.62508249 2.4387798 -1.3896291 1.104191e-39
0.61115223 2.4249775 -1.3593137 4.5990195e-40
0.58605635 2.3936551 -1.2907095 9.5432629e-41
0.58412707 2.3927228 -1.2886326 9.5432629e-41
0.69878894 2.5336504 -1.5973547 1.8439266e-40
0.62556088 2.4554291 -1.4257179 5.5245351e-40
0.62298232 2.451339 -1.41678 6.4500928e-40
0.61970508 2.4461222 -1.4053804 5.5245631e-40
0.61625999 2.4405389 -1.3931814 1.0130645e-39
0.6115635 2.4310765 -1.3725412 1.8439546e-40
0.60274094 2.4260747 -1.3614442 4.6025648e-40
0.60058331 2.422389 -1.353395 9.3636165e-41
0.61410713 2.4526141 -1.4192823 1.0119953e-39
0.6114381 2.4482489 -1.4097455 9.2015703e-40
0.6065616 2.4402168 -1.3921984 7.3791817e-40
0.60312879 2.4321826 -1.3746893 2.7694282e-40
0.59416139 2.4256892 -1.3603572 1.0134359e-39
0.57625693 2.4070466 -1.3194368 6.4501348e-40
0.57235342 2.4024539 -1.3093717 1.6584395e-39
0.56688064 2.3911054 -1.2846209 1.01271e-39
0.62156522 2.4674861 -1.4517252 1.0123569e-39
0.6151216 2.4583917 -1.4318308 5.5245211e-40
0.58266014 2.4225671 -1.3532543 1.1056273e-39
0.56658882 2.3989484 -1.3016068 1.9346649e-39
0.55930758 2.3899441 -1.2818828 1.6587969e-39
0.61144698 2.4680538 -1.4526579 1.5666026e-39
0.56701684 2.4127367 -1.3314947 2.7694282e-40
0.56577677 2.4105666 -1.3267562 1.1981774e-39
0.54663801 2.3905194 -1.2827566 1.3836561e-39
0.59922957 2.463788 -1.4430566 1.750275e-39
0.59587955 2.4583132 -1.4310956 2.3960032e-39
0.53489053 2.3854249 -1.2713734 1.4754804e-39
0.52795267 2.3961222 -1.294348 1.1099447e-39
0.44750765 2.434478 -1.3750927 0
0.45984262 2.4647646 -1.4410778 0
0.45335537 2.45595 -1.4217892 0
0.44579569 2.4449875 -1.3978137 9.2911693e-41
0.47090679 2.4933209 -1.5032778 4.5953761e-40
0.44998926 2.4643538 -1.439899 0
0.44508842 2.4535003 -1.4162382 9.219563e-41
0.43965289 2.4515481 -1.4118483 3.5873241e-43
0.45852453 2.4872379 -1.4897336 2.7586662e-40
0.43863133 2.4605801 -1.4313887 0
0.43024692 2.4589763 -1.4276671 0
0.42709151 2.4510617 -1.4104258 0
0.42479402 2.4503338 -1.4087813 3.5873241e-43
0.44111338 2.4908812 -1.4971161 1.8367099e-40
0.43005332 2.4664857 -1.4439322 2.7586662e-40
0.42318755 2.4596674 -1.4289572 0
0.41950688 2.4545782 -1.4178218 0
0.41216385 2.4477053 -1.4027146 1.8439126e-40
0.44009426 2.496346 -1.5089267 0
0.42789721 2.483197 -1.4800781 1.8367379e-40
0.42031637 2.4662099 -1.4430487 2.7586522e-40
0.41586417 2.4596548 -1.4287146 0
0.41004637 2.4505444 -1.4088038 1.8439126e-40
0.40367869 2.4443195 -1.3951291 0
0.4344146 2.5005648 -1.5179015 0
0.42632076 2.4901943 -1.4951931 0
0.40999728 2.4633832 -1.4366212 1.8367099e-40
0.41228315 2.4969292 -1.509374 0
0.40657932 2.5013411 -1.5187659 9.1835496e-41
0.40445808 2.4979272 -1.5113064 0
0.40007246 2.4906423 -1.4953934 0
0.39420435 2.4997566 -1.5149691 9.1835496e-41
1.5195016 2.376014 -1.2799023 3.5873241e-43
1.2097471 2.4331 -1.3944945 7.3756504e-40
1.1935874 2.4187689 -1.3629683 7.3756504e-40
1.1839299 2.4198442 -1.3650144 9.2051857e-40
1.0259044 2.3502922 -1.2096719 9.2051717e-40
1.0272799 2.3613873 -1.2337521 1.381847e-39
1.0899452 2.4644408 -1.4588839 1.0123541e-39
0.97508162 2.3527896 -1.2135904 2.0246983e-39
1.0909083 2.4725046 -1.4763836 8.2976067e-40
1.0644757 2.4605262 -1.4496536 1.0123541e-39
0.87583828 2.3564973 -1.2187092 1.4751343e-39
0.97420353 2.4737647 -1.4756866 8.2832294e-40
0.88868761 2.4274652 -1.3728555 1.0130729e-39
0.87179482 2.4188888 -1.3537767 1.0155813e-39
0.86507201 2.4280782 -1.3734899 9.2267376e-40
0.80630589 2.3585203 -1.2210499 1.8428294e-39
0.80369872 2.3683882 -1.2423542 1.4758461e-39
0.80010808 2.3636587 -1.2320013 1.5687522e-39
0.79734498 2.359936 -1.2238544 1.8431825e-39
0.78589469 2.3457849 -1.1928558 1.9353824e-39
0.78155035 2.3445778 -1.1901126 2.1194149e-39
0.76451486 2.3228643 -1.142565 2.396708e-39
0.88542366 2.4756269 -1.4771142 9.2087029e-40
0.8784675 2.4669576 -1.4581254 8.2832294e-40
0.78228009 2.3654451 -1.2353486 1.5676858e-39
0.77607298 2.3569994 -1.216867 1.6605877e-39
0.81384498 2.4148602 -1.3433456 1.3814967e-39
0.80759829 2.4068749 -1.3258601 1.1989005e-39
0.80703527 2.4055548 -1.3229834 1.4744014e-39
0.90873367 2.5432894 -1.624406 1.8618913e-40
0.85767144 2.4812756 -1.4885386 5.5352551e-40
0.90132064 2.5478702 -1.6341136 5.5317378e-40
0.88630122 2.528264 -1.5911914 3.6842799e-40
0.88186228 2.5221322 -1.5777744 6.4357575e-40
0.86578763 2.5067976 -1.5440757 5.5317378e-40
0.86673653 2.5017529 -1.5331732 3.6878252e-40
0.76921284 2.3870625 -1.2818042 1.6595115e-39
0.76654637 2.3832476 -1.27346 1.3832904e-39
0.76094329 2.3758593 -1.2572867 1.384354e-39
0.72917306 2.3379788 -1.1742765 1.9360956e-39
0.7240476 2.3311908 -1.1594176 2.2119706e-39
0.88339776 2.5389817 -1.6143279 1.8618913e-40
0.86368507 2.5183592 -1.5690656 4.6026349e-40
0.75142103 2.3754599 -1.2561419 1.6584395e-39
0.71002162 2.3242214 -1.1439048 2.3045208e-39
0.87306589 2.5399973 -1.6162254 9.3993496e-41
0.83542502 2.4947026 -1.5169773 9.2051717e-40
0.83483475 2.4932799 -1.5138774 6.4536941e-40
0.76870781 2.413991 -1.3401362 9.2374716e-40
0.76815587 2.4126656 -1.3372484 1.4744014e-39
0.76239651 2.404856 -1.3201579 1.5669558e-39
0.75883299 2.3997462 -1.3089813 1.3829316e-39
0.699503 2.3279908 -1.1517632 2.3974353e-39
0.87301296 2.5553689 -1.6495304 4.6062362e-40
0.70393759 2.3413668 -1.180876 2.3963619e-39
0.69914848 2.3347402 -1.1663774 2.5803804e-39
0.69282764 2.3312011 -1.1585233 2.3974353e-39
0.68604434 2.3220623 -1.1385223 2.5811063e-39
0.84702086 2.5412519 -1.6181788 8.2832294e-40
0.80775106 2.4854069 -1.4960231 9.2051717e-40
0.686616 2.3356557 -1.1679929 2.5800287e-39
0.68048567 2.3272908 -1.1496881 2.57967e-39
0.67753571 2.3228939 -1.1400743 2.3967164e-39
0.84913647 2.5536251 -1.6450504 3.6878252e-40
0.84484357 2.5473018 -1.6312234 1.8510592e-40
0.82292962 2.5229757 -1.5778711 3.6878252e-40
0.7407645 2.4172802 -1.3464425 1.1052672e-39
0.6784237 2.337122 -1.1709291 2.5803748e-39
0.66932768 2.3379173 -1.1723852 2.5796686e-39
0.66704893 2.3337243 -1.1632329 2.4889121e-39
0.66051751 2.3245468 -1.1431561 2.2137629e-39
0.74040049 2.4394455 -1.3944584 1.1052658e-39
0.70726156 2.3965063 -1.300447 1.65915e-39
0.65838671 2.3355887 -1.1670182 2.67186e-39
0.649261 2.3217077 -1.1366735 2.2137671e-39
0.64980799 2.3364282 -1.1685848 2.3967164e-39
0.64522666 2.3291376 -1.1526542 2.6715097e-39
0.64258534 2.3249388 -1.1434789 2.396722e-39
0.65132976 2.3501215 -1.1983001 2.6743795e-39
0.6412282 2.3372636 -1.1701436 2.2137629e-39
0.63458079 2.3269773 -1.1476603 3.0406509e-39
0.63409114 2.3257618 -1.1450127 2.581472e-39
0.63736421 2.3460424 -1.1890515 2.2126951e-39
0.62608457 2.3277967 -1.1491865 2.7654976e-39
0.62384415 2.3241546 -1.1412289 2.6736621e-39
0.62870485 2.3468664 -1.1905825 2.304518e-39
0.62178928 2.3358192 -1.1664431 2.7644186e-39
0.61926985 2.3316283 -1.1572884 2.9488112e-39
0.61878532 2.3304083 -1.1546311 2.9488112e-39
0.61251336 2.3208258 -1.1336838 2.7654976e-39
0.68763769 2.4425039 -1.3995355 7.3756504e-40
0.61755031 2.3434777 -1.1829126 2.4896253e-39
0.61323023 2.3366365 -1.1679626 2.6729488e-39
0.61274403 2.3354127 -1.1652966 3.0410054e-39
0.61054319 2.3317327 -1.1572589 2.765499e-39
0.60436529 2.3221476 -1.1363082 2.9484595e-39
0.76135415 2.5612509 -1.6589959 1.0130785e-39
0.75643367 2.5543497 -1.6438977 4.6097675e-40
0.74835491 2.5424988 -1.6179825 2.7730435e-40
0.61976182 2.35533 -1.2086585 2.4874715e-39
0.61307633 2.3509855 -1.199049 2.6722243e-39
0.60892773 2.3442967 -1.1844342 2.5811021e-39
0.60636258 2.3399234 -1.1748825 2.3974353e-39
0.60418582 2.3362269 -1.1668093 2.5811021e-39
0.60200906 2.3325393 -1.1587558 2.4892638e-39
0.59592825 2.3229511 -1.1378011 2.8576946e-39
0.74218547 2.5502687 -1.6346366 5.5245772e-40
0.7300725 2.5305412 -1.5915364 4.6097815e-40
0.60383999 2.3511412 -1.1991149 2.3045138e-39
0.59981817 2.3438804 -1.183264 2.4896365e-39
0.59562683 2.3370373 -1.1683141 2.765499e-39
0.59347433 2.3333426 -1.1602452 2.6736635e-39
0.58539426 2.3267531 -1.1457299 2.765499e-39
0.74666911 2.575242 -1.6888793 2.7694702e-40
0.59065163 2.3440309 -1.1833206 2.7651388e-39
0.58439672 2.3334758 -1.1602672 3.0406467e-39
0.57611865 2.3264441 -1.1447883 3.1328465e-39
0.71219271 2.5369322 -1.604859 3.6842799e-40
0.58202934 2.3448389 -1.1848186 3.0410054e-39
0.65031028 2.4652929 -1.4478168 7.3648604e-40
0.5950107 2.3761852 -1.2531193 2.3030873e-39
0.56940967 2.3387904 -1.1713426 3.1332011e-39
0.58174711 2.3692861 -1.237781 1.9361082e-39
0.5728898 2.3616197 -1.2209098 2.579314e-39
0.56910086 2.3543878 -1.2051287 2.4892708e-39
0.56684387 2.3502016 -1.1959921 2.3963549e-39
0.55664426 2.3402107 -1.1740445 2.6733033e-39
0.55063212 2.3294084 -1.1504623 3.1328423e-39
0.57515621 2.3826334 -1.266508 1.9353838e-39
0.57037735 2.3736701 -1.2469461 2.3952759e-39
0.56813669 2.3695259 -1.2379007 2.395636e-39
0.56240988 2.3594973 -1.2160037 2.6722229e-39
0.55861086 2.3528306 -1.2014469 2.7626221e-39
0.55630046 2.3484883 -1.1919705 2.4889107e-39
0.55582917 2.3472555 -1.1892853 2.2134084e-39
0.54846764 2.3342705 -1.1609337 3.0406467e-39
0.54061598 2.3276629 -1.1463864 3.1335556e-39
0.53843808 2.3235481 -1.1374065 3.1328423e-39
0.62250996 2.4698932 -1.4569683 5.5281224e-40
0.57273859 2.3874128 -1.2767925 1.5676788e-39
0.56624329 2.3834572 -1.2680306 1.9350236e-39
0.55933201 2.3703461 -1.2394197 2.4874771e-39
0.55541015 2.3632526 -1.2239349 2.3970724e-39
0.54995823 2.3536315 -1.2029278 2.3963619e-39
0.54948509 2.3523943 -1.2002339 2.4892638e-39
0.54567599 2.3455098 -1.1852043 2.7644228e-39
0.53216255 2.3284404 -1.1478223 2.9495357e-39
0.53002125 2.3243275 -1.1388481 3.0406509e-39
0.55046558 2.3717768 -1.2422591 2.0279325e-39
0.54505765 2.3613329 -1.219471 2.2123224e-39
0.54077303 2.3537819 -1.2029842 2.5807462e-39
0.53708667 2.3463023 -1.1866689 2.9488098e-39
0.5324111 2.3451309 -1.1839937 2.5814664e-39
0.52731115 2.3358855 -1.1638116 3.1331955e-39
0.5237084 2.3292143 -1.149251 3.04136e-39
0.52160347 2.3251038 -1.1402826 3.1331955e-39
0.53580487 2.3614807 -1.2195197 2.3970738e-39
0.53218013 2.353986 -1.2031739 2.7640598e-39
0.529989 2.3496556 -1.1937268 2.8562554e-39
0.52166456 2.3423791 -1.1777153 3.1328465e-39
0.5181253 2.3356895 -1.1631176 3.2253981e-39
0.51266569 2.3252482 -1.1403335 3.0413544e-39
0.53871518 2.3847392 -1.2699996 1.6595213e-39
0.53667486 2.3806937 -1.2611747 2.2108902e-39
0.52708817 2.3622763 -1.2209876 2.4885575e-39
0.5250302 2.3581178 -1.2119163 2.5807546e-39
0.52288568 2.3537962 -1.2024894 3.0406467e-39
0.51927555 2.3469107 -1.1874642 2.8576932e-39
0.50771612 2.3326817 -1.1562942 2.9502489e-39
0.50424683 2.3260171 -1.1417518 2.7665709e-39
0.5244801 2.3753092 -1.2491497 2.1179814e-39
0.51634854 2.3589122 -1.2133828 2.5814608e-39
0.51269168 2.3516872 -1.1976207 3.0406467e-39
0.49725041 2.3293586 -1.1487867 2.858768e-39
0.51776886 2.3804829 -1.2601627 1.2910919e-39
0.50760788 2.3603103 -1.2161551 2.5807476e-39
0.50408119 2.3524835 -1.1990927 2.7658577e-39
0.49479523 2.3427639 -1.1777606 3.3165147e-39
0.50093275 2.3646417 -1.2253445 2.1212127e-39
0.48030376 2.3313935 -1.1526977 3.1335542e-39
0.47848257 2.3275833 -1.1443888 3.1332011e-39
0.47364601 2.3360732 -1.1626418 2.6740222e-39
0.47050911 2.3295522 -1.1484205 3.0427991e-39
0.46167362 2.3290358 -1.1470419 3.13355e-39
0.45669192 2.3376021 -1.165457 3.3179483e-39
0.45367232 2.3310709 -1.1512166 3.0410068e-39
0.45196024 2.3271797 -1.1427348 3.2253967e-39
0.44647175 2.3350782 -1.1596882 3.5927415e-39
0.44261259 2.3462706 -1.1838256 3.4108684e-39
0.43927723 2.3384936 -1.1668773 3.225038e-39
0.43349582 2.325433 -1.1384085 2.7658577e-39
0.4328914 2.344357 -1.179394 3.2268302e-39
0.43246022 2.3431389 -1.1767422 3.2264757e-39
0.42839503 2.3339176 -1.1566423 3.3168791e-39
0.42390886 2.3235283 -1.1339997 2.8573344e-39
0.44153887 2.3753471 -1.2467954 3.6867308e-39
0.43977413 2.3710563 -1.2374468 3.4112159e-39
0.43802702 2.3669446 -1.2284862 3.5941736e-39
0.42438439 2.3451235 -1.180805 3.134636e-39
0.42523059 2.3467495 -1.1843534 2.6747369e-39
0.42117587 2.3373439 -1.1638544 2.8580421e-39
0.41840273 2.3307989 -1.1495913 2.6736508e-39
0.48396859 2.4759409 -1.4660028 3.5945253e-39
0.46345174 2.4386284 -1.384554 2.948807e-39
0.43413636 2.3791728 -1.2548673 1.7506366e-39
0.43105724 2.3718343 -1.2388761 1.3836533e-39
0.42933971 2.3677139 -1.2298983 1.6580808e-39
0.42641598 2.3607447 -1.2147117 2.0257801e-39
0.41539282 2.3453166 -1.1809598 2.9498846e-39
0.41385362 2.3414404 -1.1725155 2.9488014e-39
0.41107264 2.3348455 -1.1581441 2.8566086e-39
0.46884426 2.46348 -1.4385593 6.4285548e-40
0.46685234 2.4585207 -1.427755 2.755219e-40
0.4581224 2.4450576 -1.3983277 1.1031204e-39
0.4412387 2.4081917 -1.3179526 1.1960251e-39
0.43422136 2.402427 -1.305256 1.4012985e-45
0.42986721 2.391938 -1.2824013 1.4012985e-45
0.4281688 2.3877583 -1.273295 8.3047533e-40
0.42647222 2.3834665 -1.2639458 1.1978173e-39
0.42485207 2.3793511 -1.2549813 6.4608547e-40
0.42184433 2.3720112 -1.238989 7.382811e-40
0.41898549 2.365027 -1.2237724 1.65915e-39
0.41613269 2.3580601 -1.2085932 2.119768e-39
0.40566576 2.343322 -1.176352 3.1328437e-39
0.40530619 2.3421555 -1.1738131 2.7644129e-39
0.40257686 2.3355455 -1.1594113 2.6718628e-39
0.39850646 2.3252029 -1.1368824 2.9484511e-39
0.43353778 2.4122121 -1.326438 7.372035e-40
0.43178603 2.4077048 -1.31662 5.5424437e-40
0.42053592 2.3914456 -1.2810605 9.2230943e-40
0.41433179 2.3757954 -1.2469678 1.1059818e-39
0.41024101 2.3657358 -1.2250509 1.65915e-39
0.40867078 2.3616579 -1.2161696 2.3030803e-39
0.40140814 2.3547645 -1.2010196 2.7640598e-39
0.39985415 2.3508193 -1.192426 2.6733033e-39
0.39163297 2.3297827 -1.1466033 2.7647787e-39
0.39121494 2.3285847 -1.1439956 3.0410012e-39
0.42758426 2.4208126 -1.3448981 3.6949438e-40
0.4231303 2.4097223 -1.3207371 3.6914125e-40
0.42141566 2.4052231 -1.3109386 5.5208917e-40
0.40883225 2.3850095 -1.2667708 1.4740441e-39
0.40557668 2.3765593 -1.2483656 1.3825617e-39
0.40157884 2.3664861 -1.2264223 1.6591542e-39
0.4000423 2.3624113 -1.2175481 1.9368201e-39
0.39282992 2.3555119 -1.2023869 2.3052439e-39
0.38565427 2.3376155 -1.1633993 2.7640584e-39
0.38284913 2.3293195 -1.1453414 2.8562554e-39
0.4214344 2.4301302 -1.3649063 1.8403113e-40
0.41847166 2.4216113 -1.346361 2.7694562e-40
0.41366908 2.4092157 -1.3193617 1.8367099e-40
0.4107309 2.4016125 -1.3028014 0
0.40161431 2.3899713 -1.2773099 8.3047533e-40
0.39907745 2.3836389 -1.2635148 1.2907388e-39
0.39141226 2.3631608 -1.2189189 1.9364614e-39
0.37722325 2.3383412 -1.164724 2.764057e-39
0.37335154 2.3279512 -1.1420978 2.7647787e-39
0.40929639 2.4230895 -1.3492944 4.5989775e-40
0.40590379 2.4139726 -1.3294404 0
0.39121071 2.3873031 -1.2712229 7.3863003e-40
0.38963851 2.3830929 -1.2620544 1.1052644e-39
0.38646695 2.3744757 -1.2432903 1.5665998e-39
0.38272178 2.3645406 -1.2216533 1.842828e-39
0.36879113 2.3390634 -1.1660414 2.4885505e-39
0.36500925 2.328671 -1.1434122 2.6729418e-39
0.39685804 2.4147573 -1.330875 0
0.3838371 2.3921728 -1.2815582 7.382797e-40
0.38238686 2.388073 -1.2726319 1.0148582e-39
0.37977362 2.3808596 -1.2569255 1.104914e-39
0.37774143 2.3752315 -1.2446717 1.6584367e-39
0.37519953 2.3682246 -1.2294145 1.842828e-39
0.36559626 2.3543305 -1.1990273 2.6722215e-39
0.36415961 2.3503485 -1.1903574 2.5800259e-39
0.3638294 2.349252 -1.1879716 2.2130426e-39
0.38982141 2.4213233 -1.344895 2.7586522e-40
0.38825393 2.4168339 -1.3351222 9.2552961e-41
0.38657019 2.412204 -1.3250406 0
0.37497866 2.3929365 -1.2829525 6.4679873e-40
0.37356126 2.3888395 -1.2740334 1.1978117e-39
0.3710123 2.3816206 -1.2583176 1.4729595e-39
0.37058589 2.3803666 -1.2555873 1.3825617e-39
0.36804026 2.3731668 -1.2399126 1.5669544e-39
0.36761683 2.3719215 -1.2372019 1.7506324e-39
0.36406127 2.3619766 -1.2155493 2.4878303e-39
0.35809559 2.3580103 -1.2067803 2.3956346e-39
0.35332897 2.3444664 -1.1772941 2.0286514e-39
0.35201737 2.3406301 -1.1689434 2.8544492e-39
0.35071218 2.3368015 -1.1606094 2.6707838e-39
0.34931216 2.3328495 -1.1520056 2.8566072e-39
0.3973746 2.4552374 -1.4186008 9.1835496e-41
0.38359186 2.4301159 -1.3637642 3.6734198e-40
0.38194087 2.4254513 -1.3536085 3.6734339e-40
0.37920344 2.4176118 -1.3365417 9.2911693e-41
0.37501329 2.4054968 -1.3101684 0
0.36723059 2.396853 -1.2912111 7.3756504e-40
0.3651042 2.38936 -1.2749128 1.841742e-39
0.35934287 2.3739185 -1.2412865 1.841749e-39
0.35798132 2.369863 -1.2324589 1.7506324e-39
0.35662666 2.3658159 -1.2236495 2.3030789e-39
0.34774983 2.3543358 -1.1985151 2.4885491e-39
0.34224895 2.3381703 -1.1633266 2.5800259e-39
0.34184384 2.3369668 -1.1607074 2.7644129e-39
0.390497 2.4666789 -1.4431894 0
0.3909401 2.4645205 -1.438525 1.8367099e-40
0.38522476 2.4479396 -1.4024311 9.1835496e-41
0.37972736 2.4473977 -1.401096 0
0.37437055 2.431608 -1.3667257 2.7550649e-40
0.37392944 2.4302969 -1.3638723 3.6734198e-40
0.37139425 2.4226444 -1.3472166 4.6025368e-40
0.36879516 2.4149742 -1.330521 1.8367099e-40
0.36577517 2.4060404 -1.3110751 1.0775985e-42
0.36055249 2.3990872 -1.2958556 1.1063476e-39
0.35784179 2.3970273 -1.2913128 1.0127184e-39
0.35076088 2.3756938 -1.2448807 1.5658852e-39
0.35034636 2.3744476 -1.2421682 1.1985432e-39
0.34903008 2.3704088 -1.2333784 1.7509855e-39
0.33919531 2.3550754 -1.1998657 2.4885491e-39
0.33373627 2.3387146 -1.164256 2.6718628e-39
0.33332905 2.3375115 -1.1616375 2.8562526e-39
0.37990218 2.461338 -1.431306 0
0.37815264 2.456228 -1.420182 0
0.35977542 2.4157608 -1.33196 9.2201235e-41
0.35934681 2.4144683 -1.3291476 0
0.35499698 2.4079845 -1.3149706 0
0.34894705 2.3977885 -1.292701 5.5389265e-40
0.34516639 2.3862674 -1.2676266 9.208745e-40
0.34188214 2.3760779 -1.2454523 1.3825687e-39
0.34017715 2.3707967 -1.2339588 1.9360942e-39
0.33889607 2.3667698 -1.2251959 2.1204869e-39
0.33089459 2.3566723 -1.2030823 2.4871184e-39
0.32876554 2.3500381 -1.1886449 2.4885435e-39
0.32543367 2.3396094 -1.1659514 2.5800259e-39
0.38086903 2.4940124 -1.5021307 0
0.37928218 2.4890778 -1.4913926 0
0.35957462 2.4442501 -1.3936836 3.5873241e-43
0.35462937 2.4286959 -1.3598367 0
0.35308558 2.4239964 -1.3496084 9.2552961e-41
0.35167664 2.4195361 -1.3399028 3.5873241e-43
0.35013524 2.4148567 -1.3297179 0
0.34005049 2.3985462 -1.2940814 6.4536941e-40
0.33642933 2.3870544 -1.269075 1.4729595e-39
0.33394808 2.3791661 -1.2519106 1.841742e-39
0.33276284 2.3755732 -1.2440902 1.6573507e-39
0.33054143 2.3685477 -1.2288028 1.9357355e-39
0.32929188 2.3645282 -1.220057 2.3952759e-39
0.32233688 2.3573945 -1.2043954 2.3030803e-39
0.37011224 2.4912832 -1.4959016 0
0.36182666 2.4662588 -1.4414372 9.1838299e-41
0.36048168 2.4608636 -1.4297073 1.4012985e-45
0.34399351 2.4247687 -1.351015 7.1746481e-43
0.34262028 2.4203119 -1.3413179 2.7550649e-40
0.34041679 2.4130456 -1.325509 0
0.33256242 2.4037809 -1.3052034 3.5873241e-43
0.33032531 2.3964965 -1.2893548 3.7058319e-40
0.32903352 2.3922632 -1.2801439 1.4726063e-39
0.32762903 2.3878062 -1.2704453 1.841742e-39
0.32557601 2.3805759 -1.2547194 1.5673257e-39
0.32458037 2.3793802 -1.2520989 1.7520645e-39
0.32143137 2.3687065 -1.2288795 2.1201267e-39
0.31065223 2.3485346 -1.1848552 2.2123224e-39
0.30746976 2.3372381 -1.1602851 2.6718628e-39
0.36217767 2.497503 -1.5091454 0
0.35420227 2.4728365 -1.4554653 0
0.34914064 2.4554365 -1.4176149 1.8367099e-40
0.33489966 2.4255376 -1.3524135 7.1746481e-43
0.32990685 2.4098554 -1.3182874 0
0.32013392 2.3937252 -1.2830504 1.0137806e-39
0.31893414 2.389678 -1.2742462 1.2900059e-39
0.3148796 2.3764668 -1.2455014 2.2105287e-39
0.31188089 2.3664145 -1.2236329 2.3030789e-39
0.31070277 2.3624203 -1.2149438 2.1194149e-39
0.30217806 2.3492575 -1.1861726 2.2116105e-39
0.29902491 2.338604 -1.162997 2.3963549e-39
0.34891817 2.4875705 -1.4872352 0
0.34631959 2.4788401 -1.4682417 1.8367099e-40
0.34472352 2.4736426 -1.4569334 0
0.34134078 2.4621267 -1.4318823 0
0.32721379 2.4304373 -1.3628043 7.1746481e-43
0.3244392 2.4225633 -1.3456619 9.219563e-41
0.32319492 2.4182987 -1.336385 0
0.31752527 2.3988988 -1.2941839 7.371951e-40
0.31053373 2.3916953 -1.2783704 1.3807652e-39
0.31012598 2.3904345 -1.2756265 1.1978173e-39
0.30879188 2.3859527 -1.2658768 1.7499051e-39
0.30414337 2.3701596 -1.2315203 1.9357299e-39
0.30212033 2.3631401 -1.2162511 2.0282898e-39
0.29370189 2.349977 -1.1874832 2.0282912e-39
0.34504834 2.4896798 -1.4916912 0
0.31337613 2.4161034 -1.3313398 2.7659109e-40
0.31296074 2.4148145 -1.328535 4.6025368e-40
0.30943969 2.4026082 -1.3019837 8.2867606e-40
0.30245245 2.3952284 -1.2857883 1.3807652e-39
0.30204275 2.3939631 -1.2830347 1.2900059e-39
0.29929206 2.3839254 -1.2612046 1.4743972e-39
0.29888874 2.382673 -1.2584795 1.8421007e-39
0.29549691 2.3708811 -1.2328297 1.8449776e-39
0.29353616 2.3638563 -1.2175509 2.3027257e-39
0.29246914 2.360038 -1.2092465 2.1197666e-39
0.34029916 2.5077357 -1.5306748 0
0.32864642 2.4853389 -1.481804 0
0.32639527 2.4771216 -1.4639332 0
0.30581334 2.4283357 -1.3576223 9.3271827e-41
0.30396119 2.4155827 -1.3299351 8.2759987e-40
0.29979646 2.4004138 -1.296946 8.2939073e-40
0.29360873 2.3959749 -1.2871461 1.0127086e-39
0.29164317 2.388694 -1.2713122 1.0152239e-39
0.29054374 2.3846693 -1.2625595 1.750631e-39
0.28899726 2.3801277 -1.2526739 1.7509855e-39
0.28616455 2.3688436 -1.2281408 2.3952745e-39
0.28495038 2.3645692 -1.2188437 2.4867611e-39
0.28309771 2.3577185 -1.2039453 1.7520687e-39
0.32056165 2.4913924 -1.4946827 0
0.32011881 2.4900179 -1.4916916 0
0.31690523 2.4779315 -1.4654092 0
0.29856727 2.4296107 -1.3601718 9.219563e-41
0.29477414 2.415849 -1.3302422 4.6204734e-40
0.28457311 2.3970792 -1.2892734 6.4679733e-40
0.28305414 2.3916314 -1.2774246 1.5662425e-39
0.28133127 2.3848693 -1.2627225 1.4751245e-39
0.27949324 2.3777981 -1.2473471 1.7509855e-39
0.278267 2.373306 -1.2375778 2.0279241e-39
0.27630085 2.3659401 -1.22156 2.027578e-39
0.27529663 2.3621373 -1.2132909 1.9357355e-39
0.27351272 2.3552883 -1.1983985 1.4761909e-39
0.32178402 2.5140266 -1.5437617 0
0.30741277 2.4787376 -1.4668771 0
0.29928342 2.447994 -1.4000248 0
0.29886353 2.4466703 -1.3971443 0
0.29328194 2.4375753 -1.3772738 0
0.28021118 2.3964679 -1.2878209 1.1978117e-39
0.27360839 2.3896098 -1.2727671 1.5665998e-39
0.27257845 2.3856058 -1.2640611 1.6584367e-39
0.27080286 2.3785293 -1.2486762 1.8421021e-39
0.26902542 2.3714509 -1.2332866 2.2108832e-39
0.26615524 2.3602765 -1.2089905 2.3027201e-39
0.26333836 2.349334 -1.1851978 1.8446189e-39
0.30008829 2.4881308 -1.4870147 0
0.29511079 2.4699843 -1.4475497 0
0.28957063 2.4482224 -1.4002345 1.8367099e-40
0.28453887 2.4390476 -1.3802071 3.6734198e-40
0.28711268 2.4387796 -1.3797026 1.0761972e-42
0.2717824 2.3984575 -1.2918838 1.1967341e-39
0.27073339 2.3942754 -1.2827916 1.4729595e-39
0.26421893 2.3875918 -1.2681187 1.6587899e-39
0.26322281 2.383595 -1.2594291 1.7506254e-39
0.2611587 2.3754387 -1.241696 2.2105245e-39
0.30291024 2.5178659 -1.5515262 0
0.28569153 2.4707615 -1.4489571 0
0.28032744 2.4490047 -1.4016576 1.8367099e-40
0.27579582 2.4405198 -1.3831403 1.8367099e-40
0.27000293 2.4309971 -1.3623368 9.3630559e-41
0.26294458 2.3991773 -1.2931842 1.196374e-39
0.25618804 2.3916106 -1.2765903 1.4740441e-39
0.25449452 2.3843279 -1.2607615 1.1063476e-39
0.25902036 2.3830001 -1.2580172 1.6584367e-39
0.2492456 2.3622103 -1.2126833 1.9357299e-39
0.27495813 2.4662716 -1.4389132 0
0.27108166 2.4497828 -1.403073 0
0.26234528 2.4343519 -1.3693811 3.6878112e-40
0.24480437 2.3819714 -1.2553706 2.0257787e-39
0.24331939 2.3743222 -1.2387532 1.8438986e-39
0.24173871 2.3672431 -1.2233676 1.9350236e-39
0.26286441 2.4549978 -1.4141303 1.8367099e-40
0.26136413 2.4500029 -1.4032642 0
0.24521206 2.4033468 -1.3016976 1.0134233e-39
0.23908874 2.420815 -1.3393667 3.6949578e-40
0.23878235 2.4180064 -1.333272 8.2867466e-40
0.2382407 2.4135807 -1.3236666 7.3791817e-40
0.23654318 2.4035976 -1.3019865 1.198176e-39
0.23235899 2.3833461 -1.2579834 2.0261332e-39
0.22596523 2.3764961 -1.2429535 1.7513442e-39
0.22413594 2.3681705 -1.2248608 2.0282898e-39
0.22272559 2.3612838 -1.2098969 2.027571e-39
0.26054221 2.5134034 -1.5406122 0
0.25906521 2.5045269 -1.5213357 0
0.25522837 2.4836037 -1.4758881 0
0.23316728 2.4286313 -1.3561291 4.6025508e-40
0.23060519 2.4249296 -1.3480334 9.1979129e-40
0.22980842 2.4190741 -1.335322 6.4536661e-40
0.2288366 2.4125655 -1.3211912 7.372021e-40
0.22803661 2.4048777 -1.3045099 1.2903661e-39
0.22695127 2.3997834 -1.2934401 1.1067007e-39
0.22509684 2.3912051 -1.274799 1.5673131e-39
0.21731448 2.377213 -1.2442527 1.3818484e-39
0.21405141 2.3613989 -1.2098917 2.2108902e-39
0.22421551 2.4315643 -1.362221 2.7586522e-40
0.22209638 2.4272752 -1.352865 6.4464494e-40
0.22204196 2.4194477 -1.3359035 8.290376e-40
0.22074972 2.416898 -1.3303406 7.3755523e-40
0.2195479 2.4084828 -1.3120724 1.1981718e-39
0.21757568 2.3986218 -1.2906477 1.3822086e-39
0.21616714 2.3913023 -1.2747473 1.8413931e-39
0.21452828 2.3842785 -1.2594804 1.8421021e-39
0.20599526 2.3659365 -1.219487 2.3027243e-39
0.20509331 2.3615658 -1.2099901 2.4874701e-39
0.20434192 2.3578303 -1.2018747 2.2116091e-39
0.2386134 2.5016625 -1.5145292 0
0.22970565 2.4798925 -1.4670968 0
0.21255662 2.4249804 -1.3476131 5.5281084e-40
0.21187645 2.4195316 -1.3357863 9.2051436e-40
0.21089393 2.4121206 -1.3197002 8.2975506e-40
0.20790629 2.3960946 -1.284888 1.3829218e-39
0.20696555 2.3914731 -1.2748473 1.6587927e-39
0.20566316 2.3843565 -1.2593888 1.9339376e-39
0.22946487 2.5032032 -1.5175985 0
0.22693846 2.4971452 -1.5043977 0
0.22564907 2.4869199 -1.4822043 0
0.22363298 2.4839129 -1.4756299 0
0.21256758 2.4414973 -1.3834014 3.5873241e-43
0.20971584 2.4267144 -1.351287 2.7694562e-40
0.2026706 2.4167602 -1.3295119 6.4500367e-40
0.20214188 2.4118323 -1.3188187 1.2889283e-39
0.19947822 2.3995054 -1.2920307 1.4747573e-39
0.19820356 2.3921785 -1.2761176 1.7517044e-39
0.19732785 2.3877442 -1.2664843 2.0261332e-39
0.19572128 2.3779233 -1.2451575 2.0275668e-39
0.22074123 2.5040543 -1.519186 0
0.2174834 2.4991143 -1.5083871 0
0.21626922 2.4899838 -1.4885676 0
0.20130213 2.4302516 -1.3587039 1.8403253e-40
0.20033091 2.4240007 -1.3451314 5.5280944e-40
0.19393979 2.4198842 -1.3360244 4.6133408e-40
0.1889637 2.394568 -1.2810241 1.9346579e-39
0.18943937 2.39288 -1.27738 1.9335831e-39
0.18708231 2.3786142 -1.2464008 1.7513442e-39
0.21094316 2.504096 -1.5189891 0
0.20909646 2.4969091 -1.503363 0
0.19737735 2.4593573 -1.4216532 3.5873241e-43
0.19314378 2.435895 -1.3706915 3.6806085e-40
0.19117185 2.4241023 -1.3450823 4.5989775e-40
0.18490322 2.4176869 -1.3309981 8.2939353e-40
0.18157707 2.3996921 -1.2919098 1.5651607e-39
0.17992577 2.390372 -1.271667 1.7495464e-39
0.17912415 2.3859146 -1.2619848 2.0264934e-39
0.20150784 2.5043292 -1.5192168 0
0.20114377 2.4999084 -1.5096284 0
0.1887951 2.4677093 -1.4394977 3.5873241e-43
0.1885497 2.4613023 -1.4256078 3.5873241e-43
0.18451813 2.4402564 -1.3798882 3.6805945e-40
0.18287362 2.428998 -1.3554466 3.6841818e-40
0.18216792 2.4248374 -1.3464108 4.6025508e-40
0.17874113 2.4059389 -1.3053619 1.5651593e-39
0.1691099 2.3769548 -1.2422775 1.8435399e-39
0.16652253 2.3755031 -1.2390561 1.8435623e-39
0.16165559 2.3612466 -1.208023 1.7524302e-39
0.19087403 2.5040824 -1.51837 0
0.18124343 2.4676406 -1.439127 3.6013371e-43
0.17421126 2.4341395 -1.3663322 3.6770212e-40
0.1515886 2.3787529 -1.2456591 1.9350236e-39
0.16921024 2.4961407 -1.500526 0
0.16731048 2.477793 -1.4607154 0
0.15649833 2.4371254 -1.3722818 2.7658969e-40
0.14445208 2.391099 -1.2721999 1.7495464e-39
0.1436007 2.3839276 -1.2566364 1.9339376e-39
0.14277168 2.3769648 -1.2415258 2.1186834e-39
0.14128548 2.3653684 -1.2163556 2.3027201e-39
0.16079465 2.5012219 -1.5112885 0
0.15191296 2.4471931 -1.3939613 1.8474719e-40
0.14773035 2.441191 -1.380833 3.6877691e-40
0.14379011 2.4250379 -1.3457173 5.5352971e-40
0.13571313 2.3917985 -1.2734592 1.5666012e-39
0.15828085 2.512001 -1.5345705 0
0.14633754 2.4622781 -1.4264827 0
0.13589455 2.4367471 -1.3708562 3.6949718e-40
0.13659944 2.4287314 -1.3535093 2.7658689e-40
0.12811768 2.3974011 -1.2853756 1.6595129e-39
0.12794404 2.3919668 -1.2735956 1.9357327e-39
0.14697014 2.5131123 -1.5366461 0
0.13658091 2.458699 -1.4184409 3.6805945e-40
0.13203993 2.4469328 -1.3928127 1.8367099e-40
0.12952164 2.4411447 -1.3801981 3.6877832e-40
0.12834145 2.4372604 -1.3717473 9.219563e-41
0.12055527 2.3952453 -1.2804824 2.0272193e-39
