# .PCD v0.7 - Point Cloud Data file format
VERSION 0.7
FIELDS x y z rgb
SIZE 4 4 4 4
TYPE F F F F
COUNT 1 1 1 1
WIDTH 1067
HEIGHT 1
VIEWPOINT 0 0 0 1 0 0 0
POINTS 1067
DATA ascii
2.0481515 0.87482917 -2.1878047 1.2634072e-38
2.0510023 0.88269687 -2.183008 7.3792966e-39
2.0521939 0.89105129 -2.1787412 1.2910663e-38
2.0481315 0.90075022 -2.1762412 6.5517037e-39
2.0466959 0.90977705 -2.1728578 1.3001777e-38
2.0408127 0.91978735 -2.1710389 7.3803672e-39
2.0418649 0.92818588 -2.1668153 1.1988337e-38
2.036772 0.95988286 -2.1549582 9.4990632e-39
2.0297742 0.97919065 -2.1494906 1.0144423e-38
2.0242682 0.98859817 -2.1477711 1.106675e-38
2.0287867 0.99536473 -2.1427143 9.7763815e-39
2.022433 1.0058001 -2.1409178 1.1617762e-38
2.0169115 1.0152102 -2.139204 9.4057899e-39
2.019253 1.0234592 -2.1344664 1.189435e-38
2.0216234 1.0317831 -2.1296821 9.0377207e-39
2.0284753 1.0402757 -2.1228034 1.3096503e-38
2.0126081 1.0759298 -2.1140337 1.2908146e-38
2.0101953 1.0853102 -2.1109328 8.9451621e-39
2.0108621 1.1114033 -2.0989828 1.3000341e-38
2.0173185 1.1181955 -2.0930414 1.0421759e-38
2.0127869 1.1263285 -2.0914521 1.2446442e-38
1.9929353 1.2256516 -2.0560515 1.1621003e-38
1.9943635 1.2356554 -2.0509417 1.2724138e-38
1.9900329 1.2447016 -2.0488539 1.1066039e-38
1.9890466 1.2538512 -2.0452135 1.2910664e-38
1.98806 1.2630007 -2.0415728 1.0420676e-38
1.9909269 1.2734624 -2.0356104 1.4659154e-38
1.9878285 1.2816668 -2.0333433 1.005404e-38
1.9832753 1.2908225 -2.031307 1.3001789e-38
1.982358 1.2997658 -2.0277274 9.4072347e-39
1.9814407 1.3087094 -2.024148 1.3277649e-38
1.9780514 1.3283384 -2.016911 1.2909948e-38
1.9771379 1.3373179 -2.0133135 1.0512139e-38
1.9762243 1.3462975 -2.0097158 1.2815603e-38
1.9769875 1.3581669 -2.0040729 1.0788723e-38
1.9804476 1.3666395 -1.9987315 1.2446452e-38
1.975152 1.3762746 -1.9968152 1.1064955e-38
1.9742342 1.3853284 -1.9931866 1.1065681e-38
1.9682786 1.3952676 -1.9914324 1.2540084e-38
1.9673643 1.4043211 -1.9878024 9.9596938e-39
1.96645 1.4133747 -1.9841721 1.2818111e-38
1.9655356 1.4224281 -1.9805419 9.130652e-39
1.9659498 1.4349432 -1.9747679 1.346205e-38
1.9621041 1.4428382 -1.9729755 8.5760419e-39
1.9641132 1.4531957 -1.9674462 1.3278381e-38
1.9631947 1.4623221 -1.9637854 8.1164959e-39
1.9571676 1.4723486 -1.9620245 1.3735752e-38
1.9562529 1.4814745 -1.9583621 9.5894595e-39
1.9553378 1.4906003 -1.9547001 1.2630843e-38
1.9574248 1.5012255 -1.9490157 1.0417789e-38
1.9565014 1.5103878 -1.9453415 1.1156087e-38
1.9560326 1.5330749 -1.9354234 9.9593183e-39
1.9524049 1.5495442 -1.9297049 1.1341907e-38
1.9414806 1.5765193 -1.9225835 1.1615247e-38
1.9470841 1.5897465 -1.914153 1.0509612e-38
2.0538795 0.82135206 -2.2091 1.1252222e-38
2.0524511 0.8303349 -2.2057328 8.1168616e-39
2.051023 0.83931768 -2.2023656 1.2263853e-38
2.0495949 0.84830046 -2.1989987 7.4718523e-39
2.048166 0.85728341 -2.195632 1.2449683e-38
2.0467377 0.86626601 -2.1922648 7.4722097e-39
2.0398152 0.87613523 -2.1909776 1.2634076e-38
2.042635 0.88400763 -2.1861925 7.3792952e-39
2.0437956 0.89236891 -2.1819365 1.2726632e-38
2.0383337 0.91109025 -2.1760387 1.2909587e-38
2.0368998 0.92011786 -2.1726542 7.104516e-39
2.035466 0.92914534 -2.1692698 1.3002859e-38
2.0288093 0.97758675 -2.1506412 9.6863453e-39
2.0151441 0.99424022 -2.1493626 1.1342607e-38
2.0087478 1.0165479 -2.1422846 9.866408e-39
2.0078418 1.0251471 -2.138854 1.217058e-38
2.0093102 1.042071 -2.1306365 1.2631911e-38
2.0037255 1.051526 -2.1289308 8.853691e-39
2.0028236 1.0601569 -2.125484 1.2723756e-38
2.0133071 1.0818765 -2.1110637 1.1068202e-38
1.9959656 1.1266204 -2.0989001 1.1984749e-38
1.9977727 1.1486869 -2.0882342 1.3461319e-38
1.9911587 1.1670777 -2.0830033 1.3368406e-38
1.9906139 1.1864752 -2.0745883 1.3922295e-38
1.9856579 1.1988233 -2.0713081 1.170996e-38
1.9804837 1.2353543 -2.0573294 1.290922e-38
1.9811407 1.2461401 -2.0522177 1.0883081e-38
1.9801586 1.255289 -2.0485756 1.3186164e-38
1.979177 1.264438 -2.0449333 1.0328479e-38
1.9797788 1.2743189 -2.0402503 1.4751348e-38
1.978294 1.2836469 -2.0367548 9.8714596e-39
1.9771246 1.2932229 -2.0330064 1.4105609e-38
1.9772627 1.3019203 -2.0290611 9.2228532e-39
1.9763535 1.3108995 -2.0254617 1.364536e-38
1.9754444 1.3198788 -2.0218625 9.5898309e-39
1.9686306 1.3387135 -2.0165234 9.4065172e-39
1.9677246 1.3476921 -2.0129225 1.3092898e-38
1.964385 1.36763 -2.0055258 1.2169879e-38
1.9625812 1.3856642 -1.9982867 1.1341565e-38
1.9566151 1.395577 -1.996549 1.2263499e-38
1.9557167 1.4045937 -1.9929284 1.0235556e-38
1.9548182 1.4136106 -1.9893072 1.2909591e-38
1.9569548 1.4238418 -1.9837763 9.1306618e-39
1.9534831 1.4442735 -1.9762186 8.7604317e-39
1.9554515 1.4546257 -1.9707103 1.3185829e-38
1.9545406 1.4637513 -1.9670463 8.4842022e-39
1.9474934 1.4781129 -1.9638093 1.1430868e-38
1.9496301 1.4934909 -1.9559808 1.2723399e-38
1.9487147 1.5026522 -1.9523029 1.051213e-38
1.9426303 1.5127187 -1.9505501 1.1800002e-38
1.9317764 1.5872103 -1.9221818 9.3125125e-39
1.9273348 1.6182058 -1.9103446 1.2078002e-38
1.9264334 1.62749 -1.906606 7.1916473e-39
1.9255317 1.6367744 -1.9028666 9.9571546e-39
2.0455413 0.82265246 -2.2122757 1.0793052e-38
2.0441148 0.83163625 -2.2089076 8.3019661e-39
2.0426884 0.8406198 -2.2055395 1.1896152e-38
2.0385416 0.85043454 -2.2030258 7.9328319e-39
2.0371213 0.85939038 -2.199667 1.2449686e-38
2.0371239 0.86726284 -2.196151 7.7487966e-39
2.0356922 0.87629145 -2.1927652 1.2542964e-38
2.0342603 0.88531983 -2.1893795 7.6562436e-39
2.0328283 0.89434826 -2.1859937 1.2818833e-38
2.0313966 0.90337664 -2.1826079 7.1963458e-39
2.0299642 0.91240519 -2.1792223 1.3002506e-38
2.0263164 0.92211419 -2.1765313 7.6562352e-39
2.0227008 0.93140388 -2.1740127 1.2541864e-38
2.0286176 0.93883288 -2.16803 8.0250191e-39
2.0218496 0.94336307 -2.1690567 1.0236286e-38
2.011353 0.97377414 -2.1602082 9.6845348e-39
2.0104544 0.98234069 -2.1567879 1.0789798e-38
2.0069892 0.99554688 -2.1524532 1.1526275e-38
2.0061486 1.0084693 -2.1470625 1.1065325e-38
2.0038388 1.0175211 -2.144062 9.866066e-39
2.0131502 1.0244093 -2.1367915 1.2635159e-38
2.0061204 1.034411 -2.1354933 1.0328476e-38
2.0046751 1.0435119 -2.1320813 1.2636604e-38
2.0032303 1.0526127 -2.128669 1.0880214e-38
2.001785 1.0617136 -2.1252568 1.2820634e-38
1.993098 1.0967277 -2.113538 1.3368763e-38
1.9922073 1.1054265 -2.1100557 9.0377165e-39
1.9913163 1.1141257 -2.1065731 1.355315e-38
1.9843465 1.1279086 -2.1035597 1.1802156e-38
1.9818852 1.1726928 -2.0846739 1.0327383e-38
1.97821 1.1913735 -2.0779893 9.8674912e-39
1.9734632 1.208614 -2.0724306 9.5001394e-39
1.9730117 1.2278826 -2.0640316 9.3150391e-39
1.9721179 1.2367189 -2.0604889 1.3093624e-38
1.9755844 1.2476902 -2.0540292 1.0609385e-38
1.9712625 1.2567291 -2.0519404 1.3276922e-38
1.9702852 1.2658774 -2.0482962 1.0051894e-38
1.9713941 1.2754352 -2.0435295 1.3830819e-38
1.9696505 1.2850053 -2.0400426 1.0238446e-38
1.9665105 1.2942867 -2.0373135 1.4106691e-38
1.9672081 1.3038609 -2.0327244 8.8558658e-39
1.9678441 1.3122942 -2.0286725 1.3922305e-38
1.9669429 1.3212727 -2.0250702 9.2214099e-39
1.9601078 1.3401127 -2.0197382 9.2224819e-39
1.95921 1.3490908 -2.016134 1.3276576e-38
1.9540423 1.3870817 -2.0015008 1.1894717e-38
1.9461766 1.4102709 -1.9946915 1.1248635e-38
1.9453753 1.4240497 -1.9889008 9.4987171e-39
1.944484 1.4330661 -1.9852769 1.327802e-38
1.9384809 1.4429885 -1.9835511 8.6693179e-39
1.9405439 1.4533176 -1.9780102 1.3370934e-38
1.9430568 1.4638947 -1.9721558 8.7611436e-39
1.9388045 1.4795204 -1.9670954 1.1431941e-38
1.9379038 1.4886454 -1.9634272 1.2721231e-38
1.9399077 1.4992585 -1.957786 1.0051166e-38
1.9363813 1.5202948 -1.9499829 9.5905427e-39
1.9319879 1.5276365 -1.9486842 1.3185096e-38
1.9272401 1.5675232 -1.9330155 1.1800731e-38
1.9263468 1.5767295 -1.9293075 1.0786564e-38
1.9220724 1.5979048 -1.9217792 1.1525918e-38
1.9166118 1.6332552 -1.9084566 9.5883693e-39
2.0371957 0.82395488 -2.2154543 1.0057646e-38
2.0357709 0.83293921 -2.212085 9.222119e-39
2.0288172 0.86068869 -2.2028286 1.1989789e-38
2.0215871 0.9137218 -2.1824088 1.2911745e-38
2.0150826 0.92397583 -2.1807609 7.7473518e-39
2.0141206 0.93280125 -2.177254 1.2542225e-38
2.0080683 0.96322984 -2.1663957 1.0605063e-38
2.0032432 0.97510594 -2.1632671 8.8569364e-39
2.002353 0.98367161 -2.1598439 1.1343336e-38
1.9967804 0.99306077 -2.1581624 1.02377e-38
1.9995664 1.000802 -2.1534512 1.0236267e-38
1.9986091 1.0096446 -2.1499348 1.1989053e-38
2.0019321 1.0171125 -2.1451035 1.0238077e-38
1.9976729 1.0357385 -2.1387067 1.0879494e-38
1.9938809 1.0459114 -2.1358731 1.2542592e-38
1.9947861 1.0539417 -2.13188 1.1063886e-38
1.9933426 1.0630435 -2.1284666 1.2912113e-38
1.9848654 1.0980914 -2.1166384 1.3368761e-38
1.9839827 1.1067896 -2.1131525 8.9455237e-39
1.9830995 1.1154879 -2.1096668 1.3276214e-38
1.9730864 1.1291729 -2.1080682 1.1341902e-38
1.9781486 1.1467541 -2.0979381 1.1617765e-38
1.970645 1.1738095 -2.0892394 9.9589595e-39
1.9727012 1.1828107 -2.0842943 1.2170591e-38
1.9689527 1.2015311 -2.077625 1.235497e-38
1.96516 1.2099677 -2.0755672 9.1306548e-39
1.9675605 1.2191553 -2.0703838 1.2724826e-38
1.9658569 1.2286566 -2.0669093 1.1067472e-38
1.9637371 1.2380874 -2.0636537 1.2909939e-38
1.9628513 1.2469232 -2.0601082 8.5781943e-39
1.9587753 1.2750069 -2.0494061 1.373827e-38
1.9565024 1.2861224 -2.0454671 9.3161223e-39
1.9566224 1.3049076 -2.0370262 8.9473397e-39
1.9556408 1.321919 -2.0298736 9.0370172e-39
1.9531198 1.3353564 -2.0250099 1.4198168e-38
1.9454882 1.3885034 -2.00472 1.1802881e-38
1.9446017 1.3975197 -2.0010941 1.1709967e-38
1.9376103 1.4116666 -1.9979278 1.1064599e-38
1.9359319 1.4344921 -1.9884931 1.2909599e-38
1.9347672 1.4498581 -1.9821573 1.0974192e-38
1.930948 1.4589906 -1.9798009 1.1618507e-38
1.9301008 1.4809319 -1.9703864 1.0881644e-38
1.9292076 1.490056 -1.966715 1.244501e-38
1.9283142 1.4991802 -1.9630437 9.5901924e-39
1.9241353 1.5198848 -1.955683 8.4838449e-39
1.9159406 1.5577611 -1.9424644 1.0051522e-38
1.9150547 1.5669261 -1.938772 1.1893997e-38
1.9167171 1.5873951 -1.9288843 1.0787298e-38
1.9105092 1.5975446 -1.9271493 1.1894709e-38
1.9096271 1.6067506 -1.9234368 1.0786943e-38
1.9087448 1.6159568 -1.919724 1.1709235e-38
1.9025217 1.6261107 -1.9179943 1.1523771e-38
2.0259969 0.84322858 -2.2118945 1.0792329e-38
2.0157566 0.86400944 -2.2072301 1.1713909e-38
2.0251286 0.87244612 -2.1992412 9.7753053e-39
2.0174577 0.89713818 -2.1916728 1.2911743e-38
2.0160346 0.90612316 -2.1883028 7.9317473e-39
2.00649 0.92537636 -2.1840069 7.563685e-39
2.0055325 0.934201 -2.1804984 1.3002482e-38
2.0081148 0.94558096 -2.1742542 1.042032e-38
2.0066848 0.95461041 -2.1708672 1.097744e-38
2.0024741 0.97285753 -2.1646175 1.0977803e-38
2.0010381 0.98193383 -2.1612122 1.0236639e-38
1.9939617 1.000656 -2.1560414 1.0329908e-38
1.9925314 1.0096854 -2.1526546 1.2175983e-38
1.996277 1.0270586 -2.1432104 1.2544044e-38
1.9839343 1.0554515 -2.136095 1.1156082e-38
1.9835762 1.065184 -2.1319108 1.2541873e-38
1.9871449 1.0739011 -2.1264114 1.0786569e-38
1.9810053 1.0906708 -2.1216903 8.7618737e-39
1.9737877 1.099516 -2.1209927 1.2725189e-38
1.9731555 1.1138772 -2.114866 1.2264569e-38
1.9690439 1.121869 -2.1131504 9.8671268e-39
1.9681697 1.130567 -2.1096611 1.1433389e-38
1.9672952 1.1392647 -2.1061716 9.8667681e-39
1.9664207 1.1479627 -2.1026824 1.1709614e-38
1.9606731 1.1575099 -2.1010091 9.774941e-39
1.9598019 1.1662074 -2.0975182 1.1986917e-38
1.962447 1.1906577 -2.0854106 1.3369485e-38
1.9577167 1.2025583 -2.0822284 1.281487e-38
1.9599659 1.2112005 -2.0773566 1.1342623e-38
1.9570415 1.2300931 -2.0702395 1.0975281e-38
1.9516479 1.2478007 -2.0647638 8.9455461e-39
1.9606924 1.258518 -2.0559039 1.3553158e-38
1.9547055 1.2677846 -2.0544641 9.9593337e-39
1.953742 1.276912 -2.0508232 1.3922653e-38
1.9466168 1.2967154 -2.0451915 1.4658071e-38
1.9493806 1.306388 -2.0396278 9.6852789e-39
1.940303 1.3421113 -2.0277686 9.6813006e-39
1.9394277 1.3510555 -2.0241692 1.41049e-38
1.9416562 1.3605932 -2.0189071 1.0698327e-38
1.9403708 1.369854 -2.0153518 1.3276578e-38
1.9369185 1.3899292 -2.0079443 1.2262788e-38
1.9360398 1.3989449 -2.0043149 1.1065315e-38
1.9263843 1.4120007 -2.0028362 9.9589833e-39
1.9265087 1.4294868 -1.9949732 1.1528453e-38
1.9272743 1.4310983 -1.9939088 1.0235565e-38
1.9203454 1.4500343 -1.9885759 1.041958e-38
1.9233935 1.4658546 -1.9801396 1.1435924e-38
1.9247996 1.4709976 -1.9772102 1.0973832e-38
1.9186829 1.4810036 -1.9754983 1.1434828e-38
1.9178053 1.4900938 -1.9718355 1.1987625e-38
1.9169271 1.4991838 -1.9681724 1.0788378e-38
1.9160489 1.5082738 -1.9645096 1.3000706e-38
1.9116993 1.5288804 -1.9572694 1.364643e-38
1.9142607 1.5399433 -1.9511765 1.1617427e-38
1.913379 1.549108 -1.9474818 1.3277295e-38
1.9036963 1.5667346 -1.9439747 1.2724845e-38
1.9028252 1.5758657 -1.9402901 1.2724484e-38
1.8957683 1.5950698 -1.9348953 1.2814872e-38
2.0209 0.82740772 -2.2212543 9.6881404e-39
2.0219939 0.83551711 -2.2171409 1.0509612e-38
2.0147579 0.85554153 -2.2114611 9.036992e-39
2.0072136 0.86293525 -2.2115586 1.0330978e-38
2.0107718 0.87224817 -2.2057974 8.6696696e-39
2.0093565 0.88120669 -2.2024355 1.2357852e-38
2.0043836 0.89166713 -2.200006 8.0224912e-39
2.0007563 0.90089327 -2.1975207 1.2634426e-38
2.0048106 0.91635942 -2.1887894 1.2635515e-38
2.0033839 0.92539036 -2.1854 7.9313984e-39
2.0019569 0.93442124 -2.1820109 1.3187611e-38
1.9997349 0.94688696 -2.1774464 1.051394e-38
1.9983063 0.95591718 -2.1740582 1.0793412e-38
1.9943293 0.9654054 -2.1716139 1.042175e-38
1.9828613 1.0038774 -2.1596043 1.1344392e-38
1.9833002 1.0122203 -2.1556816 1.1437329e-38
1.984421 1.0210279 -2.1512444 1.0512135e-38
1.983472 1.029941 -2.1476929 1.2174167e-38
1.9825226 1.0388539 -2.144141 1.0602542e-38
1.9815733 1.0477668 -2.1405895 1.2173813e-38
1.9740728 1.0658569 -2.1358919 1.2727722e-38
1.9734004 1.0779295 -2.130805 1.1710689e-38
1.9646206 1.1049886 -2.1226797 1.0144431e-38
1.9557346 1.1405044 -2.1108265 9.774934e-39
1.9515316 1.1675552 -2.1006429 1.1987268e-38
1.9506683 1.176252 -2.0971489 9.3146719e-39
1.9498049 1.1849488 -2.0936551 1.2539724e-38
1.9602985 1.198692 -2.0827918 9.0409899e-39
1.9523102 1.2123531 -2.0802913 1.2081635e-38
1.9472642 1.2406068 -2.0699506 1.2172382e-38
1.946311 1.2496815 -2.0663283 1.0606142e-38
1.9469762 1.2590653 -2.0618393 1.3368415e-38
1.9430618 1.2686745 -2.0593123 9.9593393e-39
1.938422 1.2770541 -2.0576615 1.3830111e-38
1.9376935 1.2981638 -2.0485649 1.4750257e-38
1.9367321 1.3073097 -2.044915 9.0398885e-39
1.9357706 1.3164557 -2.0412648 1.4567661e-38
1.9368483 1.3261542 -2.0364492 8.9476887e-39
1.9353211 1.337774 -2.0319495 1.3093968e-38
1.9340773 1.3510834 -2.0265677 1.1987998e-38
1.9252725 1.3682482 -2.022871 1.3740802e-38
1.9237931 1.3775792 -2.0193715 1.1344799e-38
1.9257094 1.3903915 -2.0127883 1.2631929e-38
1.9262233 1.3997277 -2.0083883 1.2078746e-38
1.918695 1.4044251 -2.0096829 1.28174e-38
1.9178327 1.4134085 -2.0060601 1.014481e-38
1.9169705 1.4223922 -2.0024376 1.3095065e-38
1.9122031 1.4559529 -1.9896019 1.3831567e-38
1.9108768 1.4604585 -1.9881879 1.3370216e-38
1.9137844 1.4708593 -1.9822342 1.4016674e-38
1.9089465 1.4804628 -1.9801264 1.3923027e-38
1.9099433 1.4907477 -1.9750856 1.3739715e-38
1.9054989 1.4991401 -1.9733406 1.3462059e-38
1.9046365 1.5081952 -1.9696864 1.3278018e-38
1.9037738 1.5172502 -1.9660326 1.2724138e-38
1.8976374 1.5272363 -1.9643385 1.3922298e-38
1.8994954 1.5378935 -1.9587436 1.3553171e-38
1.8905867 1.584682 -1.9418677 1.2908508e-38
1.8870417 1.5965309 -1.9381746 1.3000699e-38
1.8885806 1.612076 -1.930541 1.2630843e-38
1.88772 1.6212492 -1.9268333 1.2262414e-38
1.8814617 1.631375 -1.925132 1.2262406e-38
1.8687267 1.7208811 -1.8909081 1.6044558e-38
1.8602514 1.7660102 -1.874578 1.4566579e-38
2.0060501 0.83092237 -2.2263753 9.8725316e-39
1.9913355 0.8497566 -2.2245955 9.6870516e-39
1.9979221 0.85857308 -2.2176921 9.8667471e-39
2.0038605 0.86459267 -2.2123289 1.0794124e-38
2.0024471 0.87355191 -2.208966 9.313244e-39
2.0010333 0.88251132 -2.2056029 1.1991588e-38
1.9996197 0.89147067 -2.2022398 9.4036362e-39
1.9957749 0.90106565 -2.199688 1.1717516e-38
1.9967922 0.90938902 -2.1955137 8.5771167e-39
1.9924513 0.92729896 -2.1894734 8.8511882e-39
1.9902413 0.93969804 -2.1849334 1.0607939e-38
1.9888204 0.9487018 -2.1815534 1.0881642e-38
1.9852822 0.95967913 -2.1782467 9.6874145e-39
1.9843411 0.96852046 -2.1747229 1.0882348e-38
1.9833996 0.97736222 -2.1711996 1.0424259e-38
1.9786097 0.99425405 -2.1658161 1.1253672e-38
1.9755889 1.0021771 -2.1636398 1.0512499e-38
1.974685 1.0136281 -2.1589348 1.0976716e-38
1.9728934 1.0227665 -2.1556618 1.0972388e-38
1.9719524 1.0316461 -2.1521211 1.1896866e-38
1.9738587 1.0402716 -2.1474113 1.078836e-38
1.9729137 1.0491841 -2.143858 1.1989426e-38
1.9727223 1.0571986 -2.1403661 1.115572e-38
1.9622525 1.0623659 -2.1427758 1.2448235e-38
1.9648448 1.0706227 -2.1379218 1.0977084e-38
1.9634111 1.0797001 -2.1345148 1.3001796e-38
1.9555444 1.1149938 -2.1223016 1.180181e-38
1.9546889 1.1236596 -2.118818 9.8667765e-39
1.9489158 1.1331843 -2.1171668 1.2077675e-38
1.9480641 1.14185 -2.1136813 9.6823768e-39
1.9472119 1.1505156 -2.1101964 1.2077678e-38
1.9397265 1.1773751 -2.101577 9.5909071e-39
1.9391056 1.1962187 -2.0934436 9.3143286e-39
1.9382539 1.2049522 -2.0899284 1.3092893e-38
1.9397831 1.2228676 -2.0812409 1.3462029e-38
1.9349954 1.2690566 -2.0627759 1.0976368e-38
1.9332483 1.2792108 -2.0590298 1.4014853e-38
1.9244491 1.2985464 -2.0543611 1.4383281e-38
1.9261667 1.3083389 -2.0492153 1.0605786e-38
1.9188223 1.3139474 -2.05002 1.4383285e-38
1.917973 1.3227483 -2.0464735 8.8551343e-39
1.9137602 1.3511308 -2.0356998 1.34617e-38
1.9215117 1.3608841 -2.027853 1.2079828e-38
1.9166013 1.3696069 -2.0261707 1.4845352e-38
1.9145052 1.3782183 -2.0232706 1.3370936e-38
1.9136459 1.3882711 -2.0191696 1.4479803e-38
1.9085782 1.4063181 -2.0133953 1.4108497e-38
1.9121791 1.4173672 -2.0068398 1.4385077e-38
1.9112749 1.4294981 -2.0018313 1.3832272e-38
1.9103211 1.4387436 -1.9981332 1.3832985e-38
1.9006666 1.4423687 -2.000864 1.3464926e-38
1.9007367 1.451118 -1.9969264 1.4292168e-38
1.9023005 1.4615507 -1.9915639 1.4199251e-38
1.9013432 1.4708143 -1.9878595 1.419961e-38
1.8972672 1.4806236 -1.9853163 1.4291445e-38
1.8999035 1.5015582 -1.9747823 1.4107058e-38
1.8989452 1.5108795 -1.9710521 1.4106694e-38
1.8884006 1.5325981 -1.9661064 1.4107414e-38
1.8848405 1.5499092 -1.9599812 1.4290365e-38
1.8801662 1.5608692 -1.9571936 1.3738629e-38
1.875603 1.5911804 -1.9457169 1.3644632e-38
1.879829 1.6135323 -1.933834 1.3276566e-38
1.878976 1.6227055 -1.9301226 1.2723389e-38
1.8648599 1.7368375 -1.8855264 1.4198144e-38
1.8590773 1.7392015 -1.8870759 1.3093247e-38
1.8557719 1.7699398 -1.8748417 7.9284949e-39
1.8476266 1.798907 -1.8655784 8.8529707e-39
1.9964263 0.84106869 -2.2261813 1.170564e-38
1.9959171 0.84876114 -2.2229762 9.8729002e-39
1.9945111 0.85769564 -2.2196207 1.0602893e-38
1.9955268 0.86589736 -2.2155013 1.0886678e-38
1.9941149 0.87485737 -2.2121372 9.7742235e-39
1.9927031 0.88381755 -2.2087729 1.143841e-38
1.9912908 0.89277774 -2.2054083 9.4047095e-39
1.989879 0.90173781 -2.2020445 1.1808994e-38
1.9884669 0.91069782 -2.1986802 8.9448202e-39
1.9911337 0.91870183 -2.1939051 1.2544404e-38
1.981196 0.94292474 -2.1875677 9.5008624e-39
1.9766788 0.96108425 -2.181495 9.5033778e-39
1.9757427 0.96992552 -2.1779695 1.1158935e-38
1.9748061 0.97876662 -2.1744442 1.014767e-38
1.9738691 0.98760796 -2.1709189 1.1342247e-38
1.967744 0.9959361 -2.1699605 1.1530621e-38
1.965259 1.0038038 -2.1675673 1.0328102e-38
1.9643663 1.0152539 -2.1628575 1.1161105e-38
1.9606103 1.0245913 -2.1603806 1.1156422e-38
1.9577377 1.0458312 -2.1521921 1.2263487e-38
1.9535393 1.0546877 -2.1501293 9.6827384e-39
1.9531786 1.0723298 -2.1424153 9.9593281e-39
1.9494691 1.0810716 -2.1401834 1.2079103e-38
1.9514765 1.0895896 -2.1354766 1.0050795e-38
1.9481635 1.1076715 -2.128896 9.6841733e-39
1.9473161 1.1163371 -2.1254091 1.2539361e-38
1.9464684 1.1250024 -2.1219223 9.9593239e-39
1.9406664 1.1345332 -2.1202807 1.2631564e-38
1.9331751 1.1631387 -2.1108844 1.0239506e-38
1.9331129 1.2142881 -2.0880764 1.171177e-38
1.9218867 1.2893845 -2.0596063 1.1619581e-38
1.9140303 1.2996125 -2.0585794 1.4386159e-38
1.9130899 1.3086854 -2.0549519 1.3647166e-38
1.9121498 1.3177587 -2.0513246 1.4661304e-38
1.9069765 1.3233969 -2.0511382 1.1712146e-38
1.9010098 1.3554742 -2.0395048 1.4108141e-38
1.9035614 1.3654102 -2.0339193 1.3923384e-38
1.9030253 1.3882674 -2.0239558 1.4293247e-38
1.9011862 1.39806 -2.0204122 1.4569851e-38
1.899717 1.4073644 -2.0169201 1.4571286e-38
1.8977149 1.4261531 -2.0094337 1.4476914e-38
1.8967676 1.4353423 -2.005758 1.4109573e-38
1.8911765 1.4620805 -1.9963393 1.4014869e-38
1.8852434 1.4708664 -1.9950897 1.4291452e-38
1.8868142 1.5008699 -1.9809861 1.4199612e-38
1.8849381 1.5097104 -1.9778848 1.3923386e-38
1.8863529 1.5202303 -1.9725506 1.4290728e-38
1.8803198 1.5301232 -1.9708518 1.3739354e-38
1.8794752 1.5391775 -1.9671894 1.3646804e-38
1.8769017 1.5597152 -1.9591802 1.4568045e-38
1.8737859 1.5670829 -1.9572942 1.4014498e-38
1.8706524 1.5713446 -1.9568031 1.3554242e-38
1.865216 1.6108223 -1.941627 1.3368048e-38
1.8573077 1.7084699 -1.9015936 1.2723384e-38
1.8536348 1.731004 -1.8931878 8.573535e-39
1.8549848 1.7424544 -1.8874673 8.1128791e-39
1.8541347 1.7517828 -1.8836858 8.2969215e-39
1.8419275 1.8036888 -1.8660111 9.0355683e-39
1.9784472 0.86984664 -2.2214327 1.0517541e-38
1.979319 0.87804615 -2.2173793 1.0419585e-38
1.9779198 0.88693535 -2.2140408 1.1622442e-38
1.9743273 0.89705288 -2.2111423 9.312144e-39
1.9753751 0.90502757 -2.2071097 1.2174883e-38
1.9777728 0.91260666 -2.2026458 9.7724159e-39
1.9754994 0.92206824 -2.1994457 1.2266007e-38
1.9749633 0.93047714 -2.1959331 9.6787769e-39
1.9720902 0.95131093 -2.1879261 1.2166628e-38
1.9706728 0.96031654 -2.1845436 1.0333874e-38
1.9652648 0.97165728 -2.1819172 1.189255e-38
1.9662035 0.98017359 -2.1776919 1.0239149e-38
1.9493656 1.0046258 -2.1743605 1.0421745e-38
1.9518181 1.0172458 -2.1676214 1.0420315e-38
1.9462349 1.0474484 -2.1566527 1.2632627e-38
1.9453946 1.0560095 -2.1532087 1.0327026e-38
1.9396607 1.0654219 -2.1515896 1.2908857e-38
1.9412955 1.0824038 -2.1432714 1.3093247e-38
1.9314054 1.1005207 -2.1396387 1.3092899e-38
1.9330195 1.1176527 -2.1312625 1.3276563e-38
1.9321864 1.1262496 -2.1277997 1.0327745e-38
1.9322008 1.154514 -2.1151743 1.3923007e-38
1.92355 1.1734598 -2.1106129 1.3831539e-38
1.9223839 1.1887499 -2.1043117 1.2817744e-38
1.9229127 1.1956209 -2.1010058 1.272954e-38
1.9211739 1.2062105 -2.0970614 1.3556038e-38
1.9173868 1.2247778 -2.0904779 1.2910308e-38
1.9165567 1.2334801 -2.0869668 1.0699428e-38
1.9107347 1.2717865 -2.0724871 1.4294689e-38
1.9098051 1.2808075 -2.0688784 1.4478713e-38
1.886614 1.4030674 -2.0247419 1.4015234e-38
1.8951832 1.416605 -2.0148375 1.4384367e-38
1.8853581 1.426145 -2.0150042 1.4383646e-38
1.886628 1.4505416 -2.00354 1.4662398e-38
1.8747482 1.4715798 -1.9994992 1.4384004e-38
1.8743159 1.4878238 -1.9924418 1.4383289e-38
1.8763198 1.5111603 -1.9811199 1.3923393e-38
1.8758968 1.5208987 -1.976963 1.4382925e-38
1.8717669 1.5307314 -1.9744335 1.4383642e-38
1.876985 1.5412378 -1.967392 1.4385094e-38
1.8675283 1.5431902 -1.9707807 1.4291086e-38
1.8666974 1.5522138 -1.9671261 1.3922316e-38
1.8579997 1.5892544 -1.9545075 1.3920146e-38
1.8565048 1.6122746 -1.9449034 1.3368767e-38
1.8581175 1.6328956 -1.9349701 1.2999615e-38
1.8572873 1.6420354 -1.9312637 1.2536484e-38
1.8436663 1.7416768 -1.8929141 9.3103503e-39
1.9674108 0.88887024 -2.2179115 1.1070353e-38
1.9722699 0.89604026 -2.2125213 1.0051511e-38
1.9708672 0.90497661 -2.2091634 1.2175618e-38
1.9659122 0.91517502 -2.2068427 9.4947388e-39
1.9680612 0.922849 -2.2024481 1.2268535e-38
1.9660374 0.9322356 -2.1991692 9.2192323e-39
1.9618193 0.94640005 -2.1947455 9.2249958e-39
1.9478621 0.99262822 -2.1803944 1.2725183e-38
1.9380679 1.0487747 -2.1597397 1.3093968e-38
1.9372357 1.0573353 -2.1562927 1.0052248e-38
1.9362628 1.0655787 -2.1530504 1.3185438e-38
1.9338062 1.0744913 -2.1501782 1.1437684e-38
1.9328872 1.0833118 -2.1466544 1.2541518e-38
1.9181864 1.1370583 -2.1292815 1.2449696e-38
1.9173642 1.1456543 -2.125814 1.1528819e-38
1.9219445 1.1558373 -2.119204 1.3555676e-38
1.9210219 1.1647277 -2.1156504 1.3279094e-38
1.9142472 1.1838067 -2.1101847 1.4108501e-38
1.9089614 1.2071921 -2.1021252 1.4845336e-38
1.9170884 1.2164223 -2.0943429 1.3831912e-38
1.9125372 1.2338816 -2.0885983 1.5307768e-38
1.8990474 1.2438713 -2.0902159 1.3925549e-38
1.8986589 1.2909286 -2.0693815 1.4663103e-38
1.8969474 1.3029394 -2.0647902 1.4202849e-38
1.884735 1.368361 -2.0410833 1.4569117e-38
1.8857818 1.3781246 -2.0362527 1.4660235e-38
1.8817711 1.3877405 -2.033767 1.4477643e-38
1.8727736 1.4525611 -2.0088804 1.4291453e-38
1.8644333 1.5014535 -1.990809 1.420033e-38
1.8654056 1.5117428 -1.9857771 1.4107421e-38
1.8597126 1.5355967 -1.9776922 1.3830481e-38
1.8580657 1.5536441 -1.9703765 1.3553887e-38
1.8485415 1.599715 -1.9540983 1.327622e-38
1.846954 1.622828 -1.9444942 1.3276214e-38
1.8485559 1.6435146 -1.9345369 1.281451e-38
1.8422045 1.653639 -1.9328781 1.2354614e-38
1.9615376 0.88225037 -2.2235131 1.0602518e-38
1.9603605 0.90686524 -2.2130542 1.1715724e-38
1.9611481 0.91522062 -2.2089689 1.0418499e-38
1.9597467 0.92415774 -2.2056098 1.2545838e-38
1.9583454 0.9330948 -2.202251 1.0324868e-38
1.9438138 0.97523999 -2.1899819 1.2539347e-38
1.9405105 0.99301594 -2.1835332 1.2172001e-38
1.9395984 1.0017703 -2.1800361 1.0885959e-38
1.9367728 1.0195616 -2.1733658 1.2451473e-38
1.927264 1.0503196 -2.1639173 1.3186887e-38
1.902485 1.2270657 -2.0961699 1.4386157e-38
1.8976384 1.2455111 -2.0901186 1.4570197e-38
1.9011934 1.2534734 -2.0849621 1.4847518e-38
1.872911 1.3891938 -2.0371099 1.4199978e-38
1.8719914 1.3982705 -2.0334713 1.4475846e-38
1.8624843 1.4726284 -2.0045562 1.4290014e-38
1.8603588 1.4869616 -1.999115 1.3830124e-38
1.8530213 1.5083351 -1.9928781 1.4198894e-38
1.8531166 1.5360708 -1.9804519 1.3831197e-38
1.8502342 1.5460546 -1.9772931 1.3738275e-38
1.8399265 1.5826268 -1.9656087 1.3921588e-38
1.8418301 1.6038949 -1.9552557 1.364536e-38
1.8360267 1.6225957 -1.9495213 1.346096e-38
1.9461063 0.91864491 -2.2142162 1.0234814e-38
1.9174628 1.0572054 -2.1652586 1.3556401e-38
1.9065557 1.1405642 -2.1329563 1.4478734e-38
1.9010559 1.14955 -2.131422 1.420105e-38
1.90057 1.1584077 -2.1276863 1.4294323e-38
1.8976907 1.1908057 -2.1145191 1.4662381e-38
1.8888155 1.2186817 -2.1060715 1.4385804e-38
1.8831694 1.2685176 -2.0863652 1.4016307e-38
1.8777564 1.2837932 -2.081984 1.4384367e-38
1.8549366 1.461792 -2.012795 1.4017036e-38
1.8534799 1.4710732 -2.0093074 1.401668e-38
1.8503095 1.4781762 -2.0075645 1.3830124e-38
1.8529836 1.4902341 -2.0009766 1.3739715e-38
1.8520603 1.4994266 -1.9972881 1.4199255e-38
1.8447561 1.5072247 -1.9970975 1.4014868e-38
1.8463054 1.5176059 -1.9917645 1.364645e-38
1.8440332 1.5251683 -1.9894121 1.3923742e-38
1.8444431 1.5476859 -1.9791739 1.392267e-38
1.8305557 1.5829107 -1.9697043 1.3368783e-38
1.8314912 1.6146688 -1.9551035 1.3830487e-38
1.831688 1.6172258 -1.9538732 1.3737191e-38
1.8265361 1.6386328 -1.9466368 1.3001478e-38
1.8244536 1.6477133 -1.9435209 1.3278411e-38
1.8167467 1.781262 -1.8873688 1.0322688e-38
1.799306 1.8104243 -1.882206 9.775311e-39
1.9377398 0.88704139 -2.2320952 1.1066385e-38
1.9370695 0.92823523 -2.2140059 1.3834063e-38
1.9078817 1.0781791 -2.1602116 1.457092e-38
1.9064803 1.0871164 -2.1568522 1.4755313e-38
1.9018489 1.1139593 -2.1469548 1.4293243e-38
1.8910385 1.1686574 -2.127404 1.4293966e-38
1.886677 1.1830258 -2.1229541 1.4294323e-38
1.8758253 1.2657663 -2.0909023 1.4201054e-38
1.8740337 1.2785819 -2.085988 1.3555693e-38
1.8675815 1.2964393 -2.0809219 1.4109216e-38
1.8523383 1.4003906 -2.041379 1.4015583e-38
1.8463615 1.4503244 -2.0217781 1.4199262e-38
1.843595 1.4817729 -2.0089839 1.3923393e-38
1.8440026 1.4917009 -2.0043676 1.3740076e-38
1.8430834 1.5008935 -2.0006776 1.4291092e-38
1.8410016 1.5107538 -1.9972132 1.3924487e-38
1.8353472 1.5175995 -1.9967045 1.3736849e-38
1.8350252 1.5266358 -1.9928148 1.4014865e-38
1.8398483 1.5363787 -1.986292 1.3830833e-38
1.8320141 1.5444363 -1.9862243 1.3924846e-38
1.8339746 1.5560755 -1.9801446 1.4109229e-38
1.8311826 1.5618521 -1.9788231 1.3645006e-38
1.8212283 1.6255032 -1.9548901 1.3831566e-38
1.8229692 1.6335911 -1.9504948 1.3460607e-38
1.8246617 1.6545391 -1.94038 1.327586e-38
1.8238614 1.6637256 -1.9366388 1.3367334e-38
1.8173923 1.6739178 -1.9350027 1.3184374e-38
1.8114669 1.7392013 -1.9085257 1.1339007e-38
1.9414133 0.84440249 -2.2494771 8.8572881e-39
1.9275634 0.88893318 -2.2358358 1.1990865e-38
1.9266722 0.89751875 -2.232404 1.3002853e-38
1.9307854 0.91313946 -2.2235768 1.346419e-38
1.922339 0.93155742 -2.2191591 1.3832614e-38
1.9200258 0.9403699 -2.2162669 1.3741143e-38
1.9186393 0.95125598 -2.2120311 1.4016293e-38
1.9202189 0.96013319 -2.2073565 1.3833715e-38
1.9222413 0.97879159 -2.1981149 1.3832974e-38
1.9197344 0.98598844 -2.1960311 1.4017745e-38
1.9095551 0.99429876 -2.1969068 1.3188332e-38
1.9087598 1.0027274 -2.1935024 1.346384e-38
1.9078794 1.0197256 -2.1863101 1.3832617e-38
1.905988 1.0608302 -2.1688101 1.4202859e-38
1.9027444 1.0703899 -2.1660035 1.4201052e-38
1.895079 1.0802875 -2.1650379 1.4107417e-38
1.8941811 1.0890543 -2.1615283 1.4108137e-38
1.893283 1.0978215 -2.1580186 1.4108497e-38
1.8885424 1.1158677 -2.1520975 1.4109569e-38
1.859251 1.3071923 -2.0798745 1.4198902e-38
1.8543401 1.3256633 -2.0738401 1.392375e-38
1.8434584 1.4327689 -2.0309241 1.4014867e-38
1.8428864 1.4432561 -2.0264993 1.3648266e-38
1.8402566 1.4523981 -2.0236027 1.4106701e-38
1.8354803 1.4621383 -2.0214057 1.4015231e-38
1.8333 1.4923714 -2.0088902 1.4108515e-38
1.8328044 1.5015953 -2.0049953 1.4014868e-38
1.8331835 1.5115552 -2.0003779 1.4014152e-38
1.826728 1.5190278 -1.9999502 1.4105986e-38
1.8282592 1.5389057 -1.9903849 1.364645e-38
1.8246889 1.5468272 -1.9884571 1.4106703e-38
1.8183761 1.5630586 -1.9840542 1.4292184e-38
1.8166987 1.6033052 -1.9668415 1.4014868e-38
1.8121001 1.6333598 -1.9554948 1.3645002e-38
1.8166355 1.6468415 -1.9474325 1.3553161e-38
1.8158422 1.6560286 -1.943688 1.3552442e-38
1.8085519 1.675415 -1.9383171 1.3183661e-38
1.8077615 1.6846026 -1.9345715 1.3275492e-38
1.8033613 1.7314259 -1.9156488 1.2075493e-38
1.8025672 1.7406919 -1.9118699 1.1798905e-38
1.795993 1.7509768 -1.9102396 1.1429761e-38
1.7936193 1.7787758 -1.8988979 9.9546197e-39
1.93302 0.84577566 -2.2526457 1.1805755e-38
1.9296384 0.85521245 -2.2499559 1.3004284e-38
1.9212919 0.8734287 -2.2455833 1.2728061e-38
1.9152924 0.89146549 -2.2402332 1.3188328e-38
1.9182669 0.89889508 -2.2355764 1.3556744e-38
1.91738 0.90748012 -2.2321429 1.3005012e-38
1.9238397 0.92199528 -2.2227521 1.3650396e-38
1.9106042 0.97024542 -2.2071729 1.3832996e-38
1.9098526 0.98089212 -2.2027583 1.3739705e-38
1.9027711 0.99064374 -2.2015951 1.3832617e-38
1.9018875 0.99929696 -2.1981297 1.3556391e-38
1.9050826 1.005547 -2.1938996 1.3741873e-38
1.9033478 1.0134665 -2.1911457 1.3740785e-38
1.9067698 1.024356 -2.1847422 1.4016653e-38
1.901137 1.0338061 -2.1830611 1.3740429e-38
1.896431 1.0431423 -2.1810129 1.3741144e-38
1.899838 1.0499737 -2.1764281 1.3741525e-38
1.894213 1.0552132 -2.1766226 1.318798e-38
1.896649 1.0625952 -2.1722295 1.3740791e-38
1.8928226 1.0718592 -2.1698172 1.3647879e-38
1.8846982 1.099218 -2.1612628 1.3832272e-38
1.8808372 1.1085013 -2.1588578 1.3647874e-38
1.879946 1.1172673 -2.1553457 1.3648597e-38
1.8790545 1.1260329 -2.1518335 1.40163e-38
1.8828285 1.1344208 -2.1463885 1.4110668e-38
1.8790311 1.1436363 -2.1439853 1.3924106e-38
1.8673234 1.2195981 -2.1153452 1.4017757e-38
1.864615 1.2259829 -2.1137149 1.3371294e-38
1.8455478 1.3270936 -2.077163 1.4107065e-38
1.8424685 1.3445786 -2.0707438 1.3554976e-38
1.8414471 1.3762674 -2.057056 1.3739723e-38
1.8403099 1.3942044 -2.0495601 1.3557864e-38
1.8340813 1.4055276 -2.0473108 1.4016306e-38
1.8331784 1.4145789 -2.0436761 1.4199261e-38
1.8291563 1.443199 -2.0327106 1.4382218e-38
1.8284974 1.4620141 -2.0246072 1.4199259e-38
1.8233712 1.4834157 -2.0173616 1.4107785e-38
1.8247395 1.4938953 -2.0120664 1.4291455e-38
1.8238336 1.5030701 -2.0083785 1.4107066e-38
1.8120599 1.5554343 -1.990304 1.4107065e-38
1.8123965 1.5655445 -1.9856385 1.4475126e-38
1.8114903 1.574787 -1.9819205 1.4106343e-38
1.8132274 1.5833832 -1.9772996 1.4107064e-38
1.8097802 1.6247226 -1.9603961 1.3645362e-38
1.8062205 1.6667106 -1.9432538 1.3275855e-38
1.7988143 1.6807456 -1.9403243 1.3552078e-38
1.7980311 1.6899337 -1.9365754 1.3274774e-38
1.7831506 1.7585264 -1.9126549 1.1337923e-38
1.9221549 0.84802514 -2.2565362 1.2818469e-38
1.9205445 0.85579693 -2.253792 1.337237e-38
1.9143792 0.86409038 -2.252867 1.2912457e-38
1.9098537 0.90027374 -2.2387514 1.309613e-38
1.9089712 0.90885794 -2.235316 1.3188686e-38
1.908089 0.91744238 -2.2318809 1.3555669e-38
1.9117479 0.92426616 -2.227186 1.355676e-38
1.9043436 0.95375884 -2.2173548 1.3464554e-38
1.9046824 0.96212763 -2.2134657 1.3371645e-38
1.8938198 0.98363155 -2.2087586 1.3187972e-38
1.8929443 0.99226844 -2.205297 1.3095776e-38
1.8962302 0.99833381 -2.2011087 1.346529e-38
1.894857 1.0071363 -2.1977975 1.3189428e-38
1.8950474 1.0133392 -2.1949422 1.3004662e-38
1.8851247 1.0344485 -2.1899881 1.3556411e-38
1.8858887 1.0517651 -2.1819127 1.3465294e-38
1.8838235 1.0645913 -2.1771164 1.3555323e-38
1.8829398 1.0733262 -2.173615 1.3648232e-38
1.8833712 1.0820045 -2.1695459 1.3738994e-38
1.8747994 1.100641 -2.165087 1.337201e-38
1.8767461 1.1089236 -2.1605122 1.3557135e-38
1.8676454 1.1186391 -2.160275 1.3555326e-38
1.8684012 1.1624222 -2.1403868 1.3833728e-38
1.859179 1.1746004 -2.1391046 1.3463848e-38
1.8558406 1.2017355 -2.1284933 1.3556042e-38
1.8589572 1.220914 -2.1185269 1.4107798e-38
1.8481637 1.2672051 -2.1027222 1.3924847e-38
1.8437836 1.2997276 -2.0901756 1.3647885e-38
1.8433419 1.3180019 -2.0822158 1.374044e-38
1.8354814 1.3281163 -2.0812414 1.3923754e-38
1.8334516 1.3677075 -2.0644798 1.3555336e-38
1.8326067 1.3776978 -2.0604002 1.401595e-38
1.8278726 1.3957784 -2.0544608 1.3556058e-38
1.8243754 1.4350159 -2.038518 1.4475845e-38
1.8202571 1.4446502 -2.0360718 1.4382936e-38
1.8202353 1.4637381 -2.0275602 1.4291815e-38
1.8157551 1.4953725 -2.0154545 1.4475848e-38
1.7964972 1.6720203 -1.9452637 1.3552439e-38
1.7884469 1.6820123 -1.9444296 1.3645365e-38
1.9106117 0.85051441 -2.2606254 1.2911382e-38
1.906916 0.85953385 -2.2582636 1.3187607e-38
1.9110723 0.86576009 -2.2536116 1.3096861e-38
1.9097184 0.8744514 -2.2503409 1.328089e-38
1.90605 0.88455677 -2.2474818 1.3003215e-38
1.9065551 0.89267594 -2.2436292 1.3187965e-38
1.9000603 0.90205824 -2.2423668 1.2726629e-38
1.8968161 0.91128331 -2.2397096 1.2911022e-38
1.8968096 0.91932571 -2.2361219 1.2725914e-38
1.8976623 0.92747182 -2.2321007 1.2910664e-38
1.8967865 0.93607444 -2.2286546 1.2819907e-38
1.8959107 0.94467688 -2.2252083 1.3003578e-38
1.88701 0.96513325 -2.2200856 1.2818474e-38
1.8887796 0.98237884 -2.2115884 1.3096869e-38
1.8874131 0.99115872 -2.2082841 1.309616e-38
1.8866446 1.0084261 -2.2009208 1.3371659e-38
1.8850311 1.0164068 -2.1980853 1.2911387e-38
1.8743906 1.0747205 -2.1768441 1.3372004e-38
1.8735112 1.0834551 -2.1733408 1.3371287e-38
1.8709272 1.0926739 -2.1703887 1.3187617e-38
1.8638998 1.1019803 -2.1693997 1.2727716e-38
1.8582127 1.1287539 -2.1600087 1.3187263e-38
1.8522631 1.1767892 -2.1412427 1.3925197e-38
1.8477809 1.2402056 -2.114949 1.3648612e-38
1.8427541 1.2482488 -2.1136227 1.3463132e-38
1.8353592 1.2673622 -2.1084208 1.4014509e-38
1.8314315 1.3184609 -2.0873766 1.4200696e-38
1.8228654 1.3881484 -2.060123 1.4660233e-38
1.8088096 1.4998009 -2.0166068 1.3831208e-38
1.8016678 1.5187128 -2.0113809 1.4199622e-38
1.7944963 1.5704635 -1.9915067 1.3923038e-38
1.7872504 1.6533884 -1.9577479 1.4013778e-38
1.7842028 1.6638838 -1.9544353 1.4013776e-38
1.7857203 1.6717087 -1.950258 1.3644275e-38
1.7768071 1.6812412 -1.9500179 1.3736827e-38
1.7759081 1.6905887 -1.9462497 1.3828299e-38
1.7733699 1.7086205 -1.9393425 1.3551695e-38
1.9008838 0.85237879 -2.2641759 1.2635152e-38
1.8963133 0.86988807 -2.2584176 1.2818826e-38
1.8976851 0.88592726 -2.250639 1.2911016e-38
1.8884455 0.91265553 -2.2428682 1.2634432e-38
1.894703 0.91861981 -2.237386 1.2634799e-38
1.8933402 0.927378 -2.2340899 1.2727002e-38
1.8919777 0.93613636 -2.2307935 1.2911757e-38
1.8874749 0.94606131 -2.2283909 1.2818469e-38
1.8847977 0.95707583 -2.2246795 1.2818467e-38
1.8805838 0.9836629 -2.2147079 1.2634817e-38
1.8792192 0.99244404 -2.2114022 1.2819918e-38
1.8751529 1.0036892 -2.2082136 1.2910304e-38
1.8764894 1.0100057 -2.2047913 1.291068e-38
1.8733774 1.0182219 -2.2025249 1.2910303e-38
1.8737597 1.0275675 -2.1981802 1.309579e-38
1.872395 1.0363487 -2.1948748 1.3279815e-38
1.8597611 1.059265 -2.1903353 1.2818832e-38
1.8634381 1.0762465 -2.181097 1.2911743e-38
1.8602146 1.0855886 -2.1783781 1.2357859e-38
1.8667072 1.0928336 -2.1722188 1.3189067e-38
1.8601991 1.1028452 -2.170681 1.2911749e-38
1.8492727 1.1214238 -2.1673088 1.3186544e-38
1.8449241 1.1855401 -2.1406424 1.3462772e-38
1.841779 1.2142849 -2.1292257 1.383265e-38
1.8389906 1.2322137 -2.1224773 1.4017753e-38
1.8337643 1.24059 -2.1210923 1.3740078e-38
1.8222395 1.3197409 -2.0909464 1.4384372e-38
1.8164159 1.4090339 -2.053704 1.4662052e-38
1.8099793 1.4494746 -2.0385487 1.4569505e-38
1.8064352 1.4689175 -2.0314648 1.4292894e-38
1.807683 1.4890037 -2.021935 1.456804e-38
1.7973844 1.5088977 -2.0176923 1.4383297e-38
1.7951326 1.5357051 -2.0067387 1.4107431e-38
1.7891761 1.5793605 -1.9899315 1.4752426e-38
1.7848152 1.6021107 -1.9817388 1.4750988e-38
1.7802305 1.6117876 -1.9794841 1.4660603e-38
1.7839112 1.634975 -1.9674735 1.4475119e-38
1.778653 1.6543158 -1.9612073 1.4290721e-38
1.7738311 1.6643122 -1.9589165 1.4013418e-38
1.7655131 1.6706086 -1.9598532 1.4013053e-38
1.7652385 1.6786125 -1.9564037 1.3736106e-38
1.7632539 1.6816885 -1.9559243 1.3555321e-38
1.8925457 0.85374439 -2.2673225 1.2266371e-38
1.8888245 0.86275321 -2.2649767 1.2449329e-38
1.8928307 0.86898583 -2.2603891 1.2359298e-38
1.8870784 0.87711239 -2.2593529 1.2542238e-38
1.8879777 0.88772541 -2.2542093 1.2633712e-38
1.8871169 0.89624828 -2.2507918 1.2358208e-38
1.8874493 0.90366536 -2.2473309 1.2451132e-38
1.8793316 0.9308632 -2.2388451 1.2450045e-38
1.8784692 0.93941432 -2.2354157 1.2725556e-38
1.8772535 0.94985402 -2.2313025 1.2449332e-38
1.8750832 0.95872504 -2.2283196 1.2541167e-38
1.875124 0.96763825 -2.2243218 1.2634452e-38
1.8687458 0.97670561 -2.2231474 1.263372e-38
1.8660126 1.0030835 -2.2126019 1.2818484e-38
1.8682908 1.0112945 -2.2079091 1.3186188e-38
1.8649164 1.0195979 -2.2057228 1.2818469e-38
1.8611106 1.0315206 -2.2021139 1.2818111e-38
1.8628379 1.0464224 -2.1946828 1.3003237e-38
1.8531694 1.0950457 -2.1773303 1.3003226e-38
1.8487502 1.15641 -2.1519241 1.3740446e-38
1.8354529 1.1957042 -2.1403713 1.3556044e-38
1.8154083 1.3125921 -2.0972157 1.4478004e-38
1.814864 1.3308269 -2.0893197 1.4570196e-38
1.8107128 1.3920099 -2.063874 1.4478738e-38
1.8092848 1.4011972 -2.0604157 1.4387263e-38
1.8013408 1.450844 -2.0418289 1.4754612e-38
1.7970216 1.4786341 -2.0313675 1.4847166e-38
1.7951677 1.5004103 -2.0224805 1.4476219e-38
1.7763523 1.5823599 -1.9943695 1.4014867e-38
1.8796067 0.87262708 -2.2647214 1.1990143e-38
1.8820333 0.88759816 -2.2569439 1.290959e-38
1.8787258 0.89493656 -2.2551582 1.2082336e-38
1.8779074 0.90613997 -2.2505248 1.2357486e-38
1.878002 0.9136104 -2.2471468 1.2541888e-38
1.8680267 0.93275177 -2.2430952 1.2174174e-38
1.8671713 0.94130188 -2.2396631 1.2448963e-38
1.8696914 0.95148557 -2.2339814 1.2726284e-38
1.8683407 0.9601984 -2.2306998 1.2725928e-38
1.8642886 0.98633683 -2.2208555 1.2726645e-38
1.8573616 1.0301514 -2.2044146 1.2819209e-38
1.8559998 1.0389341 -2.2011065 1.2818837e-38
1.8487223 1.0695325 -2.1907244 1.2819548e-38
1.840728 1.1056765 -2.178189 1.3278379e-38
1.8316201 1.1886979 -2.1452265 1.3834807e-38
1.8197184 1.2842467 -2.107929 1.5122671e-38
1.8000448 1.4035876 -2.0635111 1.5029742e-38
1.7992897 1.411737 -2.0602129 1.5122317e-38
1.7888482 1.4648786 -2.0411913 1.447801e-38
1.7876191 1.4833053 -2.0335181 1.4756046e-38
1.7879872 1.4934253 -2.0288341 1.4477287e-38
1.7595928 1.6224159 -1.9840369 1.447621e-38
1.8766036 0.87152928 -2.2665646 1.1990154e-38
1.8752615 0.88020098 -2.2632978 1.2357852e-38
1.871254 0.89046651 -2.2605197 1.2357123e-38
1.871883 0.90060455 -2.2557099 1.2450055e-38
1.865775 0.91654664 -2.2513444 1.2448963e-38
1.8649249 0.9250679 -2.2479227 1.2448963e-38
1.8615465 0.95275766 -2.2370825 1.2358945e-38
1.8601975 0.96147156 -2.2337999 1.2542972e-38
1.8588487 0.9701854 -2.2305174 1.263481e-38
1.8574992 0.97889906 -2.2272346 1.2911034e-38
1.8534522 1.0050406 -2.217387 1.2544413e-38
1.8521028 1.0137542 -2.2141042 1.3095786e-38
1.8446885 1.0213275 -2.2140634 1.2726275e-38
1.8458862 1.0311459 -2.2091403 1.30947e-38
1.846257 1.0396296 -2.2051857 1.2911023e-38
1.8454006 1.0482661 -2.2017157 1.2726642e-38
1.8357511 1.0891819 -2.1877954 1.3556402e-38
1.8330262 1.0983765 -2.1849182 1.3740435e-38
1.8321698 1.1070777 -2.1814191 1.3648597e-38
1.8313135 1.1157794 -2.1779201 1.364896e-38
1.8140914 1.267493 -2.1179442 1.484752e-38
1.7902521 1.4141396 -2.0632117 1.4845713e-38
1.7831619 1.4460344 -2.0521665 1.4568768e-38
1.7824326 1.4549016 -2.0485363 1.4570197e-38
1.7789741 1.4846672 -2.0368049 1.5031192e-38
1.7707485 1.5221823 -2.0237617 1.447621e-38
1.7650305 1.555794 -2.0113311 1.4659513e-38
1.7643037 1.5647776 -2.0076478 1.4475483e-38
1.7635775 1.5737612 -2.0039642 1.438293e-38
1.7628514 1.5827448 -2.0002806 1.4567684e-38
1.7623056 1.5967116 -1.9942906 1.4567672e-38
1.7597975 1.6041431 -1.9921027 1.4291822e-38
1.7624032 1.6168271 -1.9852654 1.4659144e-38
1.7532429 1.6367112 -1.9805151 1.4382555e-38
1.7523656 1.6460265 -1.9767512 1.4291077e-38
1.867561 0.85860491 -2.2764084 1.2264926e-38
1.8667188 0.86706179 -2.2730124 1.2173451e-38
1.861236 0.90806079 -2.2571781 1.2910311e-38
1.8599004 0.91671032 -2.2539179 1.2358577e-38
1.8558545 0.94325364 -2.24389 1.2449323e-38
1.8520472 0.96274638 -2.2369027 1.254369e-38
1.8506995 0.97146118 -2.2336187 1.2818839e-38
1.8493522 0.98017603 -2.230335 1.2728081e-38
1.8480047 0.98889101 -2.2270513 1.28192e-38
1.8466573 0.99760562 -2.2237675 1.2911397e-38
1.8444035 1.0059 -2.2210796 1.2910308e-38
1.8356054 1.0333767 -2.2127759 1.3740805e-38
1.8395747 1.041526 -2.2073495 1.3741519e-38
1.8334703 1.0550344 -2.2040684 1.373971e-38
1.838547 1.0794935 -2.1908615 1.4110308e-38
1.8275903 1.0909804 -2.1906691 1.3646807e-38
1.8334863 1.0980537 -2.184855 1.4570218e-38
1.8313903 1.1100783 -2.1804307 1.4295422e-38
1.8140334 1.1555723 -2.1679389 1.4292171e-38
1.7986531 1.3140225 -2.104126 1.4663494e-38
1.7797759 1.4277015 -2.0618765 1.4846075e-38
1.7738574 1.4563292 -2.0517619 1.4753162e-38
1.7781163 1.466607 -2.0452545 1.4845712e-38
1.7699689 1.4963946 -2.0356259 1.4384732e-38
1.7716558 1.5157033 -2.0262454 1.4293614e-38
1.7628632 1.5472462 -2.0161238 1.4291465e-38
1.7563305 1.5572519 -2.0145998 1.4015228e-38
1.7548919 1.5752213 -2.0072255 1.4199256e-38
1.7476288 1.5942175 -2.0020163 1.4015574e-38
1.7510788 1.6055212 -1.9954156 1.4109585e-38
1.7532706 1.6183529 -1.988699 1.4383276e-38
1.7523959 1.6276689 -1.9849337 1.4382196e-38
1.744099 1.6382416 -1.9839512 1.4472952e-38
1.7366871 1.6415063 -1.9858332 1.4658046e-38
1.8584062 0.86842519 -2.2761486 1.2081257e-38
1.8587667 0.87647122 -2.2723939 1.2173094e-38
1.857928 0.88494366 -2.2689893 1.2173451e-38
1.8614608 0.89112103 -2.2646396 1.2358217e-38
1.8601271 0.89977181 -2.261378 1.2449696e-38
1.8477751 0.91966027 -2.2580638 1.2542239e-38
1.8469375 0.92816567 -2.2546437 1.2450044e-38
1.8460997 0.93667144 -2.2512238 1.2265657e-38
1.8516134 0.95136267 -2.2421806 1.2175634e-38
1.8425431 0.97273868 -2.2367232 1.3004675e-38
1.8411971 0.98145443 -2.2334383 1.3005039e-38
1.8398511 0.9901703 -2.2301531 1.3097589e-38
1.8359734 1.0072734 -2.2242644 1.300323e-38
1.8320971 1.0163902 -2.2219405 1.3372729e-38
1.8298677 1.0320766 -2.2159414 1.3187264e-38
1.8249742 1.0564241 -2.2072761 1.438544e-38
1.8176744 1.1259861 -2.1795075 1.4479819e-38
1.8133066 1.130571 -2.1794286 1.4293611e-38
1.8195374 1.1560944 -2.1652262 1.4754971e-38
1.8181568 1.1650416 -2.1618533 1.4663493e-38
1.806795 1.2017723 -2.1505735 1.4848594e-38
1.8040329 1.2196667 -2.1438284 1.4571653e-38
1.8026521 1.2286143 -2.140456 1.4754253e-38
1.8008317 1.2500026 -2.131727 1.4570938e-38
1.7901293 1.2769064 -2.124537 1.4661682e-38
1.7768499 1.3966987 -2.0770364 1.4936119e-38
1.7758678 1.4031974 -2.0745778 1.4846809e-38
1.7712365 1.4291303 -2.0650861 1.4661329e-38
1.7705257 1.4379702 -2.0614595 1.4568413e-38
1.7652655 1.4577614 -2.0549934 1.4752441e-38
1.7595984 1.4961077 -2.0404265 1.4199626e-38
1.7557641 1.5168569 -2.0328898 1.4660235e-38
1.754897 1.5260417 -2.02918 1.4752064e-38
1.7540295 1.5352263 -2.0254703 1.4567316e-38
1.7544665 1.5478084 -2.0196557 1.4476198e-38
1.7476134 1.5587143 -2.0178742 1.4107062e-38
1.746901 1.5676999 -2.0141833 1.4291086e-38
1.7461888 1.5766854 -2.0104923 1.4106342e-38
1.7441273 1.6198812 -1.992136 1.4566227e-38
1.7432568 1.629198 -1.9883684 1.4382553e-38
1.8533677 0.8923918 -2.2677186 1.2450411e-38
1.8450333 0.91060948 -2.2633398 1.2544408e-38
1.8385669 0.92954147 -2.2578006 1.2727355e-38
1.8377333 0.93804687 -2.2543788 1.2543322e-38
1.8427627 0.95566469 -2.2442472 1.2821e-38
1.8414186 0.96438164 -2.2409611 1.2821008e-38
1.8365542 0.98204327 -2.2352672 1.3556775e-38
1.8306912 0.99966574 -2.230041 1.3648951e-38
1.8298498 1.0082871 -2.2265708 1.3464926e-38
1.8277444 1.0171742 -2.2235515 1.4017375e-38
1.8280686 1.0256592 -2.2196174 1.4017018e-38
1.8272259 1.0343175 -2.2161312 1.4109572e-38
1.8241296 1.0414473 -2.2143431 1.3924822e-38
1.8236563 1.0820127 -2.196445 1.4571646e-38
1.8226469 1.0997357 -2.1889873 1.4754967e-38
1.8111819 1.1574051 -2.1684053 1.5031552e-38
1.8098027 1.1663538 -2.1650314 1.5124468e-38
1.8084236 1.1753026 -2.1616573 1.4847882e-38
1.8070446 1.1842513 -2.1582835 1.4756046e-38
1.8056655 1.1932 -2.1549091 1.5032986e-38
1.7984318 1.2030917 -2.1537521 1.4663135e-38
1.7970521 1.2120404 -2.1503785 1.4847884e-38
1.7910696 1.2602856 -2.1315339 1.4756039e-38
1.76919 1.3976259 -2.0800738 1.4752797e-38
1.7633837 1.4217219 -2.0719316 1.4293263e-38
1.7619762 1.439404 -2.0646713 1.4385095e-38
1.7555208 1.4492573 -2.0631802 1.4291466e-38
1.7566568 1.4591975 -2.0582304 1.4291822e-38
1.7588816 1.4698057 -2.0524921 1.4199628e-38
1.7509521 1.4975716 -2.0436678 1.4015594e-38
1.7435105 1.5380455 -2.0289507 1.4566963e-38
1.7454193 1.5493011 -2.0230653 1.4475482e-38
1.7367632 1.5871407 -2.0100708 1.4106338e-38
1.7260813 1.6120929 -2.0037434 1.4569121e-38
1.8419995 0.86227459 -2.2862864 1.2176349e-38
1.8452668 0.89366412 -2.2708001 1.2452579e-38
1.839447 0.90426803 -2.2686877 1.2635512e-38
1.837522 0.92829353 -2.2588284 1.3190146e-38
1.8361861 0.93698996 -2.2555478 1.3190501e-38
1.8348503 0.94568646 -2.2522669 1.3189783e-38
1.8328266 0.95735866 -2.2479672 1.3281625e-38
1.8332605 0.96565884 -2.244066 1.3190507e-38
1.8283464 0.98333055 -2.2383904 1.3558214e-38
1.8230437 0.992428 -2.2367175 1.3832992e-38
1.822207 1.0010492 -2.2332454 1.3832989e-38
1.8243012 1.0096277 -2.228472 1.4110669e-38
1.8192351 1.0185637 -2.2267649 1.4109575e-38
1.8184004 1.0272074 -2.2232819 1.4109216e-38
1.8187038 1.03571 -2.2193489 1.4201772e-38
1.8167305 1.0444943 -2.2163162 1.4110295e-38
1.8102396 1.0516921 -2.2160268 1.3924116e-38
1.8051965 1.0858668 -2.2030408 1.4293251e-38
1.8126234 1.1010785 -2.1929035 1.4938636e-38
1.8065501 1.1188003 -2.1877277 1.4755691e-38
1.80519 1.1276332 -2.184397 1.4572014e-38
1.8028183 1.1587176 -2.1715872 1.4110676e-38
1.8000631 1.1766176 -2.1648369 1.4202514e-38
1.7758974 1.290418 -2.1249166 1.4201434e-38
1.7745074 1.2994397 -2.1215148 1.4017403e-38
1.7731174 1.3084613 -2.118113 1.3926286e-38
1.7706233 1.3264985 -2.1111839 1.4476208e-38
1.7697748 1.3354374 -2.1075752 1.4476206e-38
1.7606484 1.4166783 -2.0754154 1.4292555e-38
1.7581147 1.4256531 -2.0725501 1.4476202e-38
1.7541059 1.4320002 -2.0715227 1.4292539e-38
1.7534094 1.4408419 -2.0678887 1.4015964e-38
1.7482648 1.4574915 -2.0627732 1.429399e-38
1.7462529 1.4913603 -2.0485582 1.4291816e-38
1.7353836 1.550024 -2.0272636 1.4568038e-38
1.7345289 1.5592213 -2.0235431 1.4475839e-38
1.7336737 1.5684181 -2.0198219 1.4568035e-38
