# .PCD v0.7 - Point Cloud Data file format
VERSION 0.7
FIELDS x y z rgb
SIZE 4 4 4 4
TYPE F F F F
COUNT 1 1 1 1
WIDTH 1028
HEIGHT 1
VIEWPOINT 0 0 0 1 0 0 0
POINTS 1028
DATA ascii
1.0927374 0.21351479 -0.40423271 1.8993024e-38
1.0932814 0.21747446 -0.40460324 1.9730229e-38
1.0933331 0.21997574 -0.4036749 2.3509886e-38
1.0930294 0.22339134 -0.40091741 1.9544759e-38
1.0931971 0.22684886 -0.40001732 1.9359652e-38
1.0935383 0.23059198 -0.39967853 1.98217e-38
1.0933468 0.23346032 -0.39761585 1.9637671e-38
1.0935929 0.23766907 -0.39668769 1.9452565e-38
1.0933716 0.24049686 -0.39452457 1.9545119e-38
1.0942574 0.2451435 -0.39594412 2.0006094e-38
1.0942645 0.24838458 -0.394503 1.9637666e-38
1.094211 0.25152659 -0.39286575 1.9268888e-38
1.0947666 0.25575876 -0.39315864 1.9637669e-38
1.0944976 0.25852183 -0.39083517 1.9361448e-38
1.0941917 0.26121283 -0.38839728 1.9360365e-38
1.0949976 0.26517448 -0.38980979 2.1206068e-38
1.0952195 0.26881132 -0.38904423 1.9546901e-38
1.0949904 0.27094272 -0.38716576 1.9637668e-38
1.0951933 0.27663481 -0.38539261 1.9638022e-38
1.0952085 0.27997032 -0.38394114 1.9267808e-38
1.0954864 0.28382793 -0.3832987 1.8806474e-38
1.0957544 0.287642 -0.38263592 1.8808273e-38
1.0957538 0.29097125 -0.38112438 1.9176334e-38
1.096422 0.29542685 -0.38176456 1.9361082e-38
1.0968211 0.29876465 -0.38184023 2.1113154e-38
1.0965732 0.3026734 -0.37908143 2.1295764e-38
1.096898 0.30553427 -0.37907672 2.1112078e-38
1.0967327 0.31016511 -0.37632003 1.9176692e-38
1.0967278 0.31353956 -0.37477037 1.9543677e-38
1.0964514 0.31634054 -0.37240016 1.9727708e-38
1.0966047 0.32006487 -0.37132201 1.9453275e-38
1.0973666 0.32412264 -0.37251502 1.9545462e-38
1.0977308 0.32685536 -0.37272614 1.9359642e-38
1.0975293 0.32984176 -0.37056997 1.9267446e-38
1.0977393 0.33443031 -0.36932611 1.9452192e-38
1.0978467 0.33812234 -0.36807966 1.9358556e-38
1.0979232 0.34168991 -0.36676618 1.935928e-38
1.098376 0.34618682 -0.36653057 1.972806e-38
1.0982891 0.34947267 -0.36469468 1.9083046e-38
1.0991426 0.35809118 -0.36418489 1.9728419e-38
1.0991083 0.36245331 -0.36207142 2.1112792e-38
1.0997678 0.36740598 -0.36245099 2.1112789e-38
1.0997247 0.37078586 -0.36074677 2.0650378e-38
1.0995637 0.3738791 -0.35870397 2.0650025e-38
1.0989925 0.37600783 -0.35546461 1.9081974e-38
1.1000365 0.3820214 -0.35689473 1.9453623e-38
1.1003516 0.3859762 -0.35635546 1.9635506e-38
1.1005839 0.39373749 -0.35376224 2.101844e-38
1.1005393 0.39716288 -0.35203147 2.1112431e-38
1.1009839 0.40173191 -0.35172942 2.138758e-38
1.1009951 0.40557069 -0.35003406 2.3509886e-38
1.1005491 0.40801051 -0.34715238 1.880466e-38
1.1009568 0.41301817 -0.34650502 1.8439478e-38
1.1015115 0.41810897 -0.34640545 1.7791587e-38
1.1014881 0.42170456 -0.34468204 1.8343325e-38
1.1017381 0.4259299 -0.34376204 1.8527352e-38
1.1015265 0.42904001 -0.34150922 1.898905e-38
1.1017987 0.43307224 -0.34076464 2.101844e-38
1.1017383 0.43700591 -0.33874109 1.8711386e-38
1.1019313 0.44074449 -0.33781481 1.9358193e-38
1.1022431 0.44508514 -0.33708796 2.3509527e-38
1.1021113 0.44838032 -0.33506951 2.2679052e-38
1.1028035 0.45501512 -0.3348164 1.8526633e-38
1.1029819 0.45926598 -0.33359995 1.8156774e-38
1.1028866 0.46276873 -0.33163252 1.9079798e-38
1.1032165 0.46654373 -0.33123419 1.9173085e-38
1.1029344 0.47033811 -0.32839084 1.9080518e-38
1.1037064 0.47575295 -0.32900876 1.9264196e-38
1.1037309 0.47964734 -0.32734123 1.981737e-38
1.1035138 0.4828203 -0.32503849 1.935711e-38
1.1040034 0.48810276 -0.32459307 1.843515e-38
1.1043679 0.49288765 -0.32387438 1.8250398e-38
1.1045767 0.49735722 -0.32267907 1.9263825e-38
1.1044784 0.50093222 -0.32066667 1.8987963e-38
1.1043382 0.50332505 -0.31902394 1.8619906e-38
1.1050701 0.50817001 -0.31974152 1.8067087e-38
1.1050932 0.51212573 -0.31804019 1.8803209e-38
1.1050628 0.51829845 -0.31512058 1.8156763e-38
1.105507 0.52361828 -0.31447703 1.8526634e-38
1.1054672 0.52741629 -0.31259677 1.9264205e-38
1.1056083 0.53180516 -0.3111687 1.9449663e-38
1.1060594 0.53614944 -0.31099457 1.8988324e-38
1.1060721 0.53840512 -0.31002221 1.8619545e-38
1.106673 0.54361337 -0.31005344 1.8435523e-38
1.1067091 0.54772019 -0.30833554 1.8435156e-38
1.1062915 0.55130744 -0.30504647 2.2582887e-38
1.1069566 0.56101435 -0.30329326 2.0276911e-38
1.1072775 0.56547153 -0.30255046 1.8432987e-38
1.1072375 0.57031888 -0.3001931 1.8341151e-38
1.1081393 0.58064294 -0.29910263 1.7881255e-38
1.1076542 0.58305871 -0.29607618 1.7420993e-38
1.1084349 0.5896458 -0.29619795 1.7605383e-38
1.1084437 0.59377348 -0.29436156 1.7512824e-38
1.1084715 0.59799278 -0.29255936 1.7787978e-38
1.1085066 0.60637736 -0.28889748 1.7972366e-38
1.1106745 0.65085983 -0.27736101 1.4835554e-38
1.1107461 0.65487379 -0.27582693 1.6033392e-38
1.1105381 0.6583786 -0.27340999 1.5849707e-38
1.1109556 0.66452074 -0.27228668 1.4097622e-38
1.1109538 0.66855949 -0.27044886 1.3636288e-38
1.1112659 0.67680699 -0.26795179 1.5570259e-38
1.1122 0.68235189 -0.26915684 1.2162241e-38
1.1123575 0.68731755 -0.26753214 1.2162598e-38
1.1127052 0.6971423 -0.26446253 1.2254066e-38
1.1124665 0.70059001 -0.26194888 1.2069672e-38
1.1123999 0.70579624 -0.25932309 1.1609054e-38
1.1125959 0.71100712 -0.2577413 1.1424664e-38
1.1135094 0.72232759 -0.25624567 9.5803987e-39
1.1130283 0.72928208 -0.25117767 9.0275599e-39
1.1134562 0.73521525 -0.250191 8.2899906e-39
1.1131772 0.73850179 -0.24759024 9.5778288e-39
1.1136913 0.74517423 -0.24661186 9.0261137e-39
1.1137289 0.74953401 -0.24478465 8.0105339e-39
1.1145045 0.75623816 -0.24483302 5.7024272e-39
1.1146611 0.7612105 -0.24320249 5.2428979e-39
1.1147004 0.76591533 -0.24122584 4.9655978e-39
1.1147661 0.77076757 -0.23928706 5.4254941e-39
1.1150599 0.77679837 -0.23772196 6.0733691e-39
1.1148428 0.78045124 -0.23520201 6.5318347e-39
1.1149538 0.78553462 -0.2333394 6.8087887e-39
1.1151115 0.79080451 -0.23157778 6.7176749e-39
1.1161556 0.79813397 -0.23241132 9.394204e-39
1.1160707 0.80243111 -0.23012576 8.9332329e-39
1.1165742 0.80932719 -0.22900346 9.025067e-39
1.1165498 0.81389272 -0.22683644 8.8413974e-39
1.1171725 0.82100314 -0.22609116 1.0225035e-38
1.1176165 0.83638149 -0.22088735 1.4650802e-38
1.1172 0.83976609 -0.21769495 1.2899795e-38
1.1177622 0.84551209 -0.21732756 1.3175305e-38
1.1176515 0.84977883 -0.21495295 1.3175304e-38
1.1178788 0.85656834 -0.21277922 1.4742274e-38
1.1190143 0.8649568 -0.21349657 1.5757519e-38
1.1181922 0.86469322 -0.21034363 1.3084176e-38
1.1184293 0.87026238 -0.20876203 1.308346e-38
1.1193502 0.8801282 -0.20795617 1.5390164e-38
1.1193591 0.8832438 -0.20657827 1.3636283e-38
1.1193657 0.88767219 -0.204597 1.2160788e-38
1.1194131 0.89280188 -0.20246057 1.188636e-38
1.1193763 0.89752096 -0.20017424 1.2071104e-38
1.1196975 0.90398079 -0.19852407 1.1885996e-38
1.1191655 0.90636265 -0.19532689 1.1793085e-38
1.1200362 0.91513067 -0.19481747 1.1792368e-38
1.1209062 0.92264646 -0.19487374 1.1884936e-38
1.1206461 0.92636281 -0.19215333 1.1793091e-38
1.1206586 0.93140697 -0.18991646 1.1332469e-38
1.1207002 0.93663448 -0.18771206 1.1240276e-38
1.1215085 0.9452489 -0.18702389 1.0595277e-38
1.1212463 0.94899309 -0.18428262 1.0503447e-38
1.1214578 0.95512342 -0.18234573 1.0228299e-38
1.1224978 0.96360821 -0.18263866 1.0874024e-38
1.1220524 0.96717089 -0.17925125 1.1608722e-38
1.1219699 0.97114289 -0.17712174 1.077895e-38
1.1219922 0.97701007 -0.17454992 1.2069674e-38
1.1225243 0.98482096 -0.17312719 1.0778939e-38
1.1232649 0.99276918 -0.17247233 9.1204884e-39
1.1229066 0.99745721 -0.16892043 1.0224688e-38
1.12291 1.0026484 -0.16658044 1.03194e-38
1.1239117 1.0098081 -0.16732232 1.0317602e-38
1.1236672 1.0128976 -0.1649479 9.6754684e-39
1.1242646 1.0194411 -0.16435951 9.1201367e-39
1.1239954 1.0232713 -0.16155104 8.5687551e-39
1.1240841 1.0290179 -0.15929928 1.0321199e-38
1.124081 1.0342635 -0.15690863 1.1242787e-38
1.124109 1.0397167 -0.15454791 1.1334632e-38
1.1244954 1.046568 -0.15297967 1.1147723e-38
1.1246905 1.0529612 -0.15085846 1.1148808e-38
1.1256053 1.0616518 -0.15055999 1.2439549e-38
1.1259519 1.0684731 -0.14884734 1.0690338e-38
1.1260343 1.0743297 -0.14652017 1.0781822e-38
1.1257606 1.0782284 -0.14366254 1.0135376e-38
1.1259096 1.08459 -0.14137159 1.1704858e-38
1.1264235 1.0922282 -0.13995452 1.1242805e-38
1.1264111 1.0975975 -0.13747065 1.1059485e-38
1.1272095 1.1111645 -0.13449869 1.124138e-38
1.1274751 1.1235332 -0.1299485 1.1611233e-38
1.1281312 1.1327283 -0.1283917 1.1243171e-38
1.1283622 1.1395643 -0.12621158 1.1149539e-38
1.1281171 1.1436625 -0.12337823 1.0872947e-38
1.129239 1.1532892 -0.12348025 1.0229382e-38
1.1294687 1.1601839 -0.12126883 1.0136831e-38
1.1296434 1.1667321 -0.11899561 1.0411611e-38
1.1299672 1.190999 -0.10928229 9.9531497e-39
1.0922087 0.15256462 -0.42976141 2.0375247e-38
1.0920391 0.15544163 -0.42778131 2.0559277e-38
1.0918694 0.15831873 -0.42580137 2.1204649e-38
1.0921434 0.16177797 -0.42532393 2.120465e-38
1.092229 0.16500206 -0.42420325 2.0928425e-38
1.0930384 0.16936009 -0.42544934 1.9268896e-38
1.0928519 0.17216961 -0.4234331 1.9084867e-38
1.0929424 0.17536406 -0.42234483 1.936216e-38
1.0929765 0.17848653 -0.42106524 1.9545476e-38
1.0929797 0.18519378 -0.41803721 1.8808994e-38
1.0930445 0.18838556 -0.41684824 1.9361805e-38
1.0926375 0.19088615 -0.41409406 1.9361808e-38
1.0935365 0.19529888 -0.41567257 1.9269254e-38
1.0937687 0.19876215 -0.41502658 1.9085218e-38
1.0937986 0.20193653 -0.41370657 1.9269614e-38
1.0936093 0.20477895 -0.41166413 1.9545479e-38
1.0938793 0.20832747 -0.41113013 1.9545475e-38
1.0938562 0.21200415 -0.40937108 1.9360369e-38
1.0935967 0.21474588 -0.40709543 1.9453639e-38
1.0945274 0.21933195 -0.40872112 1.9360733e-38
1.0943362 0.22219287 -0.4066627 1.9361449e-38
1.0948354 0.22564773 -0.40708408 2.1297545e-38
1.0951147 0.22927922 -0.40654948 2.1573772e-38
1.0948732 0.23263165 -0.4040682 1.9637669e-38
1.094681 0.23550947 -0.40199819 1.9821344e-38
1.0951136 0.24006169 -0.40165675 1.9452925e-38
1.0947802 0.24270461 -0.399131 1.991318e-38
1.0957215 0.24746516 -0.40072 1.9637673e-38
1.0956794 0.25060937 -0.39912722 1.9822421e-38
1.0960126 0.2544603 -0.39870745 1.9453281e-38
1.0960168 0.25772685 -0.39724332 1.9637669e-38
1.0958216 0.26063675 -0.39514738 1.9453641e-38
1.0957019 0.26368824 -0.39328715 1.9729146e-38
1.095699 0.26692533 -0.39180771 1.9545122e-38
1.0961452 0.2701979 -0.39210081 1.9546903e-38
1.0965565 0.27351925 -0.39223248 1.9452205e-38
1.0964216 0.27862564 -0.3893804 1.9361086e-38
1.0968148 0.28202328 -0.38940519 1.9452915e-38
1.0966773 0.28572226 -0.38718101 1.9452198e-38
1.0967722 0.28923595 -0.3859655 1.9360005e-38
1.0967709 0.292568 -0.3844493 1.9636946e-38
1.0977029 0.29685655 -0.38621521 1.9454707e-38
1.0978519 0.30123916 -0.38482189 1.9545472e-38
1.0979447 0.30374706 -0.38405457 2.3509886e-38
1.0977865 0.30847892 -0.38127926 1.9361078e-38
1.0977811 0.31184947 -0.37972909 1.9452914e-38
1.0988774 0.31564558 -0.38237283 1.9821689e-38
1.098477 0.31793249 -0.37974221 1.9451837e-38
1.0982757 0.32091486 -0.37758839 1.9451837e-38
1.098286 0.32455915 -0.37597749 2.1203563e-38
1.0992384 0.32994765 -0.37732589 2.1204629e-38
1.0992768 0.3330923 -0.37605321 1.9544389e-38
1.0996075 0.33791909 -0.37518117 1.9728786e-38
1.0995219 0.34119874 -0.37335363 1.9635508e-38
1.0995748 0.34478763 -0.37193725 1.94504e-38
1.0995632 0.3482399 -0.37032586 1.9452192e-38
1.1004229 0.3568638 -0.36983851 1.963587e-38
1.1004772 0.36070362 -0.36831352 2.1112794e-38
1.1001377 0.36408186 -0.36543033 2.1113151e-38
1.1003934 0.37155065 -0.36306262 1.8620643e-38
1.1008059 0.3759484 -0.36271051 2.0926966e-38
1.1011671 0.38031846 -0.36216769 2.1020955e-38
1.1008288 0.38319695 -0.35951579 1.9266726e-38
1.1018893 0.38822135 -0.36145937 1.917453e-38
1.1019598 0.39274439 -0.35968974 1.945075e-38
1.1016653 0.3955133 -0.35726202 2.0465988e-38
1.1020607 0.40012482 -0.35674521 2.0096495e-38
1.1021217 0.40390742 -0.35527346 1.9726617e-38
1.1024395 0.40801993 -0.3546738 2.0372713e-38
1.1025246 0.4119302 -0.35323974 2.3044957e-38
1.1028806 0.41711137 -0.35230824 1.677707e-38
1.1028563 0.42070749 -0.35058108 1.9265278e-38
1.1028944 0.42447478 -0.34902456 1.9726252e-38
1.1032022 0.42815524 -0.34858125 2.3507374e-38
1.1034923 0.4398554 -0.34443155 2.2954917e-38
1.1033604 0.44315061 -0.34241307 2.3509168e-38
1.104465 0.45026764 -0.34358335 1.9542585e-38
1.104371 0.45376432 -0.34162414 1.9635137e-38
1.1044024 0.45760465 -0.34000805 1.9726618e-38
1.1043719 0.46128094 -0.33821955 1.944966e-38
1.1045481 0.46920422 -0.33532897 1.8803217e-38
1.1046513 0.47414872 -0.3334983 1.8433721e-38
1.1054935 0.48115569 -0.33367467 1.8896126e-38
1.1049836 0.48595533 -0.32946834 1.8067097e-38
1.1049092 0.48956466 -0.32753605 1.8619898e-38
1.1054597 0.49489954 -0.32730889 1.9080154e-38
1.1058706 0.50000215 -0.32663086 1.8803573e-38
1.1056507 0.50321043 -0.32430103 1.880285e-38
1.1062872 0.50737733 -0.32494614 2.2677607e-38
1.1066531 0.51171631 -0.32443568 1.9079445e-38
1.1068994 0.51621616 -0.3233757 1.8710301e-38
1.1070192 0.52216434 -0.32115579 1.8433707e-38
1.1069266 0.52455962 -0.31970134 2.1018083e-38
1.1069593 0.5321269 -0.31640118 1.8712453e-38
1.1072472 0.53684729 -0.3154068 1.8803566e-38
1.1070235 0.54009807 -0.31304222 1.7879827e-38
1.1079816 0.54638511 -0.31400615 1.7328083e-38
1.1078948 0.55009317 -0.31197986 1.7697583e-38
1.1082937 0.55540437 -0.31115973 1.8155684e-38
1.1083287 0.55954438 -0.30942225 1.8064202e-38
1.1083426 0.5636124 -0.30763346 1.8340428e-38
1.1097367 0.588359 -0.30196401 1.5667481e-38
1.1098685 0.59291786 -0.30042157 1.6681262e-38
1.1099044 0.60128438 -0.29677132 1.5942257e-38
1.1096746 0.60461754 -0.29434508 1.584935e-38
1.1108564 0.61604267 -0.2938703 1.5203615e-38
1.1109987 0.62062341 -0.29236007 1.3453334e-38
1.1110934 0.62529123 -0.29062074 1.5293662e-38
1.1121111 0.64918149 -0.28384113 1.3635204e-38
1.111903 0.65268624 -0.28142342 1.3359711e-38
1.1116947 0.65619093 -0.2790058 1.382032e-38
1.1120862 0.66089082 -0.27843317 1.5109265e-38
1.1123739 0.66480964 -0.27780181 1.1793816e-38
1.1128058 0.67075187 -0.27682772 1.1515427e-38
1.1128227 0.67514271 -0.2749036 1.1423944e-38
1.1128175 0.67944646 -0.27293214 1.0777855e-38
1.1134787 0.6859374 -0.27262127 9.5771603e-39
1.1136446 0.69037771 -0.27126905 9.2080037e-39
1.1134334 0.69393325 -0.26881582 9.485287e-39
1.1136717 0.69880337 -0.26755625 8.3753549e-39
1.1136845 0.70325142 -0.26559141 7.823986e-39
1.11376 0.70796037 -0.2637569 6.9070604e-39
1.1138078 0.71255273 -0.26186502 7.0889643e-39
1.1139039 0.71846902 -0.25956535 7.4588189e-39
1.1144364 0.72273231 -0.25975275 6.254543e-39
1.1150196 0.72924203 -0.25912234 6.073023e-39
1.114943 0.73341745 -0.25692472 6.164857e-39
1.1147432 0.7382043 -0.25395915 6.8080699e-39
1.1149503 0.7435497 -0.25236008 6.6225996e-39
1.1151456 0.7484532 -0.25091434 7.1800852e-39
1.115059 0.75272852 -0.24863186 7.3630345e-39
1.1153855 0.75822091 -0.24744129 9.3013133e-39
1.1159962 0.76443195 -0.2470571 1.2714686e-38
1.1161994 0.7698527 -0.24540763 1.3082741e-38
1.1163446 0.77505112 -0.2436288 1.2621406e-38
1.1163778 0.77958757 -0.2417049 1.4281293e-38
1.1161603 0.78324646 -0.23917957 1.4003642e-38
1.1164491 0.7889961 -0.23772296 1.2805451e-38
1.1164839 0.79375613 -0.23570299 1.2528857e-38
1.1176642 0.80217153 -0.2365869 1.4280937e-38
1.117415 0.80574626 -0.23397398 1.4096899e-38
1.1174467 0.81054151 -0.23192649 1.4005425e-38
1.1182981 0.81861836 -0.23165439 1.391251e-38
1.1180476 0.82221621 -0.22902556 1.3820315e-38
1.1177971 0.82581431 -0.22639689 1.3912147e-38
1.1177104 0.83016628 -0.22407906 1.3912151e-38
1.1185108 0.83666551 -0.22431861 1.6956065e-38
1.1191914 0.842861 -0.22421992 1.3545873e-38
1.1195061 0.8486796 -0.22283435 1.3545507e-38
1.1195605 0.85372537 -0.22076268 1.3544072e-38
1.1197482 0.85939634 -0.21893939 1.3358966e-38
1.1194937 0.86304253 -0.21627378 1.3358608e-38
1.1195463 0.86812133 -0.21418019 1.2990922e-38
1.1196222 0.87292886 -0.2123026 1.2806876e-38
1.119807 0.87864906 -0.21044496 1.2530648e-38
1.1205302 0.88572085 -0.21011783 1.2623201e-38
1.1210346 0.89261866 -0.2089988 1.2715749e-38
1.121272 0.89862829 -0.20721892 1.2622834e-38
1.1210139 0.90232348 -0.20451623 1.2528847e-38
1.1216191 0.90977889 -0.20354532 1.2254064e-38
1.1216335 0.91479075 -0.2013306 1.2255144e-38
1.121841 0.92079848 -0.19943306 1.1793453e-38
1.122357 0.92653584 -0.19888616 1.133284e-38
1.1226053 0.93278414 -0.19704196 1.1332121e-38
1.1225075 0.93734282 -0.19458529 1.1147736e-38
1.1238012 0.94833553 -0.19475199 1.1792746e-38
1.1238999 0.95391089 -0.192617 1.1518312e-38
1.1236352 0.95768017 -0.18985458 1.1794546e-38
1.1236423 0.9627918 -0.18756521 1.1242463e-38
1.1239262 0.9725945 -0.18425091 1.1423948e-38
1.123661 0.97637558 -0.18148118 1.0687095e-38
1.1240218 0.98333788 -0.17976107 1.0316879e-38
1.1241175 0.98899806 -0.17757615 9.8559024e-39
1.1245154 0.99451286 -0.17665972 1.1885658e-38
1.1247424 0.99990743 -0.1751177 9.7651487e-39
1.1249784 1.0063727 -0.17312664 1.0502349e-38
1.1250083 1.0112598 -0.17102964 9.9491743e-39
1.1259553 1.0199927 -0.17084058 9.1201339e-39
1.1261235 1.024225 -0.16959116 9.2119722e-39
1.1265801 1.0333411 -0.16727586 9.1212143e-39
1.1261055 1.0360975 -0.16413654 9.3970865e-39
1.1258705 1.0397805 -0.16153073 1.0410168e-38
1.1267256 1.0548645 -0.1580967 9.5811162e-39
1.1267713 1.0604444 -0.15574899 1.0135717e-38
1.1278933 1.0698602 -0.15594684 8.4769337e-39
1.1279764 1.0757232 -0.15361945 8.9368356e-39
1.1281208 1.0818938 -0.15139675 9.4006906e-39
1.1280473 1.0869522 -0.14881098 1.0229008e-38
1.1281283 1.0928589 -0.14645569 1.0230803e-38
1.1285108 1.0998658 -0.14480162 1.0230081e-38
1.128497 1.1052511 -0.14230505 1.0505593e-38
1.1291605 1.1122646 -0.14176716 1.0688907e-38
1.1290843 1.1173787 -0.13914534 1.0595632e-38
1.1298225 1.1430982 -0.13042304 1.0781117e-38
1.1311783 1.1643264 -0.12619664 1.2162983e-38
1.1313548 1.1684825 -0.12501423 9.8620387e-39
1.1311067 1.1726217 -0.12215082 9.49218e-39
1.13161 1.1923547 -0.11520734 9.9513505e-39
1.0934342 0.15420677 -0.43389508 2.1019902e-38
1.0932639 0.15709093 -0.43190923 2.0192296e-38
1.0930934 0.15997507 -0.42992342 2.0743675e-38
1.0930576 0.16278411 -0.42850715 1.917742e-38
1.0932841 0.16664751 -0.42765746 1.9269257e-38
1.0944239 0.17741999 -0.42731062 1.8716795e-38
1.0944579 0.18055552 -0.42602444 1.8900838e-38
1.0944755 0.18367442 -0.42468062 1.9545839e-38
1.0942105 0.18659487 -0.4223015 2.0744391e-38
1.0941715 0.18944195 -0.4208554 1.926925e-38
1.0942819 0.19325444 -0.41956681 1.9453282e-38
1.09509 0.19754633 -0.42083833 1.936181e-38
1.0953379 0.20419221 -0.41881174 1.9085586e-38
1.0956165 0.21041551 -0.41709936 2.3509886e-38
1.0948291 0.21341586 -0.41260457 1.9360731e-38
1.094841 0.21659216 -0.41121164 1.9085225e-38
1.0957919 0.22031483 -0.41330969 2.3509886e-38
1.0958773 0.22454478 -0.41173184 1.9730231e-38
1.0962102 0.2282865 -0.41136089 1.9822778e-38
1.0961876 0.23143286 -0.40984404 1.9545125e-38
1.0960702 0.23444501 -0.40801114 1.8992663e-38
1.0960779 0.23767051 -0.4065797 1.8992308e-38
1.0963129 0.24188223 -0.40560597 1.9268172e-38
1.0963345 0.24515341 -0.40420845 1.8992657e-38
1.0967884 0.24906333 -0.40424293 1.9822425e-38
1.0970083 0.25270203 -0.40346915 1.9822782e-38
1.097012 0.25596452 -0.40200487 1.9636957e-38
1.0971036 0.25939971 -0.40081191 1.9730224e-38
1.0972999 0.26300204 -0.39996007 1.9452206e-38
1.0971036 0.26592103 -0.39785486 1.9544397e-38
1.0969071 0.26884001 -0.39574972 1.9545472e-38
1.0976844 0.27267975 -0.39710307 1.954726e-38
1.0978782 0.27566013 -0.39652339 1.9637316e-38
1.0985217 0.28073847 -0.39678261 2.1205708e-38
1.0980716 0.28406397 -0.39348304 1.9544396e-38
1.0980115 0.28793478 -0.39148879 1.9268166e-38
1.0978924 0.29103041 -0.38961145 1.9267812e-38
1.0988003 0.29513747 -0.39136389 2.1113154e-38
1.0981801 0.29826435 -0.38747677 1.9545832e-38
1.099228 0.30600372 -0.38813981 1.9638022e-38
1.0990839 0.30853775 -0.38641757 1.9544397e-38
1.0991433 0.31204981 -0.3850612 1.94522e-38
1.0996552 0.31648299 -0.38508943 1.9636587e-38
1.099739 0.32007134 -0.38379601 1.9636947e-38
1.0995367 0.32306132 -0.38163525 1.9359642e-38
1.0996135 0.32665852 -0.38031077 1.9451119e-38
1.1005158 0.33547485 -0.3799057 2.1112076e-38
1.1005532 0.33940953 -0.37827024 1.9451476e-38
1.101009 0.34403741 -0.37798715 2.1296825e-38
1.1005139 0.34625685 -0.37500939 1.97277e-38
1.1005812 0.3498947 -0.37362796 1.9452186e-38
1.1006532 0.35355693 -0.37225461 2.0097198e-38
1.1015924 0.35905701 -0.37350023 2.1111717e-38
1.1021838 0.36381263 -0.3736982 2.1020238e-38
1.1020219 0.36690754 -0.37165067 2.1204629e-38
1.1018602 0.37000263 -0.36960328 2.1203196e-38
1.1019269 0.37431321 -0.36791521 1.9729143e-38
1.1022906 0.37867856 -0.3673839 2.0926967e-38
1.1023929 0.38266346 -0.36598435 1.9359636e-38
1.1031841 0.38701189 -0.36716241 2.0558905e-38
1.1032352 0.39072475 -0.36568296 1.9081972e-38
1.1032979 0.40240014 -0.36063948 1.9266352e-38
1.104472 0.42759988 -0.35388884 1.9909932e-38
1.1045076 0.43138245 -0.35231513 2.009468e-38
1.1048424 0.4354142 -0.35182032 2.0649657e-38
1.1048613 0.44591171 -0.34713611 2.2124799e-38
1.1058818 0.4531242 -0.3479284 1.7974185e-38
1.1055189 0.45587894 -0.34523514 1.8436241e-38
1.1056103 0.45990175 -0.34377512 1.8713179e-38
1.105727 0.4640381 -0.34236407 2.0833323e-38
1.1060356 0.4685421 -0.34155089 1.8435512e-38
1.1061311 0.47669926 -0.33823287 2.0276908e-38
1.1069323 0.49034947 -0.33523354 1.7881269e-38
1.1069782 0.49434441 -0.33360517 1.8157492e-38
1.1067578 0.49754891 -0.33127522 1.8434432e-38
1.1067814 0.5014779 -0.32958773 1.8526626e-38
1.1067247 0.50519454 -0.32767767 1.8618821e-38
1.1072986 0.50877368 -0.32833958 2.1844606e-38
1.1071635 0.51215535 -0.32626814 2.1754206e-38
1.1080817 0.51853055 -0.3270331 1.7420274e-38
1.108429 0.52353793 -0.3261452 1.7697944e-38
1.1087813 0.53634816 -0.3217406 1.8157126e-38
1.1086735 0.53996152 -0.31967291 1.7603939e-38
1.1085726 0.5436278 -0.31760904 1.6957851e-38
1.1096739 0.55037832 -0.31893283 1.5205781e-38
1.1096878 0.55442613 -0.31715301 1.5851151e-38
1.1100631 0.57164121 -0.3108426 1.5388367e-38
1.1099715 0.57539696 -0.30877513 1.6033373e-38
1.1109376 0.58210248 -0.30958107 1.4373135e-38
1.111191 0.59895194 -0.30295101 1.2715763e-38
1.1111971 0.6036467 -0.30084684 1.4188388e-38
1.1113838 0.60867053 -0.29931226 1.2622856e-38
1.1112771 0.61246389 -0.29716751 1.2808328e-38
1.1117948 0.61734712 -0.29701468 1.3361134e-38
1.112245 0.62329626 -0.29610971 1.1516145e-38
1.1121368 0.6271168 -0.2939471 1.1148073e-38
1.1123962 0.63225025 -0.29265255 1.0964044e-38
1.1126757 0.63723773 -0.29150346 1.0409799e-38
1.1126758 0.64146066 -0.28958914 1.0225764e-38
1.112826 0.6493938 -0.28659087 9.2083274e-39
1.1131588 0.65216243 -0.28666046 6.6214828e-39
1.1133989 0.65835756 -0.28480744 7.2690088e-39
1.1134192 0.66272324 -0.28290936 6.6250841e-39
1.1137968 0.66714078 -0.28240979 5.7017167e-39
1.1138963 0.67288136 -0.28020355 6.5318389e-39
1.1138911 0.67717642 -0.27823493 6.165936e-39
1.1138194 0.68125325 -0.27610138 6.9953436e-39
1.113937 0.68588465 -0.27446967 7.8251071e-39
1.1145192 0.69153172 -0.27422792 7.2715507e-39
1.1147661 0.69685495 -0.27279687 7.5481446e-39
1.1149337 0.7016328 -0.27129781 7.9187138e-39
1.1150105 0.70633984 -0.26946932 8.2860628e-39
1.1150231 0.71080738 -0.26749438 8.5630168e-39
1.1149474 0.71505308 -0.26526803 1.0592031e-38
1.1152598 0.7202999 -0.2641331 9.4853262e-39
1.1161754 0.72722131 -0.26464033 1.4742998e-38
1.1160356 0.73110247 -0.26232377 1.474372e-38
1.1159183 0.73511171 -0.26003891 1.4835554e-38
1.1164423 0.74174064 -0.25912014 1.5111415e-38
1.1166531 0.74681389 -0.25765872 1.5111405e-38
1.1166589 0.75136513 -0.25561911 1.4927024e-38
1.1166413 0.75581092 -0.25353366 1.4650074e-38
1.1167091 0.76064432 -0.25161162 1.4280935e-38
1.1174723 0.76705706 -0.25174251 1.4834466e-38
1.1173931 0.77130961 -0.24949971 1.4741908e-38
1.1174562 0.77731693 -0.24702723 1.4742265e-38
1.1176876 0.78292412 -0.24540643 1.4465321e-38
1.1180108 0.78857219 -0.24413158 1.4281651e-38
1.11824 0.79421401 -0.2424863 1.437384e-38
1.1179909 0.79778212 -0.23987713 1.4373121e-38
1.1189095 0.80293459 -0.24119841 1.4099057e-38
1.1194682 0.80896032 -0.24069059 1.4374193e-38
1.119509 0.81347293 -0.23880693 1.4466029e-38
1.1197859 0.81938159 -0.23723108 1.4557496e-38
1.1199247 0.82471627 -0.23536478 1.4373111e-38
1.1198163 0.8289572 -0.23301026 1.4280198e-38
1.1197302 0.83333027 -0.23068513 1.4004693e-38
1.1197139 0.83839703 -0.22832322 1.5663497e-38
1.1211067 0.8492111 -0.2289654 1.667948e-38
1.121438 0.85345316 -0.2283611 1.3454045e-38
1.1214917 0.85851586 -0.22627914 1.3821018e-38
1.1212358 0.86217034 -0.22360449 1.3543716e-38
1.1212885 0.86725181 -0.22151014 1.3358242e-38
1.1212226 0.87302423 -0.21863066 1.2806874e-38
1.1216538 0.878241 -0.2179819 1.262212e-38
1.1214743 0.88356161 -0.21485543 1.2806151e-38
1.1222775 0.88932431 -0.21544032 1.2991999e-38
1.122514 0.89531171 -0.21366742 1.3268577e-38
1.1230174 0.90391558 -0.2117705 1.3453334e-38
1.1230794 0.90859956 -0.20989348 1.4558237e-38
1.1230505 0.91227353 -0.20811312 1.2252968e-38
1.1230042 0.91833532 -0.20518053 1.0871854e-38
1.1230174 0.92336076 -0.20295466 1.1240283e-38
1.1241462 0.93216687 -0.20345612 1.2163309e-38
1.1243546 0.93823159 -0.20153567 1.2346987e-38
1.1242975 0.94301641 -0.19913904 1.2161513e-38
1.1250801 0.95142436 -0.19844267 1.1609431e-38
1.1253911 0.95803314 -0.19668479 1.1056613e-38
1.1251256 0.96181333 -0.19391438 1.0963707e-38
1.1248604 0.96559364 -0.19114409 1.0226879e-38
1.1248004 0.97043109 -0.18871248 1.105662e-38
1.1245925 0.97157633 -0.18736514 1.3084574e-38
1.1256723 0.97974563 -0.18796055 9.6718741e-39
1.1260332 0.98622209 -0.18646069 9.4892821e-39
1.1263974 0.99323887 -0.18472897 1.0133564e-38
1.1261286 0.99705416 -0.18192932 1.0500906e-38
1.1264305 1.0037967 -0.18007484 9.4892821e-39
1.1273437 1.013253 -0.17942281 9.6722272e-39
1.1267684 1.0163156 -0.17574391 1.041124e-38
1.127836 1.0243634 -0.17634611 9.3038034e-39
1.1284534 1.0328839 -0.17494033 9.3949299e-39
1.1281803 1.0367543 -0.17209849 8.9357412e-39
1.1279073 1.0406247 -0.16925675 9.0286585e-39
1.127791 1.0457585 -0.16646658 9.3974438e-39
1.1279119 1.0516416 -0.16428116 9.3967221e-39
1.1282248 1.0577614 -0.16275196 8.3854499e-39
1.1282696 1.064118 -0.16004841 9.6779992e-39
1.1295041 1.0733464 -0.16077879 1.0505948e-38
1.1292857 1.0775293 -0.15801293 1.068926e-38
1.1293683 1.0834117 -0.15567547 1.0505239e-38
1.1297992 1.0906599 -0.15410444 1.022973e-38
1.1298195 1.0962414 -0.1516546 1.0321558e-38
1.1301205 1.1033318 -0.14963834 1.0138246e-38
1.1297503 1.1067829 -0.14659998 1.032085e-38
1.1309503 1.12212 -0.14442354 1.2626094e-38
1.0946463 0.15577775 -0.43800834 1.917706e-38
1.0946678 0.15884525 -0.43670309 1.8163998e-38
1.0942358 0.16463998 -0.43235609 2.074475e-38
1.0952238 0.16845115 -0.4345614 2.1297189e-38
1.0954285 0.17881532 -0.43067768 1.9361095e-38
1.0958868 0.18565473 -0.42940158 1.9268538e-38
1.095551 0.18848372 -0.42678204 2.0836231e-38
1.0957868 0.19173731 -0.42624566 1.9913911e-38
1.0958233 0.19547082 -0.42469764 1.9453646e-38
1.0960053 0.1988395 -0.42389545 1.9730947e-38
1.0963155 0.20244186 -0.4234969 1.9546554e-38
1.0966376 0.20864728 -0.42196661 2.3509886e-38
1.0965172 0.21165918 -0.42012167 2.3509886e-38
1.096375 0.21532784 -0.41789219 2.1572711e-38
1.0966123 0.21811816 -0.41757169 2.1205712e-38
1.0971094 0.22580223 -0.41606686 2.1298264e-38
1.0973889 0.22943123 -0.41553396 2.1390101e-38
1.0972756 0.23305444 -0.41344067 1.9638388e-38
1.0971965 0.23613803 -0.41172794 1.9730941e-38
1.0976961 0.24342376 -0.41041318 1.8900113e-38
1.0975237 0.24698211 -0.40811369 1.9452928e-38
1.0982165 0.25131765 -0.40890661 1.9639468e-38
1.0980204 0.25422779 -0.40680638 1.9822781e-38
1.0984175 0.258174 -0.40659806 1.9730233e-38
1.0984368 0.26148653 -0.40517282 1.9729866e-38
1.0983179 0.26455313 -0.40330926 1.9636233e-38
1.0981208 0.26747575 -0.40119952 1.9452203e-38
1.0992954 0.27199361 -0.4038271 2.1296826e-38
1.099002 0.27480116 -0.40138671 1.9546906e-38
1.0994086 0.2787587 -0.40121105 2.1205351e-38
1.0999304 0.28419593 -0.40082321 2.1295765e-38
1.0999153 0.2862812 -0.39981741 2.1204989e-38
1.0992138 0.28987706 -0.39539492 1.9545469e-38
1.0996076 0.29924396 -0.3927156 1.9636589e-38
1.0992883 0.30196196 -0.39021245 1.9820624e-38
1.1003432 0.30740759 -0.39194331 2.3509886e-38
1.1008377 0.31201166 -0.39182422 2.1204989e-38
1.1006943 0.31473503 -0.39001903 1.9452559e-38
1.1013427 0.31974721 -0.39032757 2.1205348e-38
1.1009588 0.32212538 -0.38772121 2.0005013e-38
1.1011604 0.32598898 -0.3867723 1.9268162e-38
1.1011635 0.32937777 -0.38524809 1.9083409e-38
1.1018813 0.33415437 -0.38593966 1.9545111e-38
1.1020795 0.34230483 -0.38303375 2.0926249e-38
1.1020323 0.34555539 -0.38137236 1.917453e-38
1.1023787 0.34976244 -0.38084406 2.1296823e-38
1.1027493 0.35404477 -0.38037777 2.1297544e-38
1.1027093 0.35741177 -0.37869203 2.1388302e-38
1.1032859 0.36203507 -0.37889165 1.9174529e-38
1.1031017 0.36516297 -0.37674034 2.1112435e-38
1.1034622 0.37297884 -0.37463179 2.3047828e-38
1.1038394 0.37747154 -0.37409666 1.917345e-38
1.1038576 0.38083208 -0.37264585 2.0928401e-38
1.104391 0.39259624 -0.36943558 2.1204626e-38
1.1042678 0.39683452 -0.36702353 1.8897939e-38
1.1044308 0.40086249 -0.36584646 1.8067095e-38
1.1047639 0.4052467 -0.36518449 1.9726978e-38
1.1051462 0.41340631 -0.36300707 1.9266357e-38
1.1051376 0.41705287 -0.36131993 1.9173446e-38
1.1057694 0.42557618 -0.35997069 1.908089e-38
1.1059991 0.4344013 -0.35688421 1.9357477e-38
1.1061901 0.43851331 -0.35577998 1.9173433e-38
1.1065401 0.44914812 -0.35235217 2.3230072e-38
1.1069207 0.4562535 -0.35064626 1.8712096e-38
1.106782 0.46210068 -0.34744263 1.8619912e-38
1.1065644 0.46526918 -0.34513983 1.8711387e-38
1.1072099 0.47075993 -0.34522012 1.8066015e-38
1.107237 0.47463527 -0.34357104 1.7881626e-38
1.1074036 0.47892931 -0.34228778 1.7328813e-38
1.1083794 0.49287492 -0.33984956 1.9353868e-38
1.1081656 0.4946399 -0.33819863 2.1014839e-38
1.1081281 0.49786365 -0.33658755 1.7049322e-38
1.1081738 0.50187612 -0.33495072 1.6957499e-38
1.1085488 0.50673062 -0.33424237 1.741885e-38
1.1085429 0.5107969 -0.33237559 1.8338996e-38
1.1087377 0.51511329 -0.3311938 1.6496164e-38
1.1095204 0.52071518 -0.33177018 1.4651531e-38
1.1098001 0.53039557 -0.32849458 1.5851152e-38
1.1101831 0.53844237 -0.3263714 1.4283089e-38
1.1101983 0.54246581 -0.32460752 1.4558973e-38
1.1097609 0.54599786 -0.32126519 1.4835204e-38
1.1108851 0.55281126 -0.3226518 1.3268587e-38
1.1111619 0.55771941 -0.32152823 1.345298e-38
1.1110861 0.56121671 -0.31964123 1.3913599e-38
1.1112781 0.57411647 -0.31455687 1.2531008e-38
1.1114203 0.57845902 -0.31315407 1.252993e-38
1.1113842 0.58165169 -0.31156293 1.4001829e-38
1.1123214 0.58904058 -0.31194428 1.0962247e-38
1.1124725 0.60613513 -0.30479562 1.031361e-38
1.1122669 0.60959154 -0.30241024 9.0250431e-39
1.1121716 0.61287117 -0.30054379 8.1970901e-39
1.1129302 0.61838585 -0.30106363 7.1814809e-39
1.1129912 0.62139332 -0.29994315 5.1478128e-39
1.113379 0.62696302 -0.2989623 5.6088008e-39
1.1135321 0.63174492 -0.29740328 5.2439868e-39
1.113855 0.636868 -0.29636639 5.1507079e-39
1.1138542 0.6410886 -0.29444915 5.51841e-39
1.1138767 0.64541864 -0.29257604 5.8861164e-39
1.1136413 0.64881051 -0.29010102 7.1757678e-39
1.1139597 0.6536774 -0.28916129 8.4737065e-39
1.1143069 0.65875447 -0.28824282 1.0867187e-38
1.1146024 0.6644882 -0.28681934 1.2805093e-38
1.1150479 0.66985476 -0.28615987 1.1514712e-38
1.11481 0.67327702 -0.28366116 1.1699822e-38
1.1146607 0.67811513 -0.28087375 1.1145554e-38
1.1149746 0.68363917 -0.27961841 1.1053005e-38
1.1151348 0.68860865 -0.27800399 1.1144482e-38
1.1161954 0.69568521 -0.27901736 1.5850776e-38
1.1161851 0.70001906 -0.27701131 1.6218481e-38
1.1162629 0.70472378 -0.2751886 1.603373e-38
1.1162766 0.70919007 -0.27321765 1.5849699e-38
1.116035 0.71265763 -0.27068409 1.5756421e-38
1.1163763 0.71817338 -0.26954156 1.5848253e-38
1.1165082 0.72317994 -0.26779735 1.723192e-38
1.1177405 0.73127598 -0.26903278 1.547947e-38
1.1177503 0.73580164 -0.26701975 1.5296518e-38
1.1179916 0.74129248 -0.26549056 1.4928819e-38
1.1182003 0.74665087 -0.26389205 1.5019574e-38
1.1180772 0.75067037 -0.26157996 1.6586186e-38
1.1180573 0.75478363 -0.25963616 1.5019925e-38
1.1182318 0.76006842 -0.25793487 1.5295436e-38
1.1182694 0.76476473 -0.25595576 1.5203242e-38
1.1191106 0.77128452 -0.25634775 1.8063491e-38
1.1192434 0.77475566 -0.25530294 1.5111409e-38
1.1197389 0.78111416 -0.25439373 1.4744069e-38
1.1198041 0.78601044 -0.25243333 1.5018849e-38
1.1195548 0.78957742 -0.24982275 1.474262e-38
1.1199006 0.79568261 -0.2484318 1.4742618e-38
1.1196506 0.79926139 -0.24581413 1.4835524e-38
1.1203986 0.80681968 -0.24536514 1.4651136e-38
1.1210395 0.81321114 -0.24501903 1.4464599e-38
1.1215632 0.81986642 -0.24408634 1.4373476e-38
1.1215338 0.82444954 -0.24189128 1.4096531e-38
1.1212804 0.82806784 -0.23924263 1.4098327e-38
1.1211953 0.83244795 -0.23691769 1.363663e-38
1.12132 0.83770674 -0.23503 1.5019209e-38
1.121573 0.84326971 -0.23351504 1.3084536e-38
1.1215965 0.84813917 -0.23140106 1.2991982e-38
1.1228019 0.85686648 -0.23224308 1.3452248e-38
1.1227533 0.86204427 -0.22970164 1.7044297e-38
1.1227676 0.86638629 -0.22779003 1.3544809e-38
1.1233959 0.87370604 -0.22697276 1.3820669e-38
1.1231376 0.87738377 -0.22427745 1.3636992e-38
1.1231879 0.88250071 -0.22215798 1.3636634e-38
1.1229295 0.88618487 -0.21945867 1.3544078e-38
1.1241413 0.89513534 -0.22022542 1.2162224e-38
1.1243246 0.90091842 -0.21833281 1.1884203e-38
1.1243387 0.90590668 -0.2161278 1.1237389e-38
1.1252165 0.91959989 -0.21341451 1.0777862e-38
1.1249539 0.92333609 -0.2106749 1.2163663e-38
1.1249975 0.92855835 -0.20848085 1.317638e-38
1.1254253 0.93400329 -0.20771553 1.6126663e-38
1.1261051 0.94153976 -0.20700443 1.1980361e-38
1.1266071 0.94761485 -0.2062488 1.1608696e-38
1.1265503 0.95243418 -0.20383789 9.8569884e-39
1.1267279 0.95792282 -0.2020561 8.7520786e-39
1.1267675 0.96322411 -0.19981031 9.3971145e-39
1.1265007 0.96701264 -0.19703093 9.9502967e-39
1.1269159 0.9737767 -0.19561756 9.4914625e-39
1.1269716 0.97917396 -0.19339214 8.9371733e-39
1.1278949 0.9871015 -0.19347362 8.2875005e-39
1.1278354 0.992001 -0.19101536 8.3829275e-39
1.1281033 0.99851453 -0.18912897 9.1194052e-39
1.1276891 1.0015532 -0.18610209 9.7658802e-39
1.1284046 1.0105031 -0.18489285 8.9361069e-39
1.1284829 1.0156504 -0.18287116 9.1194066e-39
1.128835 1.0227131 -0.18107069 9.3052384e-39
1.1296633 1.030323 -0.18091829 9.5811246e-39
1.1295573 1.0350857 -0.17833702 1.0041017e-38
1.1292835 1.0389578 -0.17549169 9.9498987e-39
1.1290098 1.0428301 -0.17264652 1.0228997e-38
1.1293044 1.0496991 -0.17070507 1.0596347e-38
1.1292964 1.0549772 -0.1682802 1.0412326e-38
1.1296901 1.0618783 -0.1667188 1.0782542e-38
1.1298878 1.0683178 -0.1645864 1.0966569e-38
1.1310544 1.0777221 -0.16496669 1.0873303e-38
1.1307971 1.0815945 -0.16218746 1.068963e-38
1.1313652 1.1149907 -0.14930767 9.3081377e-39
1.0958049 0.16037568 -0.44053608 1.8808639e-38
1.0957698 0.163385 -0.4390319 1.9177418e-38
1.0958818 0.166592 -0.43802419 1.8440578e-38
1.0959193 0.17024912 -0.43651474 1.8533494e-38
1.0963997 0.17707458 -0.43533292 1.9454e-38
1.0964351 0.18021335 -0.43405119 1.9177061e-38
1.0968639 0.18391091 -0.43408149 1.9177421e-38
1.0967872 0.18691057 -0.43241626 1.9638748e-38
1.0968761 0.19034828 -0.43121222 2.1205363e-38
1.0969256 0.19334558 -0.43005022 1.9177415e-38
1.0967364 0.19675834 -0.42774981 1.9454005e-38
1.0978539 0.20152943 -0.43003502 1.9546565e-38
1.0978119 0.20777389 -0.42703733 1.954656e-38
1.0975425 0.21052155 -0.42471859 1.9730592e-38
1.0979613 0.21374705 -0.42492366 2.3509886e-38
1.0974602 0.21731021 -0.42131302 1.9545478e-38
1.0975367 0.22061895 -0.42011797 1.9362164e-38
1.0979576 0.22324091 -0.42060471 2.1206428e-38
1.0986012 0.22863984 -0.42071939 1.9730229e-38
1.0985233 0.23172471 -0.41901037 1.9637679e-38
1.0986069 0.23508072 -0.41782176 1.9545125e-38
1.0985281 0.23817514 -0.41610524 1.9730232e-38
1.0988301 0.24189819 -0.41561973 1.9822422e-38
1.0987124 0.24493809 -0.413773 1.9545478e-38
1.0994513 0.24862371 -0.41504323 2.3509886e-38
1.0995547 0.25666097 -0.41181117 1.9637315e-38
1.0995555 0.25993451 -0.41033015 1.9638391e-38
1.1004089 0.26390645 -0.41192719 2.1390099e-38
1.0997201 0.26680809 -0.40786934 2.0006096e-38
1.099522 0.26974058 -0.40575093 1.8991944e-38
1.0996034 0.27316308 -0.40452367 1.9083782e-38
1.1007509 0.27773723 -0.40701783 1.9453994e-38
1.101211 0.29154715 -0.40258858 1.9546546e-38
1.101014 0.2941983 -0.40060252 1.9729146e-38
1.1009332 0.29740709 -0.398826 1.9453281e-38
1.1007321 0.30037564 -0.3966791 1.9083778e-38
1.1014049 0.30556932 -0.39700344 2.3509886e-38
1.1013809 0.30923897 -0.39524385 2.1205348e-38
1.10245 0.31446338 -0.39713162 1.9175611e-38
1.102743 0.31871256 -0.39637136 2.1297185e-38
1.1028407 0.32568473 -0.39359897 2.1297186e-38
1.1026814 0.32873982 -0.39157984 2.1111717e-38
1.1035106 0.33705226 -0.39111233 1.8805741e-38
1.1035981 0.34493756 -0.3878859 1.9357841e-38
1.1035836 0.34839925 -0.38625878 1.9450394e-38
1.1034641 0.3515625 -0.38434878 1.926565e-38
1.1037126 0.35564834 -0.38348532 1.9452192e-38
1.1037601 0.35927379 -0.38203126 1.9175246e-38
1.1041807 0.36357236 -0.38175687 1.8991574e-38
1.104678 0.36810446 -0.38168177 1.8529168e-38
1.1052086 0.37641162 -0.38002813 1.9174526e-38
1.10506 0.38322008 -0.37634939 1.9451109e-38
1.1051263 0.38697791 -0.37491012 1.9451109e-38
1.1051377 0.39016303 -0.37351096 2.2401756e-38
1.1062047 0.40437028 -0.37131804 1.8990499e-38
1.1059672 0.40740758 -0.36899528 1.8989782e-38
1.1060296 0.41122055 -0.36751527 1.8896859e-38
1.1062413 0.41532359 -0.36649778 1.9173807e-38
1.1073749 0.42883289 -0.36488608 1.88965e-38
1.1073648 0.43251887 -0.36317465 1.9081246e-38
1.1074935 0.45357776 -0.35413963 1.8341884e-38
1.1082205 0.45878837 -0.35467061 1.6866387e-38
1.1086324 0.46606243 -0.35301298 1.6589076e-38
1.1084131 0.4692454 -0.35069671 1.6865301e-38
1.1088356 0.47425264 -0.35010889 1.7050047e-38
1.1091734 0.49264613 -0.34311453 1.575824e-38
1.1100286 0.49839413 -0.3439132 1.4557891e-38
1.1096885 0.50099176 -0.34138161 1.5664961e-38
1.1098422 0.5053761 -0.34000582 1.5110348e-38
1.109733 0.50902438 -0.33791706 1.3268239e-38
1.1099035 0.51345515 -0.33658683 1.4097629e-38
1.1099226 0.51742131 -0.33486474 1.4006506e-38
1.1107515 0.52316898 -0.33555895 1.2807965e-38
1.1107687 0.52715605 -0.3338196 1.2532098e-38
1.1114368 0.53302431 -0.33381864 1.2715046e-38
1.1112106 0.53629041 -0.33143753 1.2438103e-38
1.1113524 0.54071295 -0.32999745 1.2254429e-38
1.1111259 0.54398537 -0.32761198 1.2070393e-38
1.1110682 0.54780519 -0.32565019 1.1976395e-38
1.1121548 0.55448627 -0.32694718 9.0243467e-39
1.1125399 0.55954874 -0.32618463 8.377171e-39
1.1124392 0.56326878 -0.32409772 8.8377666e-39
1.1123053 0.56785619 -0.32148439 8.2881942e-39
1.1120762 0.57115823 -0.31907552 7.9194215e-39
1.1123493 0.57611763 -0.31791422 7.9201347e-39
1.1123569 0.58001864 -0.31617576 7.2722444e-39
1.1123891 0.584216 -0.31440139 6.9974834e-39
1.1134031 0.59105819 -0.31533608 6.1652102e-39
1.1134098 0.59498858 -0.31358048 5.9783134e-39
1.1133146 0.59824717 -0.31172454 6.9917521e-39
1.1134168 0.60152858 -0.31064329 6.6226024e-39
1.1136357 0.6051929 -0.30985361 7.0871609e-39
1.113574 0.60913932 -0.3078191 7.3630387e-39
1.1134479 0.6135897 -0.30529931 8.8388933e-39
1.1132667 0.61739469 -0.30285293 7.6414305e-39
1.1141992 0.62391263 -0.30360973 1.4096551e-38
1.1143703 0.62871724 -0.30211288 1.3636651e-38
1.1148192 0.63428146 -0.30137703 1.6770954e-38
1.1146802 0.63801312 -0.29913169 1.5480563e-38
1.1149381 0.64317024 -0.29782096 1.5480197e-38
1.1147025 0.64656103 -0.29534504 1.5202887e-38
1.1144668 0.64995211 -0.2928693 1.4557158e-38
1.1148627 0.65572745 -0.29182735 1.7230468e-38
1.1156918 0.6619817 -0.29229274 1.6862769e-38
1.1160041 0.66742629 -0.29106691 1.6494702e-38
1.1162837 0.67251402 -0.28987366 1.6956055e-38
1.116367 0.677158 -0.28809994 1.7231924e-38
1.116128 0.6805923 -0.28559127 1.6402151e-38
1.1161758 0.68484735 -0.28385255 1.6126283e-38
1.1167225 0.69130486 -0.2831015 1.6218839e-38
1.1176711 0.69818759 -0.28375766 1.6309952e-38
1.1174294 0.70164919 -0.28122586 1.5941886e-38
1.1179026 0.70789087 -0.28027999 1.5480911e-38
1.1177052 0.7126658 -0.27732992 1.5664587e-38
1.1179851 0.71677995 -0.27657858 1.5756068e-38
1.1178294 0.72174734 -0.27370647 1.5387643e-38
1.1180445 0.72702777 -0.2721687 1.5387999e-38
1.1193765 0.74010229 -0.27154407 1.5666019e-38
1.1193013 0.74432266 -0.26933143 1.5666391e-38
1.1194535 0.74946076 -0.26760834 1.5664586e-38
1.1194615 0.75403023 -0.26556775 1.5573108e-38
1.119791 0.75959563 -0.26435632 1.5296875e-38
1.1195891 0.76242721 -0.26226878 1.502065e-38
1.1199521 0.76746088 -0.26143166 1.5480182e-38
1.1203643 0.772246 -0.26090372 1.538727e-38
1.1207894 0.77762455 -0.26015687 1.4742994e-38
1.1217761 0.78605372 -0.26026347 1.4191255e-38
1.1215252 0.78963387 -0.25764158 1.4466766e-38
1.1212744 0.79321402 -0.25501972 1.4834464e-38
1.1211624 0.79857397 -0.25214449 1.4927014e-38
1.121585 0.80447954 -0.25114951 1.6217397e-38
1.1218083 0.80913508 -0.24992765 1.4373125e-38
1.1221539 0.81585467 -0.2482567 1.732485e-38
1.1229249 0.82322001 -0.24798745 1.4651505e-38
1.1228945 0.82780701 -0.24578631 1.4283082e-38
1.1226401 0.831433 -0.2431301 1.3914295e-38
1.1225555 0.83582646 -0.2408012 1.3269286e-38
1.1225801 0.84067762 -0.23869926 1.3269288e-38
1.1232561 0.84808952 -0.23803049 1.3729915e-38
1.1232783 0.85296792 -0.23590732 1.3822473e-38
1.124482 0.86170697 -0.23673713 1.4189084e-38
1.1242243 0.86537665 -0.23404729 1.3820306e-38
1.1247251 0.8725065 -0.23280846 1.2992705e-38
1.1249809 0.87816793 -0.2312602 1.2160426e-38
1.1253146 0.88458002 -0.22968158 1.1882752e-38
1.1253304 0.88953698 -0.22749721 1.1699085e-38
1.1247941 0.89198035 -0.22425438 1.1514694e-38
1.1252539 0.89703256 -0.22379442 1.2712554e-38
1.125911 0.90464818 -0.22295719 1.4004012e-38
1.1260444 0.90892708 -0.2215488 1.1330309e-38
1.1265111 0.91509855 -0.22060852 1.261998e-38
1.1270237 0.92176521 -0.21962674 1.1701242e-38
1.1267592 0.9255119 -0.21687545 1.3913233e-38
1.1267676 0.93054807 -0.21462551 1.2993422e-38
1.1271256 0.93683171 -0.21320182 1.2900874e-38
1.1271321 0.94188857 -0.21093491 1.2348416e-38
1.1287675 0.95313263 -0.21234822 1.1611225e-38
1.1282855 0.95673698 -0.20879498 1.2071853e-38
1.1285398 0.96222544 -0.20731911 1.0689629e-38
1.1282941 0.9669385 -0.20420434 1.1241034e-38
1.1280597 0.97085202 -0.20149666 1.0964453e-38
1.1286252 0.97758317 -0.20069623 8.5669587e-39
1.1286613 0.98292732 -0.19841741 7.6432045e-39
1.1291269 0.99371588 -0.19537956 9.4896394e-39
1.1293374 1.0014238 -0.1927229 9.5814805e-39
1.1293352 1.0066048 -0.19036469 1.0134293e-38
1.1297919 1.0134854 -0.18906331 1.1610855e-38
1.130381 1.0197093 -0.18858728 1.0966936e-38
1.1301665 1.0231005 -0.18619601 1.0597421e-38
1.1303594 1.0291843 -0.18420561 1.0781093e-38
1.0963051 0.15495528 -0.44498482 1.926925e-38
1.0970347 0.15896809 -0.44607016 1.8994107e-38
1.0971447 0.16217199 -0.44505504 1.9085586e-38
1.0973694 0.1653997 -0.44448689 2.3233662e-38
1.0971274 0.1680024 -0.44234309 2.1297186e-38
1.0970895 0.17479527 -0.43911299 2.0651475e-38
1.0977277 0.17890675 -0.4397887 1.9270329e-38
1.0975374 0.18174285 -0.43774572 1.9362167e-38
1.0979909 0.18548252 -0.43785557 1.9546554e-38
1.0980045 0.1886161 -0.43648893 1.9914978e-38
1.0982053 0.19221832 -0.43565562 2.1389395e-38
1.0981787 0.19511965 -0.43423453 1.9638748e-38
1.0982322 0.19890751 -0.43272978 1.9637676e-38
1.0990217 0.20273042 -0.43413964 2.07451e-38
1.0990696 0.20908077 -0.43145138 2.1298267e-38
1.0989856 0.21197359 -0.4298054 2.3509527e-38
1.0988648 0.21499445 -0.427955 2.3509527e-38
1.0990143 0.21963947 -0.42644411 1.9453286e-38
1.0991253 0.22300555 -0.42535979 1.9730585e-38
1.0991322 0.22621565 -0.42393199 1.9546201e-38
1.0998578 0.23052174 -0.42486846 1.9545478e-38
1.1000167 0.23399244 -0.42392766 1.9546197e-38
1.1005975 0.23749188 -0.42465311 2.1205708e-38
1.0998247 0.24012959 -0.42038044 1.9452925e-38
1.0996284 0.24303399 -0.41828278 1.9637312e-38
1.1004016 0.24758886 -0.41929603 1.9453282e-38
1.1002042 0.25050631 -0.41718721 1.9269247e-38
1.1011996 0.26590249 -0.41416964 1.9176341e-38
1.1012696 0.27163118 -0.41185123 2.1206068e-38
1.1020839 0.27641562 -0.41292351 2.1204988e-38
1.1025143 0.28064293 -0.41272029 1.9361078e-38
1.1023797 0.29646674 -0.40501055 1.9453276e-38
1.1025919 0.3005999 -0.40398151 2.3509886e-38
1.1031352 0.30487368 -0.40420723 2.1297183e-38
1.1029983 0.30864927 -0.40194997 2.1113512e-38
1.1034003 0.31255627 -0.40177947 1.9544392e-38
1.1036905 0.32011586 -0.39950714 2.1204629e-38
1.1039692 0.32737672 -0.3973248 1.9175972e-38
1.1036744 0.3302063 -0.39486834 1.9359276e-38
1.1046658 0.33898234 -0.39483625 1.9544389e-38
1.1050251 0.35018834 -0.39118612 1.9449674e-38
1.1047535 0.35383868 -0.38844973 1.8527007e-38
1.1048005 0.35745823 -0.38699612 1.917309e-38
1.1045921 0.36050776 -0.3847841 1.8897226e-38
1.1060461 0.37059015 -0.38600132 1.8897943e-38
1.1065196 0.3787747 -0.38417554 1.8436965e-38
1.1064333 0.38216311 -0.3822957 1.8989057e-38
1.1066279 0.38974091 -0.3796348 1.9080888e-38
1.106541 0.39314705 -0.37774476 1.8343684e-38
1.1073992 0.39843735 -0.37876281 1.7974907e-38
1.1074902 0.41039321 -0.37370473 1.8159652e-38
1.1075342 0.41775373 -0.37054297 1.815785e-38
1.1075692 0.42151609 -0.36897624 1.7698676e-38
1.1088288 0.43010831 -0.37009516 1.6222464e-38
1.1088443 0.43919322 -0.36603826 1.6127744e-38
1.1088185 0.44648436 -0.36263043 1.5943703e-38
1.1087276 0.44999677 -0.36067528 1.5021405e-38
1.1089939 0.45652154 -0.35877791 1.456007e-38
1.1099329 0.46232587 -0.35988444 1.3822129e-38
1.1100112 0.47014028 -0.35665357 1.3085283e-38
1.1099755 0.47384837 -0.35482946 1.3268948e-38
1.1104261 0.47882047 -0.35436943 1.3638455e-38
1.1111354 0.5043208 -0.34563199 1.2070035e-38
1.1110985 0.50768614 -0.34395987 1.3265341e-38
1.1112193 0.51197642 -0.34249535 1.243773e-38
1.1113778 0.51662397 -0.34101936 1.1146986e-38
1.1119437 0.52549958 -0.33924803 6.6236478e-39
1.1122217 0.53013849 -0.33825219 5.9754057e-39
1.1123654 0.53454429 -0.33682653 5.8828527e-39
1.1121387 0.53781134 -0.33444273 6.2534233e-39
1.1121788 0.5419203 -0.33273926 6.3499391e-39
1.1123631 0.54649299 -0.33140039 6.3510336e-39
1.1122445 0.54992491 -0.32937208 6.4410852e-39
1.1129515 0.55531138 -0.32974449 5.7989598e-39
1.1134738 0.56108582 -0.32920578 7.2718968e-39
1.1134169 0.56495214 -0.32722664 7.5466929e-39
1.1134528 0.56912315 -0.32547835 7.9151223e-39
1.1132231 0.5724296 -0.32306492 8.2857027e-39
1.1135489 0.57855254 -0.32158589 8.5619308e-39
1.1136005 0.58261049 -0.31995156 9.207659e-39
1.113871 0.58760029 -0.31876585 9.4846102e-39
1.1145351 0.59444523 -0.31830645 1.6494714e-38
1.1145667 0.59867799 -0.31651324 1.6862421e-38
1.1146855 0.60343057 -0.31483182 1.8801045e-38
1.1144794 0.60688657 -0.31244501 1.8708488e-38
1.1147555 0.61152905 -0.31143892 1.7048592e-38
1.1148496 0.61602503 -0.30977488 1.6679457e-38
1.1145375 0.62013423 -0.30666956 1.6217046e-38
1.1156052 0.62758344 -0.30754331 2.0092161e-38
1.1159705 0.63209206 -0.30695266 1.8799247e-38
1.1161295 0.63717884 -0.30527976 1.6864564e-38
1.1162139 0.64143097 -0.30368844 1.8707053e-38
1.115891 0.64478552 -0.30088153 1.6863135e-38
1.11598 0.64936149 -0.29916161 1.6863133e-38
1.1163033 0.65482855 -0.29796988 1.6861698e-38
1.1165874 0.65988886 -0.29680693 1.6493986e-38
1.1173744 0.6660496 -0.2971468 1.6126284e-38
1.1176198 0.6712485 -0.29576632 1.5297974e-38
1.1176121 0.67553329 -0.2937935 1.6033734e-38
1.1174591 0.67928493 -0.29148331 1.5940097e-38
1.1183653 0.68679303 -0.29168686 1.6033724e-38
1.1182967 0.6909157 -0.28954494 1.621884e-38
1.1185436 0.69622862 -0.28811863 1.6125564e-38
1.1189438 0.70102459 -0.28753793 1.5850772e-38
1.1191187 0.70609599 -0.28593484 1.6034094e-38
1.1191972 0.71082413 -0.28410453 1.6494712e-38
1.1194035 0.71627927 -0.28245187 1.8337546e-38
1.1194068 0.72022253 -0.28067747 1.667838e-38
1.1197116 0.72587103 -0.27932996 1.6771641e-38
1.1200088 0.73150885 -0.27795693 1.649506e-38
1.1200827 0.73630029 -0.27607915 1.6125917e-38
1.1200628 0.73874587 -0.27489114 1.584934e-38
1.1208352 0.7451849 -0.27504662 1.5204335e-38
1.1213405 0.75143868 -0.27422312 1.4925946e-38
1.1210927 0.75497591 -0.27163279 1.4649712e-38
