# .PCD v0.7 - Point Cloud Data file format
VERSION 0.7
FIELDS x y z rgb
SIZE 4 4 4 4
TYPE F F F F
COUNT 1 1 1 1
WIDTH 1042
HEIGHT 1
VIEWPOINT 0 0 0 1 0 0 0
POINTS 1042
DATA ascii
-1.3837963 1.2930268 -1.7422197 1.2361105e-38
-1.3849754 1.2993354 -1.7358172 1.5309563e-38
-1.3834901 1.3119416 -1.7373029 1.0797292e-38
-1.3846068 1.3176877 -1.7313106 9.9693544e-39
-1.3846759 1.3243066 -1.7289345 1.5951314e-38
-1.3850838 1.3301668 -1.7255419 9.1396595e-39
-1.3844531 1.3404764 -1.7245858 1.1617074e-38
-1.3896495 1.4101148 -1.6829687 7.3468397e-40
-1.3594034 0.77745265 -1.9979932 1.9920034e-38
-1.3599712 0.78394502 -1.9938036 2.0104063e-38
-1.360013 0.79264134 -1.9908634 2.0287733e-38
-1.3610506 0.79855788 -1.9851118 2.0104422e-38
-1.3626245 0.83301586 -1.9682273 2.0380647e-38
-1.3649315 0.87601584 -1.9458816 2.0656515e-38
-1.3655033 0.88260692 -1.9416445 2.0289171e-38
-1.3660183 0.88942933 -1.9375457 2.0656514e-38
-1.3665667 0.9035669 -1.9309803 2.0933095e-38
-1.3692064 0.94968843 -1.9063985 2.084126e-38
-1.3716811 0.99282813 -1.8833845 2.0747988e-38
-1.3724189 1.0087439 -1.8755453 2.0749426e-38
-1.3718743 1.0175849 -1.8747391 2.1116769e-38
-1.3724548 1.0243258 -1.8704228 2.1024218e-38
-1.373502 1.0548475 -1.8567559 2.1024572e-38
-1.3738821 1.0700979 -1.8504602 2.0839102e-38
-1.37525 1.0837232 -1.8410122 2.0747629e-38
-1.3754816 1.0997534 -1.8350179 2.0746196e-38
-1.3782076 1.1408455 -1.8117265 2.037993e-38
-1.3771566 1.1511288 -1.8123407 2.0470328e-38
-1.3797683 1.1634595 -1.7986828 2.028665e-38
-1.3803514 1.1701926 -1.7943591 1.9917873e-38
-1.3810689 1.1871523 -1.7862602 2.028666e-38
-1.3821104 1.1947179 -1.7799668 2.0009347e-38
-1.3834379 1.2340451 -1.7624384 1.7432575e-38
-1.3846067 1.2402859 -1.7560945 1.4571622e-38
-1.3851705 1.2558275 -1.7490226 1.4661302e-38
-1.3845994 1.2743949 -1.7452 1.4292161e-38
-1.3855923 1.2811694 -1.7393395 1.8719348e-38
-1.3858057 1.2993919 -1.7327116 1.1344456e-38
-1.3865137 1.3064381 -1.7278234 1.3370964e-38
-1.3872218 1.313484 -1.7229351 1.6134294e-38
-1.3879919 1.3179111 -1.7186539 1.5215915e-38
-1.3876882 1.352463 -1.7087198 8.4077908e-45
-1.3912272 1.3900551 -1.683525 2.6758719e-39
-1.3626097 0.78066421 -1.985044 2.0012228e-38
-1.3683528 0.88639915 -1.9298371 2.0656873e-38
-1.367189 0.89531922 -1.9313072 2.0471765e-38
-1.368942 0.9004516 -1.9231465 2.0747992e-38
-1.3691849 0.91521436 -1.9175169 2.0655074e-38
-1.3699963 0.92577279 -1.9111195 2.0747989e-38
-1.3713952 0.93137628 -1.9041238 2.0931302e-38
-1.3727845 0.98327345 -1.8823419 2.0838389e-38
-1.3745562 0.98861372 -1.8740451 2.1483389e-38
-1.375286 1.002773 -1.8667978 1.5588278e-38
-1.3748155 1.0132424 -1.8651949 1.8539994e-38
-1.3742609 1.0299871 -1.8618952 2.0749068e-38
-1.3759508 1.0428281 -1.8515006 2.0473561e-38
-1.3773655 1.0485508 -1.844409 2.0933814e-38
-1.3804023 1.116761 -1.8112783 2.0378491e-38
-1.3812631 1.1277378 -1.8045629 2.056432e-38
-1.3818491 1.1345798 -1.800194 2.0471407e-38
-1.3812547 1.1522839 -1.7967348 2.019626e-38
-1.380303 1.1627839 -1.7969105 2.0377772e-38
-1.3809965 1.1696844 -1.7921237 2.0284859e-38
-1.3820715 1.1757311 -1.7861907 2.0102631e-38
-1.3835013 1.1815952 -1.7789966 2.0102987e-38
-1.3840916 1.1884948 -1.7745929 2.0287376e-38
-1.3837304 1.1987269 -1.7726593 2.0008635e-38
-1.3849113 1.2030433 -1.7668878 1.3841284e-38
-1.3835101 1.2156373 -1.7680637 1.7248545e-38
-1.3846754 1.2218585 -1.7617401 1.5683369e-38
-1.3877563 1.2695649 -1.7350103 1.0881618e-38
-1.3883516 1.2765658 -1.7305552 1.0700144e-38
-1.3912252 1.3181874 -1.7065442 1.042679e-38
-1.3899809 1.3397616 -1.7042629 1.1063141e-38
-1.3906912 1.3468376 -1.6993567 2.1818217e-42
-1.3938431 1.3762465 -1.6782215 1.0234839e-38
-1.3942271 1.3843073 -1.6742128 1.0327385e-38
-1.3944795 1.4020674 -1.6675878 8.5753076e-39
-1.3655045 0.77706105 -1.9754354 1.9736363e-38
-1.3649937 0.78645378 -1.9743268 1.9828198e-38
-1.3697213 0.86217803 -1.9325042 2.0380647e-38
-1.3710783 0.89746493 -1.9161605 2.0562522e-38
-1.3718597 0.9039554 -1.911177 2.0840545e-38
-1.3731756 0.93662441 -1.8958247 1.9643811e-38
-1.3772131 1.0177377 -1.8548415 1.6140011e-38
-1.3766798 1.0266082 -1.8539838 1.6142217e-38
-1.378372 1.0394211 -1.8435901 1.5314586e-38
-1.3813889 1.0739592 -1.8213152 2.0470326e-38
-1.3812989 1.0859497 -1.8178101 2.0470328e-38
-1.3831857 1.1243651 -1.7984948 2.0193745e-38
-1.3826902 1.1338583 -1.7972975 2.0561803e-38
-1.3833781 1.1407118 -1.7925448 2.0194102e-38
-1.3840663 1.147565 -1.7877923 2.0193746e-38
-1.3847543 1.1544185 -1.7830397 2.0377056e-38
-1.3853667 1.1623542 -1.7782223 1.0695808e-38
-1.3860888 1.1694944 -1.7732508 2.0652925e-38
-1.3868123 1.1764904 -1.7683215 2.0009717e-38
-1.3867666 1.1848844 -1.7658039 1.8812262e-38
-1.3866633 1.1937455 -1.7633505 2.0191947e-38
-1.3893344 1.2404833 -1.7384543 1.4569855e-38
-1.3895334 1.2614013 -1.7310171 1.7703402e-38
-1.3910969 1.2719933 -1.7218128 1.8535681e-38
-1.3904493 1.3033805 -1.7141703 1.153278e-38
-1.3944271 1.330062 -1.6908382 1.410528e-38
-1.3936086 1.3414457 -1.6902369 1.383156e-38
-1.3947254 1.3473368 -1.6841978 1.3831184e-38
-1.3676268 0.76884401 -1.9701761 1.9458702e-38
-1.3672664 0.77571374 -1.9693158 2.0470322e-38
-1.3685657 0.78867185 -1.9603368 2.0654352e-38
-1.3677343 0.79710805 -1.9607266 1.9827832e-38
-1.3683859 0.80361176 -1.9562212 1.9827837e-38
-1.3708067 0.84503603 -1.9339575 2.010262e-38
-1.3705661 0.8604449 -1.9299182 2.037885e-38
-1.3775362 0.93046373 -1.881585 1.2733495e-38
-1.3797871 0.98903435 -1.8544624 1.3834072e-38
-1.3793176 0.99785131 -1.8533849 8.6753855e-39
-1.3810631 1.0038447 -1.8449764 1.2083377e-38
-1.3809901 1.0117587 -1.8427135 1.1907615e-38
-1.379854 1.0208099 -1.8440398 1.4484788e-38
-1.3810427 1.0355155 -1.8349112 1.8906972e-38
-1.3825411 1.048601 -1.8251508 1.1440562e-38
-1.3806351 1.0597154 -1.8286781 2.1022417e-38
-1.3838929 1.0620865 -1.8158069 2.1295772e-38
-1.3831131 1.0718724 -1.8155724 2.1206444e-38
-1.3830292 1.0838398 -1.8120525 2.0655435e-38
-1.3843906 1.0974143 -1.8026445 2.0285579e-38
-1.3850713 1.1042017 -1.7979406 2.0286657e-38
-1.3875532 1.1163944 -1.7848091 2.1206086e-38
-1.3863003 1.1359103 -1.7832186 2.1022055e-38
-1.3869858 1.1427444 -1.7784827 2.0838021e-38
-1.3876709 1.1495788 -1.7737465 2.0654355e-38
-1.3871936 1.1591377 -1.7724601 2.0744755e-38
-1.3891625 1.1634378 -1.763763 2.0468171e-38
-1.3715276 0.77039438 -1.9551772 1.1537016e-38
-1.3719839 0.79166251 -1.946671 1.6792956e-38
-1.3743805 0.83278793 -1.9245929 1.8080808e-38
-1.3748815 0.85447258 -1.9157866 2.1298637e-38
-1.3778594 0.91416669 -1.8856014 1.6146166e-38
-1.3794268 0.93517172 -1.8730484 1.383481e-38
-1.3807514 0.9484055 -1.8638865 1.4848234e-38
-1.3810121 0.96355402 -1.8580668 1.6321555e-38
-1.3824301 0.99288648 -1.8434027 2.1668502e-38
-1.3828285 1.0003251 -1.8395396 2.1390481e-38
-1.3823718 1.009167 -1.8384068 2.0100109e-38
-1.3830429 1.0158656 -1.8337668 1.5399605e-38
-1.3844844 1.0222527 -1.8263617 1.4022059e-38
-1.3853792 1.0442539 -1.815991 1.8532786e-38
-1.3863982 1.0502619 -1.8102788 1.2634796e-38
-1.3870715 1.0569791 -1.8056245 8.7618302e-39
-1.3873144 1.0763093 -1.7985321 1.6236925e-38
-1.3865449 1.0861422 -1.7982441 2.0010433e-38
-1.3861223 1.0953037 -1.7968818 2.0838747e-38
-1.3891342 1.1313021 -1.7741578 8.5756355e-39
-1.3901005 1.1542919 -1.7632043 8.4863378e-39
-1.3907855 1.161127 -1.7584691 8.2104739e-39
-1.3928299 1.1830233 -1.7438568 2.1205728e-38
-1.3714583 0.76327133 -1.9577161 9.9678984e-39
-1.3741208 0.78220856 -1.9417528 1.457378e-38
-1.3736318 0.78965694 -1.9411862 8.4024238e-39
-1.3742787 0.79612046 -1.9367119 8.3955462e-39
-1.3749254 0.80258405 -1.9322381 8.3944714e-39
-1.3754004 0.82405078 -1.9235981 1.4856512e-38
-1.3766916 0.83727688 -1.9145627 8.4895383e-39
-1.3808584 0.92530328 -1.870886 1.383517e-38
-1.3832755 0.93713278 -1.8581115 2.1483391e-38
-1.3833679 0.96813327 -1.8478422 1.8353411e-38
-1.3849869 0.98946261 -1.8349935 1.7064484e-38
-1.3856531 0.99612463 -1.8303831 1.8537454e-38
-1.3863195 1.0027868 -1.8257726 2.0285938e-38
-1.3858707 1.0116167 -1.8246137 2.1114971e-38
-1.3865393 1.0182974 -1.8199888 2.1667421e-38
-1.3857403 1.0278966 -1.8198863 2.194329e-38
-1.3879951 1.0637308 -1.8000287 9.5188509e-39
-1.388271 1.0840418 -1.7924997 8.5824514e-39
-1.3916596 1.1178945 -1.7690617 8.576353e-39
-1.3770243 0.79264146 -1.9276179 2.0839463e-38
-1.3849595 0.93508357 -1.8525069 1.4299333e-38
-1.3856188 0.94167608 -1.8479446 1.2088766e-38
-1.388018 1.0007285 -1.8201166 1.2079798e-38
-1.389582 1.0295916 -1.8050599 1.2080516e-38
-1.3902503 1.0362731 -1.800436 1.4298589e-38
-1.3898233 1.0452023 -1.7991651 1.4023137e-38
-1.3935498 1.0824765 -1.7733754 2.1667065e-38
-1.3136268 1.0016168 -2.0964086 2.2316024e-38
-1.329568 1.0695034 -2.0154047 2.240786e-38
-1.3390868 1.3546214 -1.8887225 1.9923279e-38
-1.3414351 1.3584112 -1.8787782 1.9738532e-38
-1.3444813 1.1161689 -1.9450166 2.240786e-38
-1.3485447 1.0429548 -1.9533528 2.240786e-38
-1.357263 0.84041691 -1.9857908 2.0751233e-38
-1.3715671 0.85396159 -1.928273 1.7807475e-38
-1.3723159 0.95310944 -1.8937422 2.1211846e-38
-1.3919368 1.2630854 -1.7215421 1.8998467e-38
-1.1851516 1.847103 -2.3033433 1.6322979e-38
-1.1860592 1.8554471 -2.2972968 1.6228632e-38
-1.197793 1.8253322 -2.2633147 1.6414458e-38
-1.2242444 1.7873218 -2.1771429 1.8715374e-38
-1.1397117 1.5638796 -2.5629678 1.0515405e-38
-1.1188012 1.1944516 -2.7589991 2.3509886e-38
-1.1730136 1.8136395 -2.3591852 1.5678337e-38
-1.1213075 1.1816281 -2.753787 2.3509886e-38
-1.1246696 1.1958209 -2.7367427 2.3509886e-38
-1.1256196 1.2037605 -2.7306685 2.3509886e-38
-1.1252289 1.2267834 -2.7247496 2.3505581e-38
-1.1262913 1.2346823 -2.7182708 2.2672224e-38
-1.1275088 1.2440794 -2.7107348 2.1294321e-38
-1.1271658 1.2541125 -2.7087979 1.9820993e-38
-1.1318207 1.2840276 -2.6819127 1.4563692e-38
-1.1451308 1.448972 -2.5796137 1.4478011e-38
-1.1498325 1.4893711 -2.5491977 1.9546564e-38
-1.1129141 1.1279697 -2.8021736 2.3509886e-38
-1.1171529 1.150438 -2.7792203 2.3509886e-38
-1.123392 1.1698487 -2.7498095 2.2123723e-38
-1.1239228 1.1877097 -2.7421165 2.0189771e-38
-1.1301035 1.2502478 -2.6991136 1.3924466e-38
-1.1329216 1.2728093 -2.681412 1.456547e-38
-1.1358001 1.2798007 -2.6684711 1.0975998e-38
-1.1841733 1.8389739 -2.3095829 1.6046755e-38
-1.1217806 1.1914027 -2.748898 1.3275473e-38
-1.1431684 1.3282877 -2.6255519 1.7977805e-38
-1.169481 1.6276593 -2.4318686 1.4112118e-38
-1.1200922 1.1097713 -2.7813139 1.6503746e-38
-1.1221931 1.1254058 -2.7684965 1.4752388e-38
-1.1232438 1.1332231 -2.7620876 1.4015179e-38
-1.1217383 1.1539712 -2.7610412 1.2724449e-38
-1.1227946 1.1618322 -2.7545965 1.2540063e-38
-1.1516603 1.3539996 -2.5857475 1.9546206e-38
-1.1233286 1.1147385 -2.7676909 1.4938233e-38
-1.1313069 1.1878949 -2.7146039 1.7056568e-38
-1.1372254 1.2394003 -2.6761079 1.9454007e-38
-1.1511101 1.3163145 -2.5998595 1.9546564e-38
-1.1527973 1.3238804 -2.5911636 1.9456896e-38
-1.1641794 1.4748632 -2.5005038 1.9547283e-38
-1.1812112 1.6612015 -2.3775175 1.7154529e-38
-1.1968322 1.8775928 -2.250154 1.632298e-38
-1.1246336 1.0826608 -2.7731102 1.254294e-38
-1.125675 1.0904183 -2.7667546 1.1623862e-38
-1.1390045 1.1398697 -2.7013631 1.7429325e-38
-1.150226 1.2781434 -2.6153681 1.9456537e-38
-1.1744817 1.530632 -2.4443438 1.9729877e-38
-1.1888522 1.6980093 -2.3373237 1.7152018e-38
-1.1885213 1.7299701 -2.3283203 1.6877229e-38
-1.1376941 1.0783721 -2.7259257 1.7891737e-38
-1.1470147 1.2728705 -2.6289959 1.9084508e-38
-1.146057 1.2970887 -2.6248019 1.9269981e-38
-1.1471155 1.3049747 -2.6183414 1.9362177e-38
-1.148174 1.3128607 -2.6118813 1.9362175e-38
-1.1734048 1.4723072 -2.4670231 1.9729877e-38
-1.1744052 1.5030234 -2.4534688 2.0010782e-38
-1.1785213 1.5225351 -2.4319177 2.0010423e-38
-1.1804806 1.549443 -2.4160175 2.0102258e-38
-1.1892725 1.676864 -2.3425312 1.7154169e-38
-1.1423559 1.0903671 -2.7047529 1.9274657e-38
-1.1457545 1.0949997 -2.6906343 1.8628214e-38
-1.1441537 1.2017339 -2.6624103 1.8993034e-38
-1.1451977 1.209514 -2.6560378 1.8993035e-38
-1.1444836 1.2200646 -2.6553147 1.8901556e-38
-1.1455307 1.2278644 -2.6489241 1.8992675e-38
-1.150085 1.2685971 -2.6189494 1.9084871e-38
-1.1511346 1.2764212 -2.6125414 1.9361817e-38
-1.1521845 1.2842454 -2.6061332 1.9269259e-38
-1.159049 1.3733808 -2.5520711 1.9638761e-38
-1.1769787 1.4562894 -2.4588645 2.000718e-38
-1.1848078 1.5475483 -2.4005368 2.0194094e-38
-1.1480821 1.0830787 -2.6857975 1.8628935e-38
-1.145125 1.1599687 -2.6721721 1.8808285e-38
-1.1496822 1.1845332 -2.6473637 1.8808643e-38
-1.1499145 1.2028412 -2.6406374 1.8901201e-38
-1.1845238 1.5326434 -2.4063644 2.0007178e-38
-1.1892956 1.574995 -2.3750632 1.7708059e-38
-1.1947908 1.634198 -2.3356762 1.954945e-38
-1.2006966 1.6725742 -2.3014314 1.917635e-38
-1.2067685 1.7286628 -2.2608974 1.8811892e-38
-1.1430179 1.0808628 -2.7053351 1.8257628e-38
-1.1444142 1.106126 -2.692055 1.8441658e-38
-1.1436795 1.1162717 -2.6915374 1.8716804e-38
-1.1481879 1.1560092 -2.6620522 1.8808643e-38
-1.1502527 1.1714108 -2.6494443 1.8717532e-38
-1.16672 1.2563281 -2.5610311 1.9549808e-38
-1.1937724 1.5784878 -2.3573003 2.0101901e-38
-1.1959194 1.6031637 -2.3414171 1.7708059e-38
-1.1986698 1.6167372 -2.3268456 2.0009345e-38
-1.205554 1.6930007 -2.2768321 1.9640208e-38
-1.1519129 1.1418805 -2.6527269 1.880972e-38
-1.154628 1.1777511 -2.6311469 1.8901916e-38
-1.159209 1.2176069 -2.6013541 1.9178507e-38
-1.1963036 1.5245719 -2.3651533 1.9915343e-38
-1.1992234 1.5892313 -2.333595 2.0377764e-38
-1.1993428 1.597185 -2.3306038 1.7892446e-38
-1.2107667 1.7079527 -2.2526646 1.8808287e-38
-1.2112292 1.7161041 -2.2483344 1.9363267e-38
-1.1579397 1.1610222 -2.6241913 1.8809723e-38
-1.1952331 1.4835436 -2.3822706 1.9915345e-38
-1.2011743 1.5451876 -2.3404443 2.0378125e-38
-1.2030989 1.5720353 -2.3246922 2.0378484e-38
-1.2074196 1.6273195 -2.2909262 2.01019e-38
-1.2078892 1.6379339 -2.2857819 1.9636606e-38
-1.2093278 1.6547595 -2.2750463 1.9365778e-38
-1.2161285 1.7202003 -2.2288086 1.9363983e-38
-1.2210461 1.7635392 -2.1966488 1.8715734e-38
-1.1559937 1.1003065 -2.650867 1.8717888e-38
-1.1570092 1.1078906 -2.6446626 1.899375e-38
-1.1986506 1.4605603 -2.376924 2.0838737e-38
-1.1606292 1.0942361 -2.6355767 1.8717526e-38
-1.170066 1.1348389 -2.5874908 1.8997358e-38
-1.1676517 1.1964396 -2.5767434 1.9454727e-38
-1.1876036 1.3111405 -2.4658384 2.056359e-38
-1.1722337 1.1141192 -2.5860667 1.909027e-38
-1.1749192 1.1390475 -2.5680997 1.9273944e-38
-1.1684555 1.1861149 -2.5770607 1.9546924e-38
-1.1982893 1.4003137 -2.3975575 2.0100095e-38
-1.2094836 1.5102162 -2.3207483 2.0099377e-38
-1.2109811 1.5370201 -2.3065989 2.0098657e-38
-1.1781784 1.1150277 -2.5636733 1.9181388e-38
-1.1740814 1.1784263 -2.5586059 1.9823149e-38
-1.1750941 1.1859949 -2.5524173 1.9548003e-38
-1.1761068 1.1935637 -2.5462289 1.9455809e-38
-1.16889 1.0747516 -2.6111028 1.8718608e-38
-1.2136042 1.4829624 -2.3141558 2.0099376e-38
-1.2201594 1.5527133 -2.2674503 1.9823509e-38
-1.225556 1.6259785 -2.2239275 2.0189052e-38
-1.1806087 1.0679237 -2.5697205 1.9366495e-38
-1.18595 1.124691 -2.5316861 1.9270701e-38
-1.1862195 1.1415724 -2.5252786 1.9644159e-38
-1.2202653 1.5043505 -2.282542 1.9088107e-38
-1.2240285 1.5557185 -2.2521033 2.0654708e-38
-1.1791056 1.0161854 -2.5918751 1.908991e-38
-1.1906805 1.1358354 -2.51053 1.945545e-38
-1.1977681 1.2110497 -2.4600961 2.0471757e-38
-1.2202659 1.4626167 -2.295903 2.120644e-38
-1.2243664 1.5065209 -2.2665992 1.9088108e-38
-1.1997956 1.1900868 -2.4592707 2.019589e-38
-1.1212643 1.1036382 -2.7789195 2.3509886e-38
-1.1224329 1.1618532 -2.7559345 2.3509886e-38
-1.136479 1.1067911 -2.721344 1.7063802e-38
-1.1442351 1.0388186 -2.7142723 2.0659754e-38
-1.1469328 1.0533272 -2.6995964 2.0566482e-38
-1.1487886 1.215266 -2.6408451 2.084127e-38
-1.1540371 1.0267773 -2.681685 1.9736727e-38
-1.1823012 1.6250378 -2.3850443 2.1670306e-38
-1.1894044 1.3757447 -2.4384573 2.2683366e-38
-1.1847038 1.0805384 -2.5504565 2.1118214e-38
-1.1865467 1.0870156 -2.5415316 2.1763216e-38
-1.1953589 1.4547516 -2.3910215 2.2867037e-38
-1.1978232 1.726655 -2.2947989 2.1116057e-38
-1.1862016 0.98725426 -2.5747569 2.1025658e-38
-1.1923406 1.0093855 -2.5448465 2.0841987e-38
-1.1937335 0.9865526 -2.5469787 2.1119647e-38
-1.2034043 1.2497848 -2.4267387 2.2591531e-38
-1.1996777 0.99164456 -2.5232484 2.1027093e-38
-1.1984739 1.0278267 -2.5161388 2.1763216e-38
-1.2001159 1.0429391 -2.5051959 2.1486632e-38
-1.201941 1.0492971 -2.4963744 2.1763218e-38
-1.2017777 1.093497 -2.4828284 2.1671741e-38
-1.2221599 1.7531834 -2.1958239 2.1945454e-38
-1.2039448 1.0120398 -2.500854 2.1394434e-38
-1.2057704 1.0443262 -2.4837286 2.185577e-38
-1.2054212 1.062287 -2.4792762 2.2131634e-38
-1.2076284 1.1659766 -2.4378695 2.2499695e-38
-1.2052054 0.963857 -2.5115948 2.0934541e-38
-1.2115382 1.1604562 -2.4251008 2.2683366e-38
-1.2236152 1.4373182 -2.2915509 2.3326215e-38
-1.2187374 1.0018357 -2.4491246 2.1579905e-38
-1.2227025 1.1092794 -2.3999801 2.2499695e-38
-1.2228252 1.1356635 -2.3910761 2.2775202e-38
-1.2288926 1.304418 -2.3144844 2.3326215e-38
-1.2353688 1.5477617 -2.2124896 1.0148443e-38
-1.2207263 0.94476837 -2.4600027 2.1395873e-38
-1.2280012 1.0154858 -2.4103115 2.2315307e-38
-1.2294706 0.93401754 -2.4309342 2.1304037e-38
-1.2319356 0.95997369 -2.4134593 2.1579902e-38
-1.232724 0.96727711 -2.4081895 2.1763575e-38
-1.2501687 1.5103972 -2.1694286 2.3509886e-38
-1.2529755 1.5248628 -2.1543624 6.0907228e-39
-1.2358304 0.95506924 -2.4005489 2.2039799e-38
-1.2515193 1.4154103 -2.1948218 2.3509886e-38
-1.239615 0.95031142 -2.3880024 2.1855409e-38
-1.2445687 1.0619434 -2.3338408 2.2682649e-38
-1.2488308 1.2144222 -2.2691724 2.3509886e-38
-1.2528774 1.3465288 -2.2118285 2.3509886e-38
-1.2578663 1.4429407 -2.1624098 2.3509886e-38
-1.2434747 0.9454484 -2.3752086 2.1947246e-38
-1.2429562 0.96275651 -2.3715951 2.185541e-38
-1.2520152 1.1561626 -2.2759876 2.3509886e-38
-1.2633529 1.5119842 -2.119904 1.0144084e-38
-1.2460201 0.95062989 -2.3640862 2.1947605e-38
-1.2501981 0.92884922 -2.3555276 2.1947605e-38
-1.2509692 0.93601942 -2.3503647 2.1579184e-38
-1.2618021 1.2217368 -2.218605 2.3509886e-38
-1.2713977 1.4970325 -2.0947816 1.3831926e-38
-1.2536393 0.94096452 -2.3388538 2.1763575e-38
-1.2560567 0.95428663 -2.3256013 2.1947605e-38
-1.2563497 0.97871572 -2.3166897 2.2222752e-38
-1.2753836 1.4896253 -2.082335 1.8993773e-38
-1.2572857 0.93635195 -2.3267741 2.1763573e-38
-1.2585907 0.95941842 -2.314537 2.1855409e-38
-1.262243 0.95470691 -2.3024664 2.1579185e-38
-1.2630101 0.96185195 -2.2973263 2.148735e-38
-1.2652563 1.0338858 -2.2659111 2.2314947e-38
-1.2659701 0.99118972 -2.2769284 2.1763216e-38
-1.2862995 1.3846667 -2.0753577 2.2681571e-38
-1.2770315 1.0770783 -2.2083027 2.2406423e-38
-1.2734617 0.91606349 -2.2731307 2.1394795e-38
-1.2759922 0.92893183 -2.2596025 2.1211121e-38
-1.2739401 0.93972385 -2.2637761 2.1578466e-38
-1.2764784 0.95263892 -2.2502036 2.1303676e-38
-1.2802749 1.0471053 -2.2058418 2.2313868e-38
-1.281042 1.0542784 -2.2006922 2.2222033e-38
-1.2773404 0.89507538 -2.2654305 2.1210044e-38
-1.2761911 0.90464151 -2.2666399 2.1302239e-38
-1.2776923 0.91868311 -2.2565632 2.1210045e-38
-1.2794665 0.92448342 -2.2481093 2.1302958e-38
-1.2870504 1.1223006 -2.1565745 2.2682289e-38
-1.2975193 1.4422508 -2.0152059 2.1944732e-38
-1.2801635 0.88363874 -2.2585959 2.0934897e-38
-1.2819463 0.92950463 -2.237282 2.1578463e-38
-1.3010162 1.2366865 -2.0680254 2.2681572e-38
-1.3030827 1.430801 -1.9981881 2.1944731e-38
-1.291693 0.97341686 -2.186985 2.2129478e-38
-1.2914405 0.99021161 -2.1825459 2.2038361e-38
-1.2935071 1.0370847 -2.1598542 2.2590094e-38
-1.2942636 1.0441831 -2.1547692 2.2497899e-38
-1.3026859 1.2741094 -2.0498354 2.2127683e-38
-1.308256 1.3648198 -2.0000813 1.9548733e-38
-1.3081373 1.3838183 -1.9944394 1.881298e-38
-1.2934091 0.96293259 -2.1839616 2.2037645e-38
-1.2951936 0.96869308 -2.1754825 2.1854691e-38
-1.2949268 0.98545349 -2.1711078 2.2222035e-38
-1.2956753 0.99247682 -2.1660762 2.2130198e-38
-1.3073729 1.1063296 -2.0861311 2.0657594e-38
-1.3079209 1.1152444 -2.0812392 2.0564679e-38
-1.3063327 1.2679818 -2.038239 2.0655805e-38
-1.3120089 1.4001116 -1.9748286 2.1669583e-38
-1.3109236 1.412287 -1.9749649 2.1393356e-38
-1.298576 0.96414715 -2.1643627 1.9549455e-38
-1.3096873 1.1206527 -2.0729406 2.231387e-38
-1.3103213 1.1252995 -2.0690958 2.2221319e-38
-1.3118511 1.1335143 -2.0607774 2.2312796e-38
-1.3132094 1.147221 -2.0513389 2.2681572e-38
-1.3126172 1.1586715 -2.0498741 2.2406425e-38
-1.312016 1.17668 -2.0463428 2.2406783e-38
-1.3149205 1.2250128 -2.0200689 2.2590454e-38
-1.3165535 1.4115255 -1.9542774 2.0746919e-38
-1.3143607 1.4251022 -1.9580828 2.0655081e-38
-1.3126893 1.0909814 -2.07128 2.2314589e-38
-1.3141401 1.1046469 -2.0615108 2.1854693e-38
-1.3139483 1.1150017 -2.0589082 2.2406065e-38
-1.3165777 1.1356416 -2.0425241 2.2681212e-38
-1.3180686 1.1729074 -2.0250487 2.2404986e-38
-1.3166991 1.1823384 -2.0271199 2.2406065e-38
-1.3189287 1.1908314 -2.0161111 2.2681214e-38
-1.3181469 1.3990571 -1.9523453 2.0655441e-38
-1.320842 1.4125705 -1.9379988 2.0286661e-38
-1.3171217 1.1102868 -2.0486197 2.2681572e-38
-1.3170969 1.1268173 -2.0434186 2.3049273e-38
-1.3190424 1.1322457 -2.034447 2.268193e-38
-1.3226696 1.227775 -1.9903744 2.22206e-38
-1.3234707 1.4178579 -1.926533 2.0471052e-38
-1.3190284 1.0816851 -2.0506892 2.2405707e-38
-1.3243116 1.1637093 -2.0047829 2.2220599e-38
-1.3257209 1.194423 -1.9897088 2.2036926e-38
-1.3216965 1.2829468 -1.9763263 2.212912e-38
-1.3226582 1.0587184 -2.0445473 2.203693e-38
-1.3273906 1.191823 -1.984334 2.2221316e-38
-1.3317503 1.2455527 -1.9509214 2.2221673e-38
-1.3250395 1.2953758 -1.9599181 2.1669223e-38
-1.327348 1.3460684 -1.9351038 2.1392637e-38
-1.3281244 1.353385 -1.9298745 2.1024219e-38
-1.3286815 1.3798485 -1.9193302 2.0379214e-38
-1.3242605 1.0381668 -2.045171 2.2404627e-38
-1.3284501 1.1224008 -2.0026236 2.222024e-38
-1.3311647 1.1860731 -1.9721431 2.2404627e-38
-1.3284873 1.2894062 -1.9490107 2.1577027e-38
-1.3273745 1.0257977 -2.037554 2.2404271e-38
-1.3321809 1.1163461 -1.9906914 2.222024e-38
-1.3327055 1.1313504 -1.9839374 2.2222033e-38
-1.3318149 1.3018018 -1.9326708 2.1392999e-38
-1.3336068 1.3261688 -1.9182061 2.1300083e-38
-1.3343768 1.3334317 -1.9130185 2.0932022e-38
-1.3352661 1.4054577 -1.886649 2.0101552e-38
-1.3337485 1.1133144 -1.9858342 2.2313869e-38
-1.3417007 1.3388455 -1.8840554 2.0195903e-38
-1.3318194 1.0734181 -2.0057802 2.2129119e-38
-1.3386035 1.2020221 -1.9393804 2.1944729e-38
-1.3248937 0.87424845 -2.0953021 2.1578103e-38
-1.34399 1.2457193 -1.9053621 2.1576668e-38
-1.3582011 1.3907797 -1.8060801 4.0627944e-39
-1.3381779 1.076111 -1.9812784 2.2036922e-38
-1.3389106 1.0830441 -1.9763343 2.1945088e-38
-1.3448588 1.2268434 -1.9081765 2.1577384e-38
-1.3456072 1.2339275 -1.9031254 2.1208606e-38
-1.3477615 1.2570344 -1.8877175 2.1117131e-38
-1.3455747 1.2798392 -1.8885458 2.0839828e-38
-1.3470874 1.2941679 -1.8783337 2.0563244e-38
-1.3458885 1.2001569 -1.9128932 2.13008e-38
-1.3473787 1.2142795 -1.9028302 2.1300443e-38
-1.3513716 1.2334281 -1.8818541 2.0839828e-38
-1.3521651 1.3043734 -1.8561879 1.9917162e-38
-1.3459991 0.90005231 -2.0085733 2.1577744e-38
-1.3466103 0.90663999 -2.0041914 2.1761776e-38
-1.348276 1.06883 -1.9460665 2.1577027e-38
-1.3519381 1.1552885 -1.9047678 2.1301879e-38
-1.3547397 1.2101071 -1.8767996 2.1207174e-38
-1.3502567 0.93808573 -1.9805658 2.1482313e-38
-1.3535169 0.98915148 -1.9520941 2.1299721e-38
-1.3537924 1.1270128 -1.9069273 2.1300086e-38
-1.3570628 1.1807538 -1.8775609 2.0931304e-38
-1.3571402 1.1978788 -1.8717902 2.0563245e-38
-1.3516959 1.0230352 -1.9480149 2.1576305e-38
-1.3626702 1.1025386 -1.8817576 2.1023137e-38
-1.3596801 0.94692969 -1.9426993 2.1114614e-38
-1.358142 0.96456259 -1.942772 2.1206807e-38
-1.3547393 1.0185429 -1.9381387 2.1484111e-38
-1.3604119 1.1331615 -1.8803481 2.0655438e-38
-1.3682042 1.1495632 -1.8461257 2.0839102e-38
-1.3608462 0.95325941 -1.9363369 2.1206445e-38
-1.3633792 0.98254454 -1.9175432 2.111461e-38
-1.3629286 0.99092734 -1.9165343 2.0747268e-38
-1.3609906 1.1251709 -1.8807551 2.0931663e-38
-1.3704042 1.1384461 -1.8415056 2.0470682e-38
-1.3733313 1.1496828 -1.8270259 2.0562875e-38
-1.3698254 0.97755945 -1.8951728 2.0930937e-38
-1.3619418 1.0330074 -1.9067287 2.0747991e-38
-1.3682876 0.92086816 -1.9190422 2.0563593e-38
-1.3678255 0.93643367 -1.9157764 2.0746899e-38
-1.3927177 1.3916059 -1.6774876 1.0101905e-39
-1.3665776 0.8433336 -1.9502262 2.0472483e-38
-1.3670665 0.85005599 -1.9462559 2.0564676e-38
-1.3704882 0.92534214 -1.9094285 2.0378844e-38
-1.3761653 0.97601944 -1.872095 2.0288089e-38
-1.3803588 1.0957464 -1.8181688 2.0561802e-38
-1.3853787 1.207819 -1.7636203 1.9272865e-38
-1.3757401 0.93229747 -1.8876755 2.0195534e-38
-1.3763225 0.93863612 -1.8834805 2.0470685e-38
-1.376905 0.94497466 -1.8792852 2.0746187e-38
-1.3783468 0.95025074 -1.8722353 2.0379204e-38
-1.3838674 1.0742344 -1.8120123 2.0194816e-38
-1.375788 0.87513036 -1.9058018 2.0656871e-38
-1.3758242 0.91062599 -1.8943018 2.0378843e-38
-1.3784086 0.96603328 -1.8669523 1.6973385e-38
-1.3795172 0.97193056 -1.8609422 1.9273954e-38
-1.3855283 1.0722848 -1.8064606 1.8077578e-38
-1.3858376 1.1036648 -1.7952635 2.0101905e-38
-1.3856028 1.2223141 -1.758146 1.5773783e-38
-1.3783475 0.8999055 -1.8883533 1.1264118e-38
-1.3804719 0.91856372 -1.8744805 1.1443459e-38
-1.3804777 0.95574313 -1.862555 1.4674606e-38
-1.3752602 0.80894715 -1.9289556 1.5866314e-38
-1.3835604 0.91410244 -1.8644264 2.0469962e-38
-1.384133 0.9203884 -1.8602853 2.0929498e-38
-1.3834064 0.96672761 -1.8481485 1.8349481e-38
-1.3815868 0.86696339 -1.8868576 1.3845178e-38
-1.3854964 0.88951296 -1.8651019 2.074618e-38
-1.3853202 0.926543 -1.8539003 2.1390113e-38
-1.3966087 1.0994947 -1.7565534 2.0469252e-38
-1.3805884 0.80942726 -1.9089921 1.576802e-38
-1.3875003 0.90694404 -1.8520703 1.9918227e-38
-1.3965008 1.0922148 -1.7592854 2.0654363e-38
-1.4051714 1.173695 -1.7009598 1.9732419e-38
-1.313536 1.1339822 -2.0543633 2.1396593e-38
-1.3166227 1.0462482 -2.0709791 2.2775202e-38
-1.3217714 1.1376724 -2.0225642 2.2591531e-38
-1.3200411 1.1492497 -2.0252903 2.3050708e-38
-1.3271399 1.0475452 -2.0314631 2.2316024e-38
-1.327582 1.4348664 -1.9058013 7.6598786e-39
-1.3334591 1.0542507 -2.0058219 2.2591531e-38
-1.3328043 1.2075045 -1.9591856 2.2775202e-38
-1.3300428 1.3536974 -1.9226424 2.130404e-38
-1.3364543 1.1769396 -1.9554023 2.2132353e-38
-1.3359827 1.1861402 -1.9542094 2.240786e-38
-1.3361914 1.2111161 -1.9454361 2.2316024e-38
-1.335659 1.2372361 -1.9390516 2.2040518e-38
-1.3385352 1.174423 -1.9484715 2.1673176e-38
-1.3390615 1.1814733 -1.9442569 2.240786e-38
-1.339118 1.1977571 -1.9388334 2.240786e-38
-1.339348 1.2227712 -1.9299686 2.2224189e-38
-1.3398775 1.2298707 -1.9257267 2.2224189e-38
-1.3416173 1.1697578 -1.9385062 2.240786e-38
-1.3430135 1.2084243 -1.9209346 2.2132353e-38
-1.3414446 1.2202253 -1.9229885 2.2224189e-38
-1.3427502 1.2263484 -1.9161744 2.1673176e-38
-1.345096 1.2059023 -1.9139994 2.2040518e-38
-1.3448504 1.2237964 -1.909183 2.2040518e-38
-1.3536267 1.0991858 -1.9164532 2.1856847e-38
-1.351042 1.1976371 -1.8945395 2.1856847e-38
-1.3654695 1.0337439 -1.8933777 2.1672458e-38
-1.3691562 0.84882921 -1.9388793 2.1027816e-38
-1.3798707 0.76057971 -1.9273015 1.7338204e-38
-1.1871833 1.6376384 -2.3628585 1.973348e-38
-1.22578 1.5736892 -2.2398372 2.341805e-38
-1.2569081 1.5176995 -2.1420345 1.0047992e-38
-1.2936894 1.2152675 -2.1021235 2.2681931e-38
-1.2955368 1.2212749 -2.0933321 2.2865961e-38
-1.2963141 1.2285578 -2.08811 2.286632e-38
-1.2962371 1.2377414 -2.0854559 2.3141826e-38
-1.2920417 1.0796893 -2.1516609 2.2497901e-38
-1.2928021 1.0868115 -2.1465533 2.2773408e-38
-1.3002567 1.2310556 -2.0726519 2.2774484e-38
-1.2998999 1.2684566 -2.0620027 2.286632e-38
-1.3038858 1.4383366 -1.9927896 2.1761058e-38
-1.3028786 1.2186803 -2.0668666 2.2773767e-38
-1.3051864 1.3040457 -2.0309532 2.3141467e-38
-1.3056623 1.312198 -2.0265734 2.2957438e-38
-1.3011552 1.1183493 -2.1053996 2.2774484e-38
-1.3008901 1.134765 -2.1011288 2.3141467e-38
-1.303002 1.1660235 -2.0832684 2.2590454e-38
-1.3036791 1.1731392 -2.0784724 2.2865961e-38
-1.3123629 1.2917755 -2.0082006 2.2221319e-38
-1.3125291 1.314013 -2.0004621 2.2405707e-38
-1.3113464 1.1696081 -2.0510974 2.2407142e-38
-1.3116037 1.1912317 -2.0432172 2.2222754e-38
-1.3124433 1.2042243 -2.0359352 2.2038724e-38
-1.3131162 1.211346 -2.0311532 2.2222754e-38
-1.3142486 1.2178913 -2.0248475 2.249826e-38
-1.3142841 1.243569 -2.0164936 2.2130201e-38
-1.3155228 1.3937645 -1.9637966 2.1024578e-38
-1.3079358 1.0158157 -2.1130207 2.1579547e-38
-1.3084866 1.0649301 -2.095247 2.2314948e-38
-1.3156309 1.171257 -2.0346401 2.2406063e-38
-1.3139074 1.0899528 -2.0670812 2.2497543e-38
-1.317169 1.1824993 -2.025322 2.2497184e-38
-1.321982 1.093994 -2.0357664 2.2681931e-38
-1.3231748 1.1273552 -2.0206494 2.2405707e-38
-1.3270466 1.2015277 -1.9825056 2.1577031e-38
-1.3392751 1.3847991 -1.878359 1.9916081e-38
-1.3578206 0.80941224 -1.9936448 2.0288452e-38
-1.381038 1.2032958 -1.7812068 1.9916795e-38
-1.3771921 0.96062201 -1.8732072 1.5961396e-38
-1.3834401 1.0604424 -1.818017 1.770916e-38
-1.3852464 1.0971314 -1.799554 2.0194818e-38
-1.3797396 0.88475078 -1.8880296 1.3940638e-38
-1.3791647 0.89360923 -1.8873308 1.559728e-38
-1.391602 1.1007693 -1.7747593 8.6721345e-39
-1.3818129 0.8745786 -1.883579 1.5585429e-38
-1.3824852 0.88101929 -1.8790171 1.5216651e-38
-1.3822856 0.88923717 -1.8771278 1.6785042e-38
-1.3822373 0.90749443 -1.8714616 1.4388341e-38
-1.3394698 1.3393589 -1.8921853 2.0843786e-38
-1.3502871 0.91843903 -1.9867438 2.1672099e-38
-1.3529919 0.91513193 -1.9777464 2.1763935e-38
-1.3584032 0.85575861 -1.9766389 2.0936339e-38
-1.3584768 1.0443689 -1.9159737 2.185577e-38
-1.3617891 0.84392846 -1.9678386 2.0751951e-38
-1.3685465 1.1279198 -1.8517838 2.1763218e-38
-1.3710939 0.84648883 -1.9324245 2.0475727e-38
-1.3740675 1.3110447 -1.7726215 1.7616271e-38
-1.376031 1.1424135 -1.8193159 2.0935622e-38
-1.3071476 1.124983 -2.0809963 2.0657592e-38
-1.3097528 1.1130946 -2.0751171 2.2038362e-38
-1.3188275 1.3225869 -1.9742998 2.1393e-38
-1.3239225 1.4397334 -1.9178487 5.7212592e-39
-1.3159181 1.0943918 -2.0581839 2.2681571e-38
-1.3159616 1.1024988 -2.0554266 2.2773407e-38
-1.3214068 1.2146982 -1.9992568 2.2405706e-38
-1.3195468 1.0645109 -2.05426 2.2773405e-38
-1.3219055 1.1532973 -2.0170627 2.2589377e-38
-1.3248651 1.2123778 -1.987142 2.2222033e-38
-1.3197446 1.0147321 -2.069464 2.2406422e-38
-1.3202173 1.047552 -2.0571978 2.2405704e-38
-1.3260111 1.1617243 -1.9991002 2.1852896e-38
-1.3285153 1.2074046 -1.9751632 2.1760343e-38
-1.3240285 1.0451946 -2.0437834 2.249718e-38
-1.3256508 1.0883477 -2.0239346 2.2406063e-38
-1.3305029 1.1792389 -1.9767922 2.1944014e-38
-1.3235363 0.96077693 -2.072643 2.1946167e-38
-1.3292449 1.1075569 -2.0044215 2.2405704e-38
-1.335062 1.119897 -1.9788432 2.2221315e-38
-1.3459493 0.91525757 -2.0038898 2.1394073e-38
-1.3727211 1.1430556 -1.8314165 2.0654712e-38
-1.3667237 0.9676888 -1.9098651 2.1114606e-38
-1.3731356 0.91433668 -1.9031098 2.0746187e-38
-1.3767715 0.87371063 -1.9025999 2.1115326e-38
-1.3777962 0.86482561 -1.9016348 2.1115324e-38
-1.3311437 1.3165325 -1.9304495 2.158134e-38
-1.335286 1.1604939 -1.9650114 2.2224189e-38
-1.3373092 1.2440639 -1.9307306 2.2132353e-38
-1.3479578 1.2024114 -1.9044772 2.1856847e-38
-1.2613776 0.91454571 -2.3185439 2.1579544e-38
-1.2867565 0.95490086 -2.211267 2.1853973e-38
-1.3070199 1.3873912 -1.9974498 2.1577034e-38
-1.2901736 0.95038962 -2.200007 2.1762493e-38
-1.31089 1.4480178 -1.9636493 5.3524276e-39
-1.2935301 0.90600145 -2.2017407 2.1486631e-38
-1.2937533 0.94563431 -2.1882207 2.1669943e-38
-1.2983562 1.0623045 -2.1337509 2.2406063e-38
-1.3006979 1.0924586 -2.1153891 2.2681571e-38
-1.3084046 1.2682765 -2.0304415 2.1483394e-38
-1.2940331 0.86611187 -2.2126431 2.1209685e-38
-1.2947631 0.87296247 -2.2077353 2.111785e-38
-1.2944368 0.88911819 -2.2037754 2.1301882e-38
-1.2951692 0.89599401 -2.1988506 2.1302597e-38
-1.2969217 0.90165472 -2.1905231 2.1670299e-38
-1.2967007 0.91783392 -2.1861639 2.1761774e-38
-1.2964032 0.93423504 -2.1820188 2.2129838e-38
-1.2971407 0.94115978 -2.1770597 2.2129475e-38
-1.3047684 1.0864429 -2.1021824 2.1210405e-38
-1.3054351 1.0934447 -2.0974615 2.0841627e-38
-1.3051065 1.1366328 -2.0848548 2.0932734e-38
-1.3083308 1.1402595 -2.0717061 2.1208605e-38
-1.3076512 1.1499397 -2.0711327 2.0840542e-38
-1.3073248 1.1677107 -2.0666566 2.0564677e-38
-1.3081559 1.1744829 -2.061398 2.065687e-38
-1.3088291 1.1815748 -2.0566244 2.074835e-38
-1.3085911 1.2008848 -2.051326 2.0656155e-38
-1.3101212 1.2069895 -2.0436831 2.1668139e-38
-1.3109391 1.2489883 -2.0271943 2.0749075e-38
-1.2967869 0.85495412 -2.2059772 2.0197701e-38
-1.2971811 0.87786049 -2.1971774 2.1210763e-38
-1.3008089 0.92032963 -2.1700912 1.8816213e-38
-1.2998722 0.92966574 -2.1705852 1.9551974e-38
-1.3013413 0.94346577 -2.1607037 1.9920034e-38
-1.3051924 1.0524316 -2.1114962 2.0288093e-38
-1.3059403 1.0594556 -2.1064663 2.0196256e-38
-1.3052931 1.0695132 -2.1056519 2.0472483e-38
-1.3059572 1.0764961 -2.1009469 2.0197337e-38
-1.3078871 1.0819521 -2.0920253 2.1393356e-38
-1.3085504 1.0889349 -2.0873234 2.1853252e-38
-1.3079305 1.0982912 -2.0866318 2.1852894e-38
-1.3096324 1.1036272 -2.0785961 2.1485912e-38
-1.3180162 1.313054 -1.9803691 2.1944729e-38
-1.3188934 1.3487951 -1.9656637 2.1669943e-38
-1.3230209 1.4326265 -1.9234765 5.7208893e-39
-1.3000666 0.85091102 -2.1950786 1.8721127e-38
-1.3007908 0.85771537 -2.1902077 1.8535663e-38
-1.3004522 0.87375325 -2.1863306 1.7985373e-38
-1.3011788 0.88058317 -2.1814423 1.780099e-38
-1.3010588 0.89646006 -2.176805 1.7617682e-38
-1.3017882 0.90331173 -2.1718998 1.7985384e-38
-1.3035406 0.90894365 -2.1635811 2.0288445e-38
-1.3042694 0.91579562 -2.1586769 2.0104418e-38
-1.3049986 0.9226476 -2.1537719 2.0195539e-38
-1.3040729 0.9319675 -2.1542301 2.0104062e-38
-1.3052665 0.97062099 -2.1374159 2.2129119e-38
-1.3060029 0.97754753 -2.1324601 2.2037644e-38
-1.310372 1.0867932 -2.0812364 2.2222032e-38
-1.3127373 1.0990855 -2.0685067 2.2130557e-38
-1.3121924 1.1256971 -2.0620117 2.2773048e-38
-1.3134291 1.1292373 -2.0562809 2.1670304e-38
-1.3145165 1.1647683 -2.0408609 2.1946528e-38
-1.3156111 1.2158614 -2.0204318 2.2496824e-38
-1.3180853 1.2200327 -2.0098972 2.2589375e-38
-1.3162763 1.2409511 -2.0099251 2.2404987e-38
-1.3194126 1.3199821 -1.9729592 2.1945808e-38
-1.3209771 1.3292241 -1.9641836 2.1484115e-38
-1.3219726 1.3531891 -1.9528092 2.148591e-38
-1.3226531 1.3604548 -1.9479526 2.111821e-38
-1.3033273 0.84689039 -2.184243 2.1762133e-38
-1.3056246 0.85157835 -2.174201 2.1761417e-38
-1.3047696 0.86045676 -2.1745367 2.1578103e-38
-1.303705 0.86966908 -2.1755455 2.1486268e-38
-1.3046438 0.87618363 -2.1699691 2.1761777e-38
-1.3053676 0.88298857 -2.1650991 2.1577746e-38
-1.3045284 0.89199758 -2.1653347 2.1394435e-38
-1.3059634 0.9138357 -2.153007 2.203836e-38
-1.306692 0.92068833 -2.148104 2.1946527e-38
-1.3074206 0.92754084 -2.1432004 2.1854331e-38
-1.3065082 0.93687004 -2.1436059 2.2038001e-38
-1.3092963 1.0058608 -2.1111503 2.1486632e-38
-1.3112041 1.0112343 -2.1023362 2.2222031e-38
-1.3116531 1.0603912 -2.0849273 2.1946886e-38
-1.3133519 1.0657042 -2.07691 2.249754e-38
-1.3145412 1.0724547 -2.070327 2.2773765e-38
-1.3164376 1.1198361 -2.0481055 2.268157e-38
-1.3168163 1.1620251 -2.0331886 2.2589375e-38
-1.3174807 1.1690766 -2.0284605 2.2497899e-38
-1.3200955 1.199288 -2.0090659 2.2589018e-38
-1.3192858 1.2107316 -2.0084119 2.268157e-38
-1.3208687 1.2453645 -1.9914377 2.2405346e-38
-1.3200144 1.2566725 -1.9909934 2.2313153e-38
-1.3222864 1.2711192 -1.9779212 2.2130198e-38
-1.3226984 1.2968458 -1.9681515 2.2130197e-38
-1.324947 1.3402722 -1.9458865 2.13008e-38
-1.3278373 1.3604594 -1.9286766 2.0931665e-38
-1.326424 1.3720876 -1.930208 2.0749789e-38
-1.3271028 1.3793529 -1.9253585 2.0748355e-38
-1.3065695 0.84289223 -2.1734693 2.1209682e-38
-1.3072875 0.8496545 -2.1686344 2.1209322e-38
-1.3080057 0.85641688 -2.1637993 2.1301159e-38
-1.3071632 0.86530471 -2.1640851 2.1210041e-38
-1.3078842 0.87208855 -2.1592331 2.1577742e-38
-1.3070496 0.88104147 -2.1594689 2.1210044e-38
-1.3092016 0.90962052 -2.1423173 2.1669579e-38
-1.3099273 0.91645193 -2.1374319 2.166958e-38
-1.3098441 0.93243229 -2.1326244 2.1485909e-38
-1.3095469 0.94884503 -2.1284738 2.2404984e-38
-1.3112715 0.95450211 -2.1202507 2.203836e-38
-1.3110846 0.96231735 -2.1184435 2.203836e-38
-1.3127766 0.96824598 -2.110255 2.1945447e-38
-1.3123285 0.97654164 -2.1092644 2.2313507e-38
-1.3130399 0.98467916 -2.1040142 2.2497539e-38
-1.3123779 1.0016136 -2.101053 2.2405704e-38
-1.3145617 1.0053905 -2.0917242 2.2404624e-38
-1.313657 1.0160036 -2.0916896 2.2405704e-38
-1.3153056 1.0213853 -2.083837 2.2313869e-38
-1.3146868 1.0304633 -2.0832312 2.2222392e-38
-1.3142166 1.0407634 -2.081681 2.2589733e-38
-1.3151313 1.0555329 -2.0735514 2.2497899e-38
-1.3159087 1.0615968 -2.0687196 2.2589375e-38
-1.3170241 1.0772493 -2.0595613 2.2590093e-38
-1.3177465 1.0922325 -2.0520778 2.2589375e-38
-1.3188461 1.0986296 -2.0459409 2.2865242e-38
-1.3195022 1.105582 -2.0412753 2.268157e-38
-1.3182696 1.1176848 -2.0419831 2.2313869e-38
-1.3193779 1.12411 -2.0358052 2.2497181e-38
-1.3219548 1.1282985 -2.024883 2.2497899e-38
-1.3219886 1.1365049 -2.0221303 2.2589734e-38
-1.3214487 1.1761595 -2.0114408 2.2589375e-38
-1.3211648 1.1887535 -2.0084631 2.2681212e-38
-1.3239952 1.1897789 -1.9976115 2.2128762e-38
-1.3242025 1.2053186 -1.9918654 2.249754e-38
-1.3242632 1.2222073 -1.9862324 2.2221675e-38
-1.3233379 1.233214 -1.9861479 2.2405704e-38
-1.3240047 1.2403243 -1.9813929 2.2221675e-38
-1.3264279 1.3083615 -1.9505984 2.1853614e-38
-1.3313929 1.3813814 -1.9087583 2.0010077e-38
-1.3096706 0.8544904 -2.1582263 2.1208966e-38
-1.3103882 0.86125326 -2.1533923 2.1392994e-38
-1.311106 0.8680163 -2.1485584 2.1210044e-38
-1.3102789 0.87693524 -2.1487777 2.1393713e-38
-1.3123401 0.9213323 -2.126899 2.1945447e-38
-1.3125319 0.93718499 -2.1211092 2.1486269e-38
-1.3144482 0.95022547 -2.1098099 2.1946165e-38
-1.3150926 0.95702618 -2.1052363 2.2038004e-38
-1.3153993 0.97236437 -2.0991855 2.2222033e-38
-1.314828 0.9825812 -2.0980375 2.2129838e-38
-1.3154755 0.98942035 -2.0934405 2.1946164e-38
-1.315812 1.0048996 -2.0872328 2.2222032e-38
-1.3177271 1.0102289 -2.078407 2.2130198e-38
-1.3191319 1.0237535 -2.0688531 2.2222751e-38
-1.3185235 1.0328119 -2.0682144 2.268157e-38
-1.3183181 1.0428879 -2.0657518 2.2405704e-38
-1.3194304 1.0570248 -2.057091 2.249754e-38
-1.3218834 1.0697739 -2.0438881 2.249754e-38
-1.3213001 1.078972 -2.0431113 2.2589375e-38
-1.3213294 1.0870612 -2.0404127 2.249754e-38
-1.3226348 1.100927 -2.0311198 2.249754e-38
-1.3224061 1.1098715 -2.0291059 2.2405704e-38
-1.3218409 1.1207291 -2.0277309 2.2222033e-38
-1.3241713 1.1376609 -2.0136452 2.2404984e-38
-1.3231263 1.1523823 -2.0128169 2.2589018e-38
-1.3239179 1.1726938 -2.0033703 2.2221675e-38
-1.324577 1.1797261 -1.9986677 2.2222033e-38
-1.3266478 1.1830915 -1.9898911 2.2036565e-38
-1.3278548 1.2166431 -1.9746608 2.2129481e-38
-1.3266437 1.2278324 -1.9755809 2.2221675e-38
-1.3271171 1.2357969 -1.9712708 2.2405704e-38
-1.3270965 1.2460808 -1.9680547 2.2129839e-38
-1.3297629 1.2586753 -1.9541079 2.2037645e-38
-1.3285279 1.2701665 -1.9550205 2.2129481e-38
-1.3316951 1.3260205 -1.9253614 2.1209686e-38
-1.3338566 1.3863705 -1.8980018 1.9918237e-38
-1.3150243 0.87070924 -2.1331284 2.1117491e-38
-1.315739 0.87745142 -2.1283123 2.1392999e-38
-1.3157176 0.8929832 -2.1234193 2.1670299e-38
-1.3166654 0.92376757 -2.1100385 2.1670299e-38
-1.3155192 0.93324488 -2.1112654 2.1578461e-38
-1.3165729 0.93951064 -2.1053412 2.1946526e-38
-1.318045 0.94529486 -2.098016 2.1946163e-38
-1.3191015 0.95155358 -2.0920846 2.185433e-38
-1.3179245 0.96122384 -2.093364 2.1762494e-38
-1.3191856 0.9670338 -2.0868149 2.1946526e-38
-1.3198913 0.97513783 -2.0815961 2.2129838e-38
-1.3209577 0.98140705 -2.0756247 2.2129838e-38
-1.318961 0.99259526 -2.0794654 2.2313868e-38
-1.3208956 1.005778 -2.0680521 2.2313509e-38
-1.3215402 1.0126163 -2.0634651 2.2129839e-38
-1.3221854 1.0194548 -2.0588777 2.2222033e-38
-1.3232648 1.0257497 -2.0528486 2.2497539e-38
-1.3212508 1.0376732 -2.0565186 2.2404986e-38
-1.3237044 1.0676299 -2.0378044 2.2589375e-38
-1.3243531 1.0745358 -2.0331812 2.2405704e-38
-1.325002 1.0814418 -2.0285578 2.2406063e-38
-1.326128 1.0958761 -2.0197494 2.2589375e-38
-1.3261509 1.103994 -2.0170648 2.2681211e-38
-1.3255446 1.1149269 -2.0158186 2.2313869e-38
-1.3261293 1.1388553 -2.0059831 2.2681211e-38
-1.326237 1.1476456 -2.002768 2.249754e-38
-1.3277154 1.1597322 -1.9934016 2.2220241e-38
-1.3283784 1.1665661 -1.9887486 2.2220238e-38
-1.3298411 1.172405 -1.9814407 2.2037285e-38
-1.3295727 1.1984926 -1.9740857 2.1944369e-38
-1.3302377 1.2053728 -1.9694103 2.2312431e-38
-1.3323841 1.2181064 -1.9573531 2.1760698e-38
-1.3303212 1.2391741 -1.9582772 2.1945808e-38
-1.3328649 1.2536461 -1.9441856 2.1945447e-38
-1.3322986 1.2722249 -1.9403427 2.1945808e-38
-1.3162014 0.88482374 -2.124233 2.1578463e-38
-1.3198549 0.88779491 -2.1096988 2.1853254e-38
-1.3190571 0.89675081 -2.109797 2.166958e-38
-1.3197651 0.90433049 -2.1047375 2.1762493e-38
-1.3203992 0.91104251 -2.1002316 2.1578463e-38
-1.3196287 0.91988039 -2.1002655 2.1670662e-38
-1.3206794 0.92610216 -2.0943673 2.1486987e-38
-1.3195401 0.93557721 -2.0955689 2.1946524e-38
-1.3208747 0.94946617 -2.0861604 2.2130198e-38
-1.3221027 0.9725188 -2.0742137 2.2037644e-38
-1.3227426 0.97930956 -2.0696604 2.2221673e-38
-1.3233826 0.98610038 -2.0651066 2.2222032e-38
-1.3220268 0.99625421 -2.0668955 2.2221675e-38
-1.3239361 1.0015452 -2.0581031 2.2313869e-38
-1.3237797 1.0099478 -2.0559936 2.2130198e-38
-1.3244228 1.0167855 -2.0514133 2.249754e-38
-1.3250657 1.0236236 -2.0468335 2.2129838e-38
-1.3266811 1.035267 -2.0370994 2.1852538e-38
-1.3258342 1.0430558 -2.0377545 2.2129839e-38
-1.3275254 1.061787 -2.0254693 2.2405703e-38
-1.3267589 1.0712997 -2.0252736 2.2313869e-38
-1.3274049 1.0781964 -2.0206633 2.2589017e-38
-1.3273208 1.0949298 -2.0156178 2.2222032e-38
-1.3279691 1.101853 -2.0109911 2.2405346e-38
-1.3271347 1.1204882 -2.0081265 2.2221313e-38
-1.3289865 1.1291976 -1.9984523 2.231351e-38
-1.3302391 1.1446248 -1.988856 2.2405704e-38
-1.3308905 1.1515948 -1.9842027 2.2405346e-38
-1.3303647 1.1626263 -1.9826257 2.231351e-38
-1.3320911 1.1747391 -1.9723279 2.1944013e-38
-1.3319651 1.2033337 -1.963641 2.1760339e-38
-1.3353975 1.2585249 -1.9332078 2.2037286e-38
-1.3365549 1.264991 -1.9268343 2.1853612e-38
-1.3222317 0.89261627 -2.0993183 2.1117488e-38
-1.3219391 0.94026488 -2.085149 2.1762133e-38
-1.3252126 0.94331598 -2.0720022 2.1853968e-38
-1.3238424 0.95292222 -2.0740201 2.2038001e-38
-1.3252618 0.95924604 -2.0667176 2.2313146e-38
-1.3250605 0.96850604 -2.0645015 2.1854687e-38
-1.3245304 0.97720754 -2.0636859 2.1946526e-38
-1.3256087 0.98345566 -2.0576763 2.2222032e-38
-1.3256685 0.9982127 -2.0527291 2.1944009e-38
-1.3287941 1.0022888 -2.039803 2.2405703e-38
-1.3274505 1.0125276 -2.0415201 2.2405704e-38
-1.3280904 1.0193474 -2.0369575 2.2222033e-38
-1.3285921 1.0266416 -2.032757 2.2222032e-38
-1.3273611 1.0410218 -2.0327289 2.2680854e-38
-1.3280318 1.0531889 -2.02634 2.2405704e-38
-1.3310809 1.0523661 -2.0152671 2.212804e-38
-1.3309534 1.0811917 -2.0065117 2.2405704e-38
-1.3298413 1.0913149 -2.0074046 2.2313149e-38
-1.3309795 1.097401 -2.0012243 2.249754e-38
-1.3335073 1.099026 -1.9913057 2.2128043e-38
-1.3324722 1.1076623 -1.9923892 2.2221673e-38
-1.3345302 1.1291898 -1.9778444 2.231351e-38
-1.3338807 1.1387579 -1.9771966 2.2405346e-38
-1.3333572 1.1481248 -1.976143 2.2313868e-38
-1.3338064 1.1726985 -1.9666044 2.1759983e-38
-1.336639 1.1945558 -1.9490744 2.2038002e-38
-1.3372821 1.2104914 -1.9415812 2.2313512e-38
-1.3402226 1.2482861 -1.918547 2.2037283e-38
-1.3398262 1.2595117 -1.9164265 2.166994e-38
-1.3250904 0.93601555 -2.0747933 2.1854329e-38
-1.3285778 0.93885928 -2.0609176 2.1946524e-38
-1.329209 0.94557965 -2.0564191 2.1946165e-38
-1.3284687 0.9545241 -2.0563073 2.2038001e-38
-1.32792 0.97264504 -2.0525451 2.1945805e-38
-1.3285547 0.97941834 -2.0480161 2.2313509e-38
-1.3280401 0.98813367 -2.0471394 2.2313507e-38
-1.3286771 0.99492407 -2.0425968 2.2129475e-38
-1.3299582 1.0012567 -2.0358059 2.2130195e-38
-1.3300084 1.0090739 -2.0331166 2.2037644e-38
-1.3303891 1.0245231 -2.0267539 2.2038001e-38
-1.3322247 1.0469626 -2.0127449 2.2313868e-38
-1.3324018 1.0589224 -2.0082574 2.2036565e-38
-1.3337481 1.1065953 -1.9879872 2.2222033e-38
-1.3343927 1.1135088 -1.983377 2.2222033e-38
-1.3363584 1.1270244 -1.9717405 2.2129122e-38
-1.337003 1.1339468 -1.9671277 2.2221316e-38
-1.3363292 1.1522875 -1.9637604 2.2129479e-38
-1.339147 1.2082721 -1.9353586 2.176142e-38
-1.3416259 1.2557408 -1.9109434 2.1485913e-38
-1.3251926 0.82833296 -2.1088924 2.1302237e-38
-1.3283608 0.91634715 -2.0689323 2.1670297e-38
-1.3284025 0.92395908 -2.0663402 2.1578102e-38
-1.3290318 0.93067068 -2.0618513 2.1854329e-38
-1.3321381 0.94163382 -2.0467925 2.1762134e-38
-1.3327663 0.94833714 -2.0423105 2.2129476e-38
-1.3308511 0.96865094 -2.0429261 2.2129476e-38
-1.330848 0.97647041 -2.0404346 2.2129836e-38
-1.3309754 0.99194431 -2.0350053 2.2037641e-38
-1.3328868 0.99718481 -2.0262213 2.2221672e-38
-1.3335254 1.0200148 -2.0165372 2.2130195e-38
-1.3337927 1.0320476 -2.0116904 2.2221672e-38
-1.3352239 1.0426515 -2.0029745 2.2313149e-38
-1.3362952 1.0717847 -1.989663 2.212804e-38
-1.3367476 1.1102818 -1.9756546 2.2221673e-38
-1.3394768 1.1386995 -1.9564089 2.2038001e-38
-1.340602 1.145017 -1.9502025 2.2220956e-38
-1.3394656 1.1556888 -1.9510105 2.2037285e-38
-1.3405989 1.1620247 -1.9447681 2.2037285e-38
-1.3426056 1.2455008 -1.9105794 2.1577028e-38
-1.3491364 1.3585782 -1.8500918 1.8813341e-38
-1.3314229 0.9353078 -2.051477 2.1762492e-38
-1.3333168 0.9404884 -2.0427768 2.1853614e-38
-1.3338876 0.98791695 -2.0254679 2.2037998e-38
-1.3363979 1.0080754 -2.0096807 2.1945447e-38
-1.3370299 1.0148574 -2.0051594 2.1762134e-38
-1.337334 1.020276 -2.0022941 2.1760336e-38
-1.338495 1.0249254 -1.9964885 2.185397e-38
-1.3370318 1.0405241 -1.9969343 2.2221671e-38
-1.3370724 1.0484453 -1.9942467 2.2313507e-38
-1.3398271 1.1066041 -1.9653836 2.1759981e-38
-1.3424377 1.1428366 -1.9440758 2.2037283e-38
-1.3430796 1.1497591 -1.9394734 2.2129122e-38
-1.3442129 1.1560612 -1.9332418 2.2220954e-38
-1.3442152 1.1643481 -1.9305801 2.2037283e-38
-1.3450716 1.1705536 -1.9254087 2.1667428e-38
-1.3444515 1.1821995 -1.9239854 2.1853967e-38
-1.3490837 1.2885337 -1.8727162 2.0657234e-38
-1.3291955 0.81461114 -2.0984039 2.0657953e-38
-1.3314129 0.83545887 -2.0834851 2.1118205e-38
-1.3339211 0.88615716 -2.0579269 2.1394073e-38
-1.3368878 0.96035945 -2.0231373 2.1945805e-38
-1.3381085 0.9660815 -2.0167673 2.1945447e-38
-1.3380729 0.97412181 -2.0143251 2.1945805e-38
-1.3381038 0.98186773 -2.0117297 2.2038e-38
-1.3387309 0.98860329 -2.007241 2.2313147e-38
-1.3412367 0.99274892 -1.9965979 2.2037282e-38
-1.339939 1.0028784 -1.9981794 2.2221313e-38
-1.3405674 1.0096347 -1.99368 2.2037641e-38
-1.3416789 1.0139401 -1.988169 2.1483755e-38
-1.3402908 1.0228003 -1.9904931 2.1945805e-38
-1.3400604 1.0349607 -1.9874558 2.2036925e-38
-1.3406763 1.0390792 -1.9838475 2.1760338e-38
-1.3402741 1.0466963 -1.9829036 2.2037283e-38
-1.3422061 1.0519315 -1.9740443 2.2038001e-38
-1.3460531 1.1621644 -1.924446 2.2037282e-38
-1.3473337 1.1677147 -1.9179074 2.1852894e-38
-1.3474435 1.1863328 -1.9115382 2.1761058e-38
-1.3324239 0.81061977 -2.0876791 2.0749789e-38
-1.3347306 0.83873469 -2.070101 2.1118923e-38
-1.3373597 0.8968277 -2.0417256 2.1669937e-38
-1.3416036 0.96130735 -2.0053015 2.2037282e-38
-1.3422253 0.9679985 -2.0008473 2.1946165e-38
-1.3422495 0.97571379 -1.9982878 2.1853968e-38
-1.3416157 0.98459435 -1.9978001 2.2037641e-38
-1.3424278 0.99168074 -1.9925114 2.1761776e-38
-1.3430533 0.99841654 -1.9880296 2.166994e-38
-1.3426982 1.0069282 -1.986624 2.1669221e-38
-1.34444 1.0100162 -1.9791601 2.1943289e-38
-1.3431787 1.0186856 -1.9810728 2.2129475e-38
-1.3445922 1.0251883 -1.9737355 2.1575949e-38
-1.3444332 1.0322156 -1.9720769 2.2129835e-38
-1.3459414 1.0785445 -1.9516351 2.1945447e-38
-1.3464906 1.0875372 -1.9467143 2.2129476e-38
