# .PCD v0.7 - Point Cloud Data file format
VERSION 0.7
FIELDS x y z rgb
SIZE 4 4 4 4
TYPE F F F F
COUNT 1 1 1 1
WIDTH 1028
HEIGHT 1
VIEWPOINT 0 0 0 1 0 0 0
POINTS 1028
DATA ascii
-1.2538822 0.93702149 0.70247334 1.4755673e-42
-1.2460551 0.9383589 0.70049763 2.9118982e-42
-1.2385987 0.93981934 0.69811314 3.8255448e-43
-1.2333214 0.94003516 0.69862992 5.0446745e-44
-1.2307539 0.94044012 0.69807273 3.2916501e-42
-1.2239816 0.9409861 0.6980108 5.5106623e-40
-1.2833849 0.93161309 0.71091044 9.2945325e-41
-1.2840391 0.93103456 0.71233368 6.4326186e-40
-1.2729205 0.9329586 0.70946181 3.3631163e-44
-1.2587194 0.93410552 0.70932633 1.4797712e-42
-1.2508702 0.93545896 0.70731199 2.183223e-42
-1.2432332 0.93677062 0.70536619 1.4755673e-42
-1.2366734 0.93787169 0.70376366 1.8514656e-40
-1.2305108 0.93850905 0.70332855 3.6991897e-40
-1.2249711 0.93908048 0.70294124 4.5923774e-40
-1.2949669 0.92771846 0.71899742 1.6577445e-39
-1.2855505 0.92901433 0.71746457 9.2582388e-41
-1.2765507 0.93036377 0.71570051 7.3708299e-43
-1.2442136 0.93454903 0.71115041 2.197236e-42
-1.2354518 0.93607879 0.70885074 9.3330682e-41
-1.2329832 0.93622011 0.7089836 9.2974752e-41
-1.2259606 0.93717492 0.70787168 5.7453237e-44
-1.2887782 0.92729568 0.72142524 4.6063203e-40
-1.2805138 0.92819923 0.72071004 3.9376487e-43
-1.2750549 0.92871529 0.72045529 3.3631163e-44
-1.2661827 0.9303599 0.7178691 1.4685608e-42
-1.2607149 0.93126655 0.71656334 3.6953922e-40
-1.253041 0.93259752 0.71457309 1.4727647e-42
-1.2440435 0.93253088 0.71662545 1.4825738e-42
-1.2361447 0.93391615 0.71453589 1.1252427e-42
-1.2339768 0.93430662 0.71393454 5.8854536e-44
-1.2269502 0.9352693 0.71280217 4.6242849e-44
-1.2745794 0.92689472 0.72546172 3.3631163e-44
-1.2649219 0.92853528 0.72304976 1.474166e-42
-1.2594637 0.92944604 0.72173071 1.8342997e-42
-1.2540857 0.93033153 0.72046351 1.835701e-42
-1.2420512 0.93108034 0.72095007 3.0828566e-44
-1.2349703 0.93239319 0.7188853 6.0255834e-44
-1.2279396 0.93336368 0.71773273 5.1848043e-44
-1.2801667 0.92428476 0.73133355 4.9045446e-44
-1.2679529 0.92584109 0.72968084 1.8442909e-40
-1.2590439 0.92744035 0.72722447 1.4811725e-42
-1.2554152 0.92807847 0.72625983 2.9427268e-44
-1.2510835 0.92877012 0.72529697 1.835701e-42
-1.2369107 0.93010366 0.72465271 2.6624671e-44
-1.240683 0.9295131 0.7254594 4.9045446e-44
-1.2289292 0.93145812 0.72266322 7.5389857e-43
-1.2915578 0.92115968 0.73738599 3.8535708e-43
-1.2891605 0.92117196 0.73785192 7.4549078e-43
-1.2867633 0.92118424 0.73831785 2.9427268e-44
-1.264914 0.92426658 0.73455727 1.8385036e-42
-1.2582033 0.92543501 0.73280478 1.4769686e-42
-1.2538215 0.92614025 0.73181587 1.8385036e-42
-1.2440472 0.92791867 0.72905672 1.4769686e-42
-1.2400271 0.92818367 0.72917932 1.5049946e-42
-1.2346321 0.92857808 0.72923905 1.1294466e-42
-1.2949789 0.91821676 0.74460649 1.126644e-42
-1.2877876 0.91921169 0.74342149 4.4841551e-44
-1.2770383 0.92022645 0.74292362 2.9259112e-42
-1.2636201 0.92244071 0.7397483 1.1210388e-42
-1.2569166 0.92361563 0.73797667 1.8371023e-42
-1.252538 0.92432469 0.7369768 9.2963541e-41
-1.2427657 0.92611682 0.73418033 1.4783699e-42
-1.2351551 0.92747855 0.73209393 1.4769686e-42
-1.2356257 0.92666459 0.73418993 7.7351675e-43
-1.291209 0.91722691 0.74805927 1.8328984e-42
-1.2888118 0.91723919 0.74852514 4.4841551e-44
-1.2808391 0.9184069 0.74703699 3.2229865e-44
-1.2500521 0.92275852 0.74171591 9.295093e-41
-1.2414716 0.92431623 0.73930299 1.8385036e-42
-1.2394812 0.92429209 0.73978239 3.2888475e-42
-1.2318976 0.92574126 0.73745471 1.4867777e-42
-1.2946305 0.91524208 0.75269705 2.5223372e-44
-1.2922333 0.91525435 0.75316298 3.2874462e-42
-1.2868351 0.91578948 0.7528441 3.7835059e-44
-1.2726414 0.91832459 0.74896532 1.8514236e-40
-1.2625108 0.92020071 0.74601704 7.5529987e-43
-1.2568384 0.92117131 0.74458146 1.1056245e-42
-1.2440784 0.9220224 0.74494338 7.6230636e-43
-1.2396184 0.92254609 0.74446005 1.8469114e-42
-1.2323017 0.92387062 0.74241292 2.1986373e-42
-1.2908603 0.91329408 0.75873256 1.8369341e-40
-1.275862 0.91567177 0.75544548 1.112631e-42
-1.2686 0.91685259 0.75377423 9.2593599e-41
-1.2596219 0.91851372 0.75116557 3.8395578e-43
-1.2528247 0.91982341 0.74905008 2.197236e-42
-1.2409319 0.92091233 0.74859047 5.3249342e-44
-1.2338483 0.92148316 0.74852616 9.5114535e-41
-1.2918845 0.91132152 0.76383615 8.2835657e-40
-1.2799767 0.91302699 0.76171786 2.906293e-42
-1.2699105 0.91468388 0.75934714 9.3305458e-41
-1.265761 0.91523647 0.75872141 1.8455101e-42
-1.2578045 0.91670024 0.756432 1.8427075e-42
-1.2502742 0.91807878 0.75428367 1.8586683e-40
-1.2420565 0.91966492 0.7517187 3.8956097e-43
-1.2396001 0.91901076 0.75399333 2.7771774e-40
-1.2833863 0.91138214 0.76544178 3.2229865e-44
-1.2829312 0.91040349 0.76817441 1.8515216e-40
-1.2692624 0.91244948 0.76550472 1.8586122e-40
-1.2666937 0.9129256 0.76475608 1.8399049e-42
-1.258738 0.91439945 0.76243919 1.488179e-42
-1.2509263 0.91584694 0.76016355 1.1336505e-42
-1.2423164 0.9174667 0.75758994 1.4797712e-42
-1.2405937 0.91709721 0.75894421 1.1364531e-42
-1.2993642 0.90725225 0.7732479 1.1014206e-42
-1.288529 0.90942299 0.76965213 1.112631e-42
-1.276337 0.91045302 0.76941341 1.6815582e-44
-1.2766088 0.90929222 0.77248585 2.211249e-42
-1.2621204 0.91172755 0.76893723 1.112631e-42
-1.2573869 0.91257614 0.76763511 1.474166e-42
-1.2515869 0.91361594 0.76603967 1.8479203e-40
-1.2427937 0.91518897 0.76362997 7.5529987e-43
-1.2983147 0.90536833 0.77854443 1.8477522e-40
-1.2860717 0.90675348 0.77735925 3.8815967e-43
-1.2773931 0.90846699 0.77454686 1.8478923e-40
-1.2691423 0.90978754 0.77270478 2.8025969e-44
-1.2497749 0.91208839 0.77053434 2.6624671e-44
-1.2487829 0.91201216 0.7709462 2.7626739e-40
-1.2425808 0.91327035 0.76884598 7.6651026e-43
-1.3036631 0.90222013 0.78591704 8.2726496e-40
-1.2991903 0.90279943 0.78528649 1.8479623e-40
-1.2928746 0.90384841 0.7837736 1.8516057e-40
-1.2809848 0.90558273 0.78157377 9.2589395e-41
-1.2716429 0.90732825 0.77881324 2.1019477e-44
-1.2693312 0.90789902 0.77775598 1.1084271e-42
-1.2655888 0.90847695 0.77697718 1.8286945e-42
-1.2602345 0.90930772 0.77585226 2.9259112e-42
-1.2538788 0.90887886 0.77833122 9.2251682e-41
-1.2388242 0.91240209 0.77196807 7.5389857e-43
-1.3036869 0.9001044 0.79161489 3.6809028e-40
-1.2954612 0.90155607 0.78941411 4.0217266e-43
-1.284122 0.90424418 0.78452879 4.5957685e-40
-1.2882494 0.9026078 0.78808045 9.2963541e-41
-1.2770296 0.90451229 0.78528231 1.8514936e-40
-1.2712505 0.90536904 0.78417593 1.4671595e-42
-1.2636716 0.90687168 0.78170311 7.5109598e-43
-1.2550101 0.90859795 0.77885288 7.4969468e-43
-1.2483531 0.90963876 0.77743316 2.2420775e-44
-1.2902468 0.9005121 0.79331356 1.4825738e-42
-1.2883426 0.90094805 0.79253471 1.1056245e-42
-1.2789253 0.90251821 0.7902627 9.3302656e-41
-1.2719295 0.90304643 0.79029518 1.4755673e-42
-1.2630783 0.90454233 0.78810525 1.1154336e-42
-1.2554008 0.90609276 0.78552419 7.4829338e-43
-1.2498215 0.90723169 0.78361565 9.2595e-41
-1.2408031 0.90859097 0.781829 4.1618564e-43
-1.3120042 0.8959161 0.80117303 7.0064923e-45
-1.3037205 0.89757168 0.79843473 1.1042232e-42
-1.2854109 0.9000209 0.79564422 4.6242849e-44
-1.2810012 0.89992893 0.79680991 1.8442069e-40
-1.2724137 0.90124106 0.79506052 1.8586543e-40
-1.2618695 0.90271926 0.79327083 1.4559491e-42
-1.2553376 0.9040252 0.79111052 1.4643569e-42
-1.2417927 0.90668529 0.78675944 7.7351675e-43
-1.3084606 0.89461255 0.80542421 8.4077908e-45
-1.3017823 0.89586312 0.80344337 7.4689208e-43
-1.2929643 0.89730209 0.80140024 7.4549078e-43
-1.285964 0.89792335 0.80118281 7.4689208e-43
-1.2773907 0.89887393 0.80040509 3.7414669e-43
-1.2655033 0.90139616 0.79608083 2.1019477e-44
-1.262948 0.90072644 0.79841805 4.0077136e-42
-1.2448756 0.90468663 0.7915051 3.3631163e-44
-1.2413585 0.90509617 0.79113334 7.5389857e-43
-1.3116369 0.89344883 0.80789989 3.9626114e-39
-1.3035003 0.89355648 0.80930328 2.1860256e-42
-1.2914654 0.89546609 0.80666119 7.3708299e-43
-1.2854822 0.89627796 0.80571806 1.4685608e-42
-1.2782495 0.89666992 0.80616719 3.643376e-43
-1.2771894 0.8971855 0.8049981 9.3661388e-41
-1.2659403 0.89927012 0.80172056 3.2229865e-44
-1.2546426 0.90169752 0.79752928 2.9427268e-44
-1.2430222 0.90297079 0.79651588 7.5810247e-43
-1.313545 0.88905466 0.8193469 4.5991316e-40
-1.2954725 0.89293891 0.812639 2.2420775e-44
-1.2892032 0.89414722 0.81068701 1.6815582e-44
-1.28346 0.89457625 0.81072593 1.4755673e-42
-1.2802093 0.89497125 0.81033784 2.5657775e-42
-1.2740235 0.89559168 0.80995315 7.4969468e-43
-1.2662457 0.89718854 0.80726767 1.1070258e-42
-1.254459 0.89967972 0.80300623 9.2941121e-41
-1.2996511 0.89098901 0.81702507 1.8514656e-40
-1.2919414 0.89210683 0.81561673 7.4549078e-43
-1.2843109 0.89254665 0.81601959 3.2229865e-44
-1.2802203 0.89332533 0.81477207 7.5249728e-43
-1.271641 0.89396828 0.81482482 7.5950377e-43
-1.2650676 0.89531219 0.81257069 1.1084271e-42
-1.2556279 0.89693141 0.81017095 7.4829338e-43
-1.2457508 0.89906293 0.80648148 5.0446745e-44
-1.3106575 0.88707286 0.82528991 2.7588624e-40
-1.2930261 0.88859624 0.8248536 9.2226458e-41
-1.2842487 0.89043313 0.82172936 9.2226458e-41
-1.2793006 0.89141285 0.82011855 3.8535708e-43
-1.2696565 0.89228845 0.81976587 1.8441788e-40
-1.2593822 0.89440197 0.81620747 9.258379e-41
-1.2517513 0.89562958 0.81448692 1.1084271e-42
-1.2024777 0.99642491 0.55305409 3.5985106e-39
-1.2204616 0.99178922 0.56180596 3.9669134e-39
-1.2139665 0.99271148 0.56067193 3.6907035e-39
-1.2042302 0.99225438 0.56393069 1.8493636e-39
-1.1971593 0.99331671 0.5625391 9.245487e-40
-1.1902426 0.99347824 0.56354344 7.430273e-40
-1.2054417 0.99006236 0.56958693 7.430245e-40
-1.1983725 0.99113423 0.56816936 4.6715788e-40
-1.1885664 0.99179131 0.56843925 1.5699041e-39
-1.1911249 0.98946112 0.57418776 6.5047574e-40
-1.1840991 0.99053901 0.57274467 1.4777113e-39
-1.2117398 0.98516905 0.58146566 9.8375356e-41
-1.1948674 0.98777568 0.57795173 5.5935351e-40
-1.187443 0.98807633 0.57868665 7.4267557e-40
-1.1824228 0.98885804 0.5776245 7.4338603e-40
-1.181648 0.98697674 0.58285677 1.2007685e-39
-1.1932416 0.98322242 0.59056324 8.3198313e-40
-1.1726296 0.98646474 0.58611411 1.2011272e-39
-1.1915438 0.98153001 0.59547836 7.4014903e-40
-1.1709563 0.98479426 0.59096503 4.6679354e-40
-1.1858 0.98042852 0.59964305 9.8011018e-41
-1.1765759 0.98194456 0.59747666 1.9056958e-40
-1.1692786 0.98312485 0.59581411 2.8240648e-40
-1.1868206 0.97828943 0.60519642 9.8365547e-41
-1.1798333 0.97941619 0.60361367 5.4580575e-42
-1.1920583 0.97547346 0.6116966 4.631964e-40
-1.1874313 0.97620946 0.61067563 4.6462293e-40
-1.1831518 0.97688842 0.60973632 4.642754e-40
-1.1718501 0.97873896 0.60710073 8.3268938e-40
-1.1646159 0.97992939 0.60539788 8.3163e-40
-1.1903347 0.97377813 0.61662483 2.7987854e-40
-1.1857071 0.97451878 0.61559176 3.7207697e-40
-1.1791177 0.9755953 0.61406153 5.8153886e-42
-1.1701411 0.97706646 0.6119647 6.4866386e-40
-1.1629241 0.97826356 0.6102401 5.5539764e-40
-1.1922444 0.97141087 0.6226083 2.795156e-40
-1.1839783 0.97282922 0.62050569 3.7170983e-40
-1.1773961 0.97391278 0.61895519 2.795142e-40
-1.1704489 0.97505939 0.61731052 5.5646263e-40
-1.1635211 0.97620308 0.61566973 5.5646963e-40
-1.1905018 0.9697144 0.62754363 2.7951e-40
-1.1855651 0.97053224 0.62636673 6.4758206e-40
-1.1766026 0.9720248 0.62420928 5.5538923e-40
-1.1669993 0.97364408 0.62184346 5.561067e-40
-1.1624929 0.97438884 0.62077403 5.8027769e-42
-1.1555908 0.97553855 0.61911184 6.4866386e-40
-1.1957451 0.96684742 0.63418019 4.6391247e-40
-1.1887544 0.96801919 0.63247681 3.2902488e-42
-1.1814426 0.96924585 0.63069242 2.7952401e-40
-1.1748714 0.97034454 0.62909865 1.8732698e-40
-1.1652858 0.97197473 0.62669992 2.7987293e-40
-1.1607876 0.97272265 0.62562019 3.7242449e-40
-1.1538943 0.97387975 0.62393606 5.5646543e-40
-1.193984 0.96514583 0.63913327 2.7948758e-40
-1.1870023 0.96632504 0.63740808 6.4505272e-40
-1.1774232 0.96796429 0.63498336 5.5537522e-40
-1.1731354 0.96866542 0.63398606 3.2762358e-42
-1.1656036 0.96995723 0.63207173 1.8732558e-40
-1.1590776 0.97105747 0.63046449 1.8732698e-40
-1.1509659 0.97154444 0.6308403 3.7207277e-40
-1.1949998 0.9629305 0.64489329 2.7842259e-40
-1.1846446 0.96475196 0.6421389 2.7807787e-40
-1.1780698 0.96586812 0.64049894 4.6281946e-40
-1.1707954 0.96710825 0.63867038 4.6281805e-40
-1.1638815 0.96828616 0.63693446 3.7207837e-40
-1.1522431 0.96931773 0.63657641 2.8022466e-40
-1.2032194 0.95948726 0.65246338 3.9937006e-42
-1.1982906 0.96032465 0.65123218 3.990898e-42
-1.1883321 0.96206087 0.64862508 1.8587664e-40
-1.1793494 0.96360856 0.64632303 9.4391465e-41
-1.172417 0.96479917 0.64455688 2.5517645e-42
-1.1677794 0.96557063 0.64344269 5.5501368e-40
-1.1608818 0.96675551 0.64168477 3.7133709e-40
-1.1531292 0.96718282 0.64214665 9.6186528e-41
-1.1457152 0.96847832 0.64019775 5.561067e-40
-1.2035099 0.95740485 0.65801597 3.2860449e-42
-1.1965177 0.95861363 0.65621316 9.4745993e-41
-1.1865767 0.96036124 0.65357172 2.795072e-40
-1.1776005 0.96192044 0.65123737 2.9175034e-42
-1.1706771 0.96311837 0.64944941 2.9132995e-42
-1.1639884 0.96425772 0.6477707 4.6245932e-40
-1.1558484 0.96476102 0.64810836 4.6281525e-40
-1.1514003 0.96551955 0.6469897 3.7241889e-40
-1.141968 0.96718568 0.64446205 7.3977489e-40
-1.2017235 0.95568746 0.66301692 6.4540584e-40
-1.1947399 0.9569037 0.66119224 2.7877712e-40
-1.1874317 0.95817852 0.6592772 3.629363e-42
-1.1779076 0.9598645 0.65671515 3.9740824e-42
-1.1689324 0.96143878 0.65433997 2.9132995e-42
-1.1622427 0.9625867 0.65263826 4.6281385e-40
-1.1561521 0.96272629 0.65352976 3.702735e-40
-1.1496668 0.96385735 0.65183097 6.4757926e-40
-1.1402519 0.96553421 0.64927065 5.5466896e-40
-1.2902123 0.94003326 0.68679327 4.2356264e-39
-1.2033654 0.9533087 0.66908699 2.1958347e-42
-1.1960361 0.95459729 0.66713917 2.1888282e-42
-1.1856579 0.95647776 0.66423082 2.7877712e-40
-1.1783794 0.95775729 0.66229695 9.4390063e-41
-1.1671828 0.95976013 0.65922874 2.558771e-42
-1.1552224 0.96088159 0.65869552 2.7842539e-40
-1.1385313 0.9638837 0.65407759 3.713497e-40
-1.2952516 0.93600148 0.69661182 8.2929039e-39
-1.2038671 0.95122612 0.67459607 1.849714e-42
-1.1991347 0.95203447 0.67340207 3.2790384e-42
-1.194249 0.95288569 0.67212474 9.4391465e-41
-1.1872956 0.95411575 0.67025661 3.7061682e-40
-1.180016 0.95540589 0.66829431 1.8658289e-40
-1.172963 0.95666969 0.66635579 9.402993e-41
-1.1636593 0.95833099 0.66381443 3.6279617e-42
-1.1558819 0.95877057 0.66424847 2.7806246e-40
-1.1491972 0.95994419 0.66247636 4.6245372e-40
-1.1398201 0.96164268 0.65985012 5.5466476e-40
-1.1333832 0.96278352 0.65811491 4.6282786e-40
-1.2902955 0.93475777 0.70099574 5.2515398e-39
-1.2878735 0.93514031 0.70046872 5.5174305e-40
-1.2071021 0.94856215 0.68110329 2.9118982e-42
-1.1997693 0.94987029 0.67910361 2.7913165e-40
-1.1924571 0.95117509 0.67710853 5.5356054e-40
-1.1855125 0.95241255 0.67521858 2.7877151e-40
-1.1782417 0.95371073 0.67323267 9.4384458e-41
-1.1713586 0.95493549 0.67136425 9.4737585e-41
-1.1644731 0.95616364 0.66948706 9.508791e-41
-1.13809 0.95999044 0.66466367 2.7877572e-40
-1.2908425 0.93347871 0.70432943 7.3713148e-39
-1.2859615 0.93332958 0.70574749 6.4397792e-40
-1.2084166 0.94621611 0.68715328 1.8371023e-42
-1.1979636 0.94815266 0.68410921 2.5405541e-42
-1.1906601 0.94946557 0.68209058 4.6101879e-40
-1.1837245 0.95071042 0.68017882 2.1902295e-42
-1.1764623 0.95201671 0.67816937 1.8314971e-42
-1.1695868 0.95324904 0.67627883 1.8693602e-40
-1.1588655 0.95426363 0.67577565 2.7877852e-40
-1.1499795 0.95588046 0.67326707 9.4390063e-41
-1.1299334 0.95949388 0.66769987 3.7028331e-40
-1.209054 0.94402421 0.69292885 2.7698626e-40
-1.2017245 0.94535202 0.69087541 1.835701e-42
-1.1973233 0.94611329 0.68973958 9.4383057e-41
-1.1850362 0.9483918 0.68615544 2.1902295e-42
-1.1746782 0.9503237 0.68310416 2.9118982e-42
-1.1678101 0.9515636 0.68119162 2.1916308e-42
-1.1516281 0.95353597 0.67924339 9.4387261e-41
-1.146876 0.95438331 0.67794865 2.7842539e-40
-1.2973599 0.9279936 0.7177577 9.7683871e-39
-1.2121106 0.94142193 0.69930696 4.6173485e-40
-1.207231 0.94229198 0.69797748 1.8478362e-40
-1.2024645 0.94312692 0.69671905 2.1902295e-42
-1.1955086 0.94439346 0.69475305 9.4387261e-41
-1.185782 0.94618803 0.69194043 1.8342997e-42
-1.1763331 0.94794643 0.68916756 2.7733939e-40
-1.1669288 0.94969553 0.68641043 2.1958347e-42
-1.1576409 0.95140874 0.68372566 2.5531658e-42
-1.1519397 0.95146936 0.68474901 1.8658149e-40
-1.2983235 0.92562664 0.72393721 9.4925289e-39
-1.2131941 0.93911016 0.70531273 4.6173345e-40
-1.2054029 0.94056076 0.70302433 1.8478362e-40
-1.2006361 0.94140071 0.70175254 2.1916308e-42
-1.1936892 0.94267464 0.69976473 2.7877992e-40
-1.1839707 0.94448191 0.69691604 1.8587243e-40
-1.1770685 0.94574851 0.69493884 1.8548988e-40
-1.1676753 0.94750887 0.6921491 2.1846243e-42
-1.1566416 0.94861007 0.69147736 9.4384458e-41
-1.1501738 0.94979781 0.68962222 2.7842399e-40
-1.1433662 0.95105398 0.6876533 2.7877712e-40
-1.1298225 0.95355248 0.68373781 9.5826394e-41
-1.1213725 0.95512652 0.68125385 3.6279617e-42
-1.3088398 0.92137253 0.73321509 8.3840402e-39
-1.2914428 0.92405879 0.7295956 1.4727647e-42
-1.2806532 0.92667228 0.72479677 1.8160828e-42
-1.2148556 0.93666118 0.71156782 2.1958347e-42
-1.2035698 0.93883061 0.70806944 1.8548848e-40
-1.1988028 0.93967557 0.70678413 2.1846243e-42
-1.1918651 0.94095689 0.70477462 9.4388662e-41
-1.1845975 0.94230282 0.70265931 1.8455101e-42
-1.1773506 0.94364548 0.70054877 1.8413062e-42
-1.1658843 0.94582194 0.69706887 1.8272932e-42
-1.1597133 0.94598264 0.6979202 2.1860256e-42
-1.1504773 0.94772106 0.69515687 1.8132802e-42
-1.1436743 0.94898558 0.69316447 2.5419554e-42
-1.1369706 0.95021665 0.69124144 2.5489619e-42
-1.1280769 0.95190424 0.68854392 2.1916308e-42
-1.1196339 0.9534893 0.68602878 3.9740824e-42
-1.3023031 0.92016304 0.73783571 5.3444683e-39
-1.2154759 0.93443435 0.71744108 2.1930321e-42
-1.2053114 0.93635881 0.7143696 1.8328984e-42
-1.1980072 0.93772084 0.7122187 1.8300958e-42
-1.1931864 0.93859667 0.71086138 1.4797712e-42
-1.1827767 0.94059414 0.70764399 1.8300958e-42
-1.175539 0.94194484 0.70550984 2.544758e-42
-1.1542959 0.94490474 0.70195323 1.8513955e-40
-1.1474963 0.94617587 0.69994223 3.2566176e-42
-1.1407093 0.94744724 0.69792801 7.4969468e-43
-1.1318277 0.94914633 0.69519699 2.1846243e-42
-1.2868356 0.9198392 0.74192822 1.8514376e-40
-1.2209575 0.93131191 0.72471648 2.5517645e-42
-1.2136141 0.93269002 0.72253042 2.7733799e-40
-1.2034594 0.93462771 0.71942115 2.7699467e-40
-1.1961221 0.93602037 0.71719462 1.835701e-42
-1.191352 0.93687695 0.71587861 1.1112297e-42
-1.1865512 0.93775487 0.71451151 2.1888282e-42
-1.1772056 0.93953323 0.71166331 2.5405541e-42
-1.1678551 0.94132745 0.7087732 2.1846243e-42
-1.1610118 0.94261253 0.70673388 2.7733238e-40
-1.1525083 0.94322473 0.70685381 1.4755673e-42
-1.1457162 0.94450349 0.70482063 2.7733378e-40
-1.1389382 0.94578218 0.70278478 2.7733098e-40
-1.1300727 0.94749123 0.70002353 1.8258919e-42
-1.1212739 0.94917303 0.69732183 2.544758e-42
-1.11701 0.94993657 0.69615102 2.1902295e-42
-1.3005153 0.91631866 0.74857038 1.0972167e-42
-1.2190819 0.92956054 0.7298277 2.1888282e-42
-1.2092685 0.9314425 0.72679758 2.7734079e-40
-1.2044662 0.93230933 0.72546077 2.7734219e-40
-1.1967839 0.93378234 0.72308946 1.8514376e-40
-1.1895131 0.93515819 0.72089422 1.8478783e-40
-1.1847215 0.93603939 0.71951634 1.8342997e-42
-1.1778377 0.93733972 0.7174443 1.835701e-42
-1.1660501 0.9396348 0.71371156 1.8342997e-42
-1.1578726 0.94018304 0.71393579 2.1902295e-42
-1.1507159 0.94154567 0.71175271 1.835701e-42
-1.1418483 0.94325197 0.70899922 2.7733238e-40
-1.1350833 0.9445371 0.70694327 2.7697785e-40
-1.1304122 0.94540113 0.70558649 2.7697925e-40
-1.1195213 0.94753057 0.70211369 4.6101178e-40
-1.1152575 0.94829857 0.70093113 2.1902295e-42
-1.220775 0.92706639 0.73619801 9.4388662e-41
-1.2098755 0.9292044 0.73270398 2.1888282e-42
-1.2025937 0.93057698 0.73051995 1.8342997e-42
-1.1974231 0.9315393 0.72900236 2.7804564e-40
-1.1876688 0.93344051 0.72590798 2.7734359e-40
-1.1828866 0.93432492 0.72451949 2.7698206e-40
-1.1710818 0.93664318 0.72072792 1.835701e-42
-1.1642399 0.93794316 0.71864814 2.544758e-42
-1.1560665 0.93849701 0.71885657 1.8300958e-42
-1.1464829 0.94036341 0.71582049 1.8300958e-42
-1.1400583 0.94158566 0.71386331 2.5405541e-42
-1.1333022 0.94287813 0.71178567 2.1678087e-42
-1.1262199 0.94423795 0.70959467 9.2938318e-41
-1.1177639 0.94588912 0.70690399 2.5433567e-42
-1.1135006 0.94666141 0.7057097 2.5349489e-42
-1.3100328 0.90995085 0.76375324 6.3596894e-39
-1.2188895 0.92531234 0.74131858 2.1916308e-42
-1.2140564 0.92620879 0.73990828 2.5601723e-42
-1.2092257 0.92709243 0.73853201 2.2056438e-42
-1.1990938 0.92907226 0.73530424 3.6953782e-40
-1.1893561 0.93098527 0.73217475 3.6953782e-40
-1.1810468 0.93261153 0.72952092 4.6101879e-40
-1.1717137 0.93444496 0.72652149 1.4811725e-42
-1.162425 0.93625242 0.7235831 1.8300958e-42
-1.1527096 0.9370234 0.72352719 1.8455101e-42
-1.1438292 0.93875951 0.72069591 2.9090956e-42
-1.1346302 0.94056386 0.71774727 2.5419554e-42
-1.1278958 0.94186258 0.71564835 2.7733939e-40
-1.1211786 0.94315648 0.71355885 2.5489619e-42
-1.1148273 0.94437605 0.71159369 2.544758e-42
-1.1060876 0.94610351 0.70875657 9.4381655e-41
-1.3052751 0.90876913 0.76792902 4.3306737e-39
-1.3011931 0.90945143 0.76693958 2.544758e-42
-1.2261175 0.92285585 0.74643546 1.8427075e-42
-1.2198548 0.92297125 0.74742782 2.5531658e-42
-1.212175 0.9244588 0.74501699 5.5320461e-40
-1.2045203 0.92594385 0.74260712 2.5531658e-42
-1.1972401 0.92735106 0.74032956 9.3679605e-41
-1.1899626 0.92874408 0.73808956 2.7733939e-40
-1.1851976 0.92963517 0.73667955 2.1958347e-42
-1.1755252 0.93155223 0.7335254 2.5531658e-42
-1.166217 0.93338007 0.73053598 1.8483127e-42
-1.1569554 0.93521374 0.72752124 2.2000386e-42
-1.1509026 0.93533826 0.72844559 1.8300958e-42
-1.1420299 0.93708616 0.72558099 2.5363502e-42
-1.1349308 0.93846881 0.72333187 2.1846243e-42
-1.1261137 0.94020879 0.72047704 9.3671197e-41
-1.1173395 0.94195169 0.71760547 1.8513535e-40
-1.1130605 0.94273674 0.71638 1.8230893e-42
-1.1043369 0.9444741 0.71351296 1.1056245e-42
-1.3087883 0.90582931 0.77512175 8.2832994e-40
-1.227054 0.92049456 0.7526052 2.5475606e-42
-1.2175763 0.92128122 0.75245756 2.1930321e-42
-1.2127564 0.92218459 0.75102592 2.1888282e-42
-1.205458 0.92360383 0.74871957 1.1070258e-42
-1.1978297 0.92509454 0.74628919 1.835701e-42
-1.1905737 0.92650694 0.74399239 1.8244906e-42
-1.183339 0.92791593 0.74170041 2.1944334e-42
-1.176125 0.92932159 0.73941326 2.1874269e-42
-1.1668487 0.93117261 0.73635477 1.4699621e-42
-1.1586533 0.9317351 0.73654431 2.7733238e-40
-1.1515124 0.93313396 0.73426014 1.8230893e-42
-1.1447418 0.93445629 0.73210537 2.1650061e-42
-1.1355461 0.9362855 0.72908878 3.6083435e-42
-1.1267321 0.93803763 0.72620058 1.8258919e-42
-1.1221122 0.93891239 0.72480434 1.1042232e-42
-1.1133415 0.94065511 0.72193253 1.8118789e-42
-1.1070185 0.94188607 0.71993065 2.1720126e-42
-1.3054268 0.90396786 0.78083909 8.2654329e-40
-1.2262082 0.91741842 0.76107281 2.1888282e-42
-1.2185234 0.91892827 0.7586028 2.1818217e-42
-1.2133148 0.91990572 0.75705224 2.5475606e-42
-1.2035667 0.92186099 0.75381082 1.1084271e-42
-1.1959482 0.92336029 0.75135553 1.8514236e-40
-1.1911442 0.9242543 0.74994558 1.8478923e-40
-1.1814754 0.92619777 0.74671966 1.8413062e-42
-1.1742703 0.92761141 0.74440891 2.5419554e-42
-1.1650115 0.92947263 0.7413193 1.1084271e-42
-1.1568191 0.9300409 0.74149281 1.8513815e-40
-1.1496871 0.9314478 0.73918504 1.8230893e-42
-1.1429253 0.93277746 0.73700851 1.8549408e-40
-1.1337368 0.93461925 0.73395669 2.8950826e-42
-1.1270192 0.93594158 0.73179072 7.4829338e-43
-1.1202822 0.93725383 0.72965574 3.8815967e-43
-1.1115575 0.93901533 0.72672379 1.1056245e-42
-1.233079 0.91500527 0.76614738 2.1888282e-42
-1.2255354 0.91525519 0.76704383 1.8300958e-42
-1.2178636 0.91677397 0.76454693 1.1238414e-42
-1.2077011 0.91881919 0.76114941 1.8442769e-40
-1.2004263 0.92025429 0.75879532 2.7697925e-40
-1.186824 0.92305547 0.7540763 2.7698486e-40
-1.1820353 0.92395192 0.75265664 2.2028412e-42
-1.1655874 0.92724615 0.74720079 1.112631e-42
-1.1466657 0.92989039 0.744012 1.8513675e-40
-1.1399199 0.93122679 0.74181384 2.7626319e-40
-1.2351481 0.91237676 0.77280158 1.474166e-42
-1.2274349 0.91390586 0.77028555 1.835701e-42
-1.2236065 0.91348451 0.77221805 1.8314971e-42
-1.2159446 0.91501176 0.76969612 2.7698486e-40
-1.2057908 0.91707075 0.76625985 1.8514376e-40
-1.198525 0.91851395 0.76388228 1.8513815e-40
-1.1909345 0.92002946 0.76137716 1.8514796e-40
-1.1813003 0.92199522 0.75808388 1.1224401e-42
-1.1741031 0.92342758 0.75572109 4.2038954e-44
-1.1694057 0.92432731 0.75427365 1.844333e-40
-1.0982218 0.93764251 0.73319995 3.6994279e-43
-1.2332095 0.91060001 0.77799422 1.4853764e-42
-1.2283884 0.91152197 0.7765128 1.8413062e-42
-1.2216722 0.91171491 0.77739066 1.8314971e-42
-1.2140207 0.91325063 0.77484387 1.8514236e-40
-1.2067369 0.91470647 0.77243584 1.8514796e-40
-1.1966182 0.91677457 0.76896751 7.5529987e-43
-1.1890383 0.91829842 0.76643771 2.5531658e-42
-1.181824 0.91974276 0.76404625 3.2804397e-42
-1.1722333 0.92171544 0.76072526 4.0217266e-43
-1.0944408 0.93646419 0.73716319 7.300765e-43
-1.2312655 0.90882432 0.78318512 1.4755673e-42
-1.2235702 0.91037101 0.78061807 1.1070258e-42
-1.2197328 0.90994626 0.7825616 1.8413062e-42
-1.2120914 0.91149038 0.77998996 2.9118982e-42
-1.1947068 0.91503614 0.77405113 1.8515777e-40
-1.1871368 0.91656852 0.77149642 3.6918749e-40
-1.1775378 0.91855592 0.76813751 1.8658569e-40
-1.1679701 0.92053878 0.76478428 1.112631e-42
-1.1632001 0.92144936 0.76332277 1.8515216e-40
-1.1585367 0.92235285 0.76185805 1.8548567e-40
-1.3157324 0.89065611 0.81457508 1.103835e-39
-1.2370106 0.90549177 0.79097211 7.5389857e-43
-1.2293164 0.90704972 0.78837425 2.2098477e-42
-1.224514 0.90797758 0.7868728 4.1338305e-43
-1.2138029 0.90892786 0.78654093 2.1860256e-42
-1.195408 0.91273886 0.78009742 3.6846723e-40
-1.1638082 0.91920298 0.76925117 1.8515637e-40
-1.2397215 0.90288275 0.79744023 3.8395578e-43
-1.233946 0.90382993 0.79608941 2.1902295e-42
-1.223714 0.90595537 0.79249012 1.1112297e-42
-1.2157038 0.90759641 0.78973418 1.8286945e-42
-1.3056256 0.88810468 0.82355607 7.328791e-43
-1.2430021 0.89955086 0.80573839 7.4969468e-43
-1.2272005 0.9029811 0.79978138 1.1084271e-42
-1.3176116 0.8835479 0.83334368 2.4835227e-39
-1.3119124 0.88474816 0.83129478 1.8369902e-40
-1.3041656 0.88597929 0.82958889 3.8956097e-43
-1.2405167 0.89794761 0.81057727 1.1112297e-42
-1.2322162 0.89975768 0.80742604 3.0828566e-44
-1.3135034 0.8817215 0.83912194 1.928921e-39
-1.3097644 0.88248312 0.83784729 2.7588764e-40
-1.3030387 0.88394016 0.83531976 3.8675838e-43
-1.2925557 0.88624561 0.83128756 7.5950377e-43
-1.2818731 0.8886264 0.82709372 7.4549078e-43
-1.2800554 0.88847792 0.8278724 3.8395578e-43
-1.2711318 0.88950145 0.82697111 9.258379e-41
-1.2622564 0.89099765 0.82478559 3.9656747e-43
-1.254657 0.89265454 0.8219012 1.4671595e-42
-1.2458379 0.89464051 0.81838375 7.5950377e-43
-1.3108966 0.88005334 0.84416085 1.83744e-39
-1.3085802 0.88051534 0.8433978 1.8369762e-40
-1.3027114 0.88177091 0.84123504 7.4408948e-43
-1.289987 0.88459784 0.83626378 1.0930128e-42
-1.2810439 0.8861047 0.83406365 7.4549078e-43
-1.2769406 0.88650453 0.83383983 1.8514516e-40
-1.2694027 0.88812613 0.83103794 3.6917769e-40
-1.2628871 0.8886587 0.83095855 7.4408948e-43
-1.2552921 0.89032567 0.82804632 1.4699621e-42
-1.2476377 0.89200878 0.82510287 7.4969468e-43
-1.2402841 0.89362407 0.82227951 7.5670117e-43
-1.313064 0.87727433 0.8512004 3.033821e-39
-1.3111575 0.87762415 0.85065424 3.7975188e-43
-1.304986 0.87895715 0.84834582 9.2934114e-41
-1.2992798 0.88010478 0.84644026 1.8230893e-42
-1.287966 0.88224941 0.84301454 7.4268819e-43
-1.2797625 0.88405967 0.83984256 3.8815967e-43
-1.2718631 0.8858012 0.83679253 7.3848429e-43
-1.2619691 0.88660866 0.83667558 7.4268819e-43
-1.2545563 0.88825572 0.83377892 7.5389857e-43
-1.2465589 0.89001858 0.83069199 3.9656747e-43
-1.3049465 0.8768698 0.85398054 2.9427268e-44
-1.3057721 0.87642533 0.85500669 2.1804204e-42
-1.294143 0.87911946 0.85016543 1.4545478e-42
-1.2876215 0.88008606 0.84891725 7.3988559e-43
-1.2771735 0.88242334 0.84479219 4.6100057e-40
-1.2705742 0.88388473 0.84222656 1.8477662e-40
-1.2532885 0.88635099 0.83917695 1.1112297e-42
-1.3025932 0.87523377 0.8588801 3.0828566e-44
-1.300356 0.87496138 0.86008 1.4573504e-42
-1.2921593 0.87679529 0.85684305 7.4268819e-43
-1.287798 0.87774724 0.85518479 3.643376e-44
-1.2787809 0.87976527 0.85162222 1.8477662e-40
-1.2679924 0.88225693 0.84715176 9.2575382e-41
-1.2494472 0.88502723 0.84354478 9.2578184e-41
-1.3074625 0.87148696 0.86796606 3.3631163e-44
-1.2977012 0.87330484 0.86509764 1.8441648e-40
-1.2908318 0.87484765 0.86236912 2.3822074e-44
-1.2851738 0.87610036 0.86017007 2.6624671e-44
-1.2772864 0.87787414 0.85703069 3.5032462e-44
-1.2693263 0.87966651 0.85385638 9.258379e-41
-1.2485473 0.8829776 0.84925663 2.3822074e-44
-1.233991 0.88577449 0.84474754 9.2576783e-41
-1.3057539 0.86996597 0.87242138 1.821688e-44
-1.3051482 0.86924565 0.87448907 2.8025969e-44
-1.2956427 0.87140626 0.87064373 7.3988559e-43
-1.2874552 0.87326258 0.86734444 2.3822074e-44
-1.2795707 0.8750481 0.86417276 3.7694929e-43
-1.2479357 0.88127851 0.85396373 3.9376487e-43
-1.3002177 0.86811453 0.87856424 7.4128689e-43
-1.2929784 0.86975133 0.87565911 7.3988559e-43
-1.2848064 0.87161601 0.87233394 3.8255448e-43
-1.2769367 0.87340957 0.86913753 3.2229865e-44
-1.2913707 0.86781126 0.88122314 7.300765e-43
-1.2729365 0.87155217 0.87497675 3.8675838e-43
-1.2812121 0.86786574 0.88319087 3.8115318e-43
-1.2537657 0.87375736 0.87302315 1.2611686e-44
-1.2667407 0.86850888 0.88446951 7.4408948e-43
-1.2586682 0.87039268 0.8810721 3.8535708e-43
-1.135272 0.80093896 1.093966 4.6099777e-40
-1.1256455 0.79867822 1.1020635 5.6051939e-45
-1.3035904 0.91631252 0.7479468 6.3611103e-39
-1.304288 0.91347992 0.75543666 6.2660462e-39
-1.313629 0.90503174 0.77626401 7.4667362e-39
-1.3047129 0.90473676 0.77891511 4.3292331e-39
-1.3094957 0.90086925 0.7883442 5.0635542e-39
-1.3165106 0.89718515 0.79681432 4.0530106e-39
-1.3168585 0.89484781 0.80304211 7.0936349e-39
-1.3205864 0.8873384 0.82250732 7.5542557e-39
-1.3150692 0.88633239 0.8263675 3.3176035e-39
-1.3298156 0.88067079 0.83855861 9.7618963e-39
-1.3225605 0.8793388 0.8436591 5.3430277e-39
-1.2478238 0.89624101 0.81365639 1.4012985e-44
-1.3068283 0.87617761 0.8554545 4.2038954e-45
-1.4031416 0.84930921 0.90782952 0
-1.0607368 0.83372349 1.0211115 0
-1.1376029 0.79741591 1.1029772 7.0064923e-45
-0.99890846 0.82822448 1.0488032 2.8025969e-45
-1.1052425 0.94025326 0.72470164 1.8118789e-42
-1.0999916 0.93927217 0.72843903 2.8025969e-45
-1.3954567 0.86593652 0.86461103 1.3266774e-38
-1.3966804 0.86502618 0.86681002 3.5873241e-43
-1.3928012 0.86449206 0.86905724 6.4465335e-40
-1.4013886 0.8620314 0.87390244 9.2016964e-40
-1.3972503 0.86046624 0.87898254 3.7134409e-43
-1.4026933 0.85746753 0.88593251 4.2038954e-45
-1.4000493 0.85790205 0.88531154 0
-1.3952004 0.85858631 0.88447648 0
-1.3964956 0.85604054 0.89106899 1.4012985e-45
-1.3940597 0.85653192 0.89025158 1.8367379e-40
-1.3969054 0.85520154 0.8932451 1.1210388e-44
-1.3957088 0.85394615 0.89687806 1.4012985e-45
-1.3950137 0.85391623 0.89710331 1.8367379e-40
-1.3975848 0.85255158 0.90024656 0
-1.3967907 0.85104537 0.90447176 1.1210388e-44
-1.2994792 0.86593884 0.88458246 3.7694929e-43
-1.2881804 0.86627448 0.8860296 3.2229865e-44
-1.2909331 0.86327612 0.89353848 3.7975188e-43
-1.276956 0.86603445 0.88901281 1.821688e-44
-1.2900298 0.8611353 0.89949691 2.2420775e-44
-1.2872065 0.85938519 0.90480196 3.6772734e-40
-1.3115274 0.86506057 0.88444191 2.8025969e-45
-1.2966508 0.8663063 0.88418072 0
-1.2969592 0.86393267 0.89051449 0
-1.2924682 0.86506271 0.88840342 1.1210388e-44
-0.97944492 0.83476132 1.0352348 0
-0.98200792 0.83148932 1.0435208 7.0064923e-45
-0.97812223 0.83273828 1.0409631 7.0064923e-45
-1.283169 0.85766435 0.91028088 4.591957e-40
-1.3952816 0.86164975 0.87620217 1.1210388e-44
-1.3970364 0.86071128 0.87836671 7.286752e-43
-1.3976159 0.86053342 0.87872541 7.314778e-43
-1.4030418 0.8586821 0.88258612 7.2447131e-43
-1.3878679 0.85909396 0.88463449 5.6051939e-45
-1.3990444 0.86153561 0.87572658 7.3722733e-40
-1.1748803 0.92537981 0.75029707 3.253815e-42
-1.1562476 0.92794949 0.74724913 1.8244906e-42
-1.130734 0.93308318 0.73872221 3.0828566e-44
-1.1264061 0.93389076 0.73744613 3.8956097e-43
-1.1173499 0.93573833 0.7343511 1.474166e-42
-1.1622454 0.92575401 0.75191855 2.1944334e-42
-1.1544037 0.92625254 0.75220692 1.1140323e-42
-1.1448303 0.92820644 0.74893296 9.2946726e-41
-1.1380149 0.92955369 0.74672019 3.9236357e-43
-1.1289151 0.93141919 0.74358594 2.8025969e-44
-1.1245877 0.93223125 0.74229777 3.9096227e-43
-1.1179087 0.93356526 0.74009234 1.1084271e-42
-1.1675448 0.92261827 0.75926769 4.1478435e-43
-1.1603935 0.92405295 0.75688905 1.835701e-42
-1.1525546 0.92455661 0.75716305 3.9236357e-43
-1.1454501 0.92598844 0.75478238 9.2949528e-41
-1.1362623 0.92787457 0.75161088 3.9937006e-43
-1.1295414 0.92922336 0.74937439 3.9096227e-43
-1.1204077 0.93109989 0.74621743 3.9096227e-43
-1.1137432 0.93244052 0.7439909 3.8535708e-43
-1.2048167 0.91295433 0.77755827 1.8455101e-42
-1.1548448 0.92194164 0.76373494 7.5249728e-43
-1.1484293 0.92322993 0.76159787 1.8202867e-42
-1.1365304 0.92573804 0.75731415 7.4829338e-43
-1.1301627 0.92701852 0.75518799 3.2229865e-44
-1.1206834 0.92898512 0.7518602 1.4447387e-42
-1.09675 0.93392897 0.74351609 3.6994279e-43
-1.2028912 0.91120321 0.78267908 2.1902295e-42
-1.190219 0.91374439 0.77846706 2.7698346e-40
-1.1830125 0.91520703 0.7760247 9.3675401e-41
-1.173447 0.91720349 0.77263439 4.0777785e-43
-1.1591487 0.92011064 0.76777446 4.6137472e-40
-1.1474354 0.92135632 0.76685494 9.2946726e-41
-1.1407084 0.92272615 0.76456273 1.1042232e-42
-1.1315188 0.92464101 0.76131421 7.4408948e-43
-1.1248357 0.92600358 0.75903249 1.0972167e-42
-1.0960294 0.932064 0.74869287 1.6815582e-44
-1.214747 0.90652585 0.79281902 7.6370766e-43
-1.2071152 0.90808928 0.79019332 1.1294466e-42
-1.1998643 0.90956956 0.78771251 1.4867777e-42
-1.1922957 0.91112345 0.78509951 1.8515357e-40
-1.1847301 0.91267604 0.7824893 1.844319e-40
-1.1776792 0.91413039 0.78003681 4.0077136e-43
-1.168021 0.91614974 0.77660424 4.1058045e-43
-1.1608816 0.9176122 0.77414817 7.6931286e-43
-1.1561093 0.91853511 0.77265382 3.643376e-44
-1.1455801 0.91966182 0.77180845 3.9796876e-43
-1.1363933 0.92159104 0.76852059 7.4549078e-43
-1.1296802 0.92296654 0.76621038 3.8535708e-43
-1.1253278 0.92380321 0.76486117 3.8535708e-43
-1.1052663 0.92807281 0.75752842 2.5223372e-44
-1.0986599 0.9294318 0.7552405 1.6815582e-44
-1.2374349 0.90083939 0.80342406 4.3440252e-44
-1.2219197 0.90401119 0.79810399 1.1182362e-42
-1.2128023 0.90475774 0.79798955 1.4839751e-42
-1.2051793 0.90632999 0.79533839 1.4797712e-42
-1.1954246 0.90838015 0.7918427 9.2952331e-41
-1.1880146 0.90992236 0.78922814 3.9796876e-43
-1.1828225 0.91094196 0.78756046 4.0077136e-43
-1.1781429 0.91186136 0.78605634 9.2237669e-41
-1.1709812 0.91333699 0.78356957 7.5950377e-43
-1.1613525 0.91536546 0.78010619 1.1154336e-42
-1.1542374 0.91683322 0.77763093 7.5249728e-43
-1.1437197 0.91796833 0.77676058 3.7835059e-44
-1.1345419 0.91990989 0.77343744 2.5223372e-44
-1.1278365 0.92129296 0.77110511 2.6624671e-44
-1.1255919 0.92165869 0.77058655 3.9236357e-44
-1.1054294 0.92597044 0.76316124 2.3822074e-44
-1.0991555 0.92726088 0.76098877 2.1019477e-44
-1.227783 0.90063417 0.80598629 2.1019477e-44
-1.2228588 0.9015907 0.80443293 1.8513675e-40
-1.2133759 0.90242141 0.80416757 2.7699467e-40
-1.2061166 0.90392238 0.80163282 7.6651026e-43
-1.1933074 0.90669078 0.79683703 9.3299853e-41
-1.1884574 0.90763867 0.79529142 9.2949528e-41
-1.1837703 0.90856349 0.79377431 9.2952331e-41
-1.176239 0.91013122 0.79111636 4.2038954e-44
-1.1690863 0.91161484 0.78860605 4.2038954e-44
-1.1619544 0.91309506 0.78610063 1.474166e-42
-1.1548433 0.91457188 0.78360009 1.4769686e-42
-1.1443278 0.91571236 0.78271478 3.7835059e-44
-1.1326855 0.91822958 0.77835298 2.6624671e-44
-1.1304318 0.91859716 0.77783138 2.6624671e-44
-1.1237438 0.91998631 0.77547914 3.0828566e-44
-1.1123439 0.92246604 0.77116793 2.5223372e-44
-1.1057051 0.92384708 0.76882738 1.5414283e-44
-1.0994346 0.92514539 0.76663291 2.6624671e-44
-1.2402581 0.89584315 0.81630355 1.1210388e-42
-1.2318301 0.89768153 0.81310248 4.0357396e-43
-1.2281986 0.89829987 0.81219161 1.1252427e-42
-1.2208984 0.89981234 0.80963451 3.9937006e-43
-1.2114208 0.90065014 0.809349 1.8514796e-40
-1.2041703 0.90215921 0.80679059 3.9656747e-43
-1.1913801 0.90494442 0.80194539 4.0917915e-43
-1.1865305 0.9058978 0.80038506 9.2952331e-41
-1.1818522 0.90682548 0.79885834 1.8407877e-40
-1.1743301 0.90840191 0.79617488 1.488179e-42
-1.1671861 0.90989357 0.79364115 1.4797712e-42
-1.1600633 0.91138184 0.79111224 1.4727647e-42
-1.1529613 0.91286671 0.78858817 3.9376487e-43
-1.1390173 0.91467589 0.78661376 3.2229865e-44
-1.1301842 0.91656715 0.7833547 2.3822074e-44
-1.1049596 0.92195958 0.77407008 2.9427268e-44
-1.1007992 0.92278194 0.7727195 2.6624671e-44
-1.2339122 0.89500707 0.81987798 1.4699621e-42
-1.2263176 0.89667797 0.81695503 7.5810247e-43
-1.2201134 0.89777541 0.81528831 4.1618564e-43
-1.21214 0.89945507 0.81242061 9.3681006e-41
-1.1986876 0.9010725 0.81086105 1.8328984e-42
-1.1882637 0.90332538 0.80695808 1.4713634e-42
-1.1810818 0.9048335 0.80438799 1.4699621e-42
-1.1764324 0.90576124 0.80285507 3.8535708e-43
-1.1689291 0.90734589 0.80014545 1.1140323e-42
-1.1618056 0.90884471 0.79758823 1.8286945e-42
-1.1547029 0.91034019 0.79503566 7.4829338e-43
-1.1479493 0.91175449 0.79262924 3.9096227e-43
-1.1419224 0.9118644 0.79358745 2.9427268e-44
-1.1324061 0.91392893 0.79000336 2.5223372e-44
-1.1102732 0.91880524 0.78146648 2.8025969e-44
-1.1055883 0.91974062 0.77992034 7.3708299e-43
-1.0989733 0.92113656 0.7775346 1.821688e-44
-1.2411717 0.89119387 0.82864517 7.4268819e-43
-1.2331082 0.8925299 0.82672256 7.3988559e-43
-1.2253494 0.8942526 0.82369405 1.1000193e-42
-1.2161071 0.89631575 0.82005668 1.1028219e-42
-1.2107433 0.89757317 0.81778377 2.7626319e-40
-1.2031369 0.89917988 0.81503618 1.8286945e-42
-1.1940805 0.89994323 0.81486368 1.1294466e-42
-1.1888475 0.90099686 0.81311297 1.8469114e-42
-1.1839858 0.90196455 0.81151664 1.1294466e-42
-1.1768234 0.90347892 0.80892545 1.1140323e-42
-1.1693238 0.90507299 0.80618984 1.1154336e-42
-1.1599036 0.90712816 0.80261099 1.8385036e-42
-1.15281 0.90863156 0.80003518 2.8894774e-42
-1.1460642 0.91005355 0.79760635 3.9796876e-43
-1.1398414 0.91019958 0.79850799 3.9236357e-43
-1.1306882 0.91219395 0.79503757 7.328791e-43
-1.1103765 0.91668165 0.78716904 7.4689208e-43
-1.1012884 0.91866469 0.78371555 7.3988559e-43
-1.0971428 0.91949213 0.78234822 1.460153e-42
-1.2627407 0.88422006 0.84295326 7.4549078e-43
-1.2462503 0.88789582 0.83647794 1.0902102e-42
-1.2387247 0.88911819 0.83474946 1.4629556e-42
-1.2316732 0.8906877 0.83198678 1.1070258e-42
-1.2241085 0.89237803 0.82900506 7.4969468e-43
-1.2155495 0.89429063 0.82563132 7.4689208e-43
-1.2111169 0.89524841 0.82397234 1.8515917e-40
-1.2035141 0.89686441 0.82119882 9.2964943e-41
-1.1947865 0.8975563 0.82115072 1.4895803e-42
-1.1869048 0.8992483 0.81823057 1.8511153e-42
-1.1797358 0.90077358 0.81561142 4.0077136e-43
-1.1748898 0.90174401 0.81400442 7.4969468e-43
-1.1673993 0.90334678 0.81124341 1.4755673e-42
-1.1579969 0.9054125 0.80763251 2.2000386e-42
-1.150912 0.90692401 0.80503297 2.5517645e-42
-1.144174 0.90835357 0.80258209 7.5249728e-43
-1.1381552 0.90846533 0.80353355 7.4408948e-43
-1.1198672 0.91247994 0.7965191 2.3822074e-44
-1.1085254 0.91502285 0.79202563 3.8395578e-43
-1.1019067 0.91643727 0.78959078 7.3708299e-43
-1.0953072 0.91784853 0.78716052 1.1070258e-42
-1.2618356 0.88215506 0.8487078 3.8815967e-43
-1.2443247 0.88562298 0.84300488 9.2941121e-41
-1.2365509 0.8873719 0.83990896 9.2580987e-41
-1.2291381 0.8890937 0.83681107 2.9427268e-44
-1.2215885 0.89079159 0.8338058 7.4689208e-43
-1.2141302 0.89246625 0.83084428 1.1168349e-42
-1.2091454 0.8934769 0.82915777 4.6138453e-40
-1.2015517 0.89510179 0.82635862 4.0357396e-43
-1.1901888 0.89643472 0.82513094 1.8514796e-40
-1.1849569 0.89750069 0.82334661 9.2952331e-41
-1.1777967 0.89903396 0.82070404 4.0217266e-43
-1.1706575 0.9005639 0.8180663 4.0217266e-43
-1.1631814 0.90217477 0.81528032 9.2952331e-41
-1.1560848 0.90369773 0.81265259 1.8514236e-40
-1.149009 0.90521717 0.81002969 3.9236357e-44
-1.1442262 0.90618169 0.80842543 3.7835059e-44
-1.1235189 0.90949845 0.80379546 3.8395578e-43
-1.1123825 0.91202205 0.79931128 2.2420775e-44
-1.1057565 0.91344792 0.79684705 7.3708299e-43
-1.0970329 0.91537523 0.79346794 3.3631163e-44
-1.2592455 0.88053155 0.85362309 3.2229865e-44
-1.2417504 0.88401753 0.84786832 3.8255448e-43
-1.228072 0.88710433 0.84239513 3.9096227e-43
-1.2205353 0.88881129 0.8393628 7.6370766e-43
-1.2132699 0.89045364 0.83644831 7.4969468e-43
-1.2081519 0.8914566 0.83481014 3.7062242e-40
-1.203688 0.8923915 0.83321923 9.2952331e-41
-1.1961133 0.89402455 0.83039415 1.1182362e-42
-1.1870768 0.89480358 0.83017534 4.0357396e-43
-1.1795543 0.89643347 0.8273477 4.4841551e-44
-1.1724148 0.8979739 0.82468176 1.1196375e-42
-1.1678152 0.89891124 0.82311255 1.1224401e-42
-1.1607124 0.90044594 0.8204543 7.4689208e-43
-1.1532718 0.90206259 0.81764537 4.9045446e-44
-1.1484663 0.90303838 0.81601548 2.7554572e-40
-1.139493 0.90503591 0.81249905 1.1070258e-42
-1.1237615 0.90730715 0.80965143 2.6624671e-44
-1.1127522 0.90980613 0.80520725 2.8025969e-44
-1.1039022 0.91178876 0.80170518 3.9376487e-43
-1.097656 0.91313428 0.79937863 3.0828566e-44
-1.2737126 0.87625593 0.86213654 1.1084271e-42
-1.2652316 0.87809515 0.85894424 7.5529987e-43
-1.2451214 0.88097066 0.8553794 4.0077136e-43
-1.2362455 0.8829996 0.851758 7.4829338e-43
-1.2300597 0.8844018 0.84926599 1.4671595e-42
-1.2226187 0.88609707 0.84624517 7.4969468e-43
-1.2153553 0.88775057 0.84330034 7.5529987e-43
-1.209923 0.88848507 0.84245098 7.4549078e-43
-1.2027272 0.89012784 0.83952099 7.4128689e-43
-1.1964351 0.8917073 0.8365733 1.1140323e-42
-1.185118 0.89305168 0.83530521 7.7351675e-43
-1.1798779 0.89413297 0.83348137 7.5950377e-43
-1.1729978 0.8956328 0.83087069 1.8342997e-42
-1.1636204 0.89773512 0.82715583 2.1916308e-42
-1.1587892 0.89872164 0.82550234 1.835701e-42
-1.1513575 0.90034705 0.82266802 1.8399049e-42
-1.1440485 0.90193003 0.81992245 3.9937006e-43
-1.1218697 0.90562409 0.81458187 3.8956097e-43
-1.1108767 0.90813768 0.81009477 2.5223372e-44
-1.1020429 0.91013044 0.80656213 2.9427268e-44
-1.0958046 0.91148281 0.80421537 2.2420775e-44
-1.2690881 0.87519878 0.86594856 3.8675838e-43
-1.2622936 0.87674671 0.86319041 3.8675838e-43
-1.2505579 0.87897444 0.85962838 3.9796876e-43
-1.2425259 0.87936276 0.86025363 3.8956097e-43
-1.2349684 0.88109666 0.85715306 1.4643569e-42
-1.2274927 0.88280928 0.85409278 1.4615543e-42
-1.2200658 0.88451213 0.85104871 1.1084271e-42
-1.2128878 0.88567501 0.84940833 7.5389857e-43
-1.208493 0.88665003 0.84769511 1.821688e-42
-1.1995929 0.88872308 0.84395963 1.1168349e-42
-1.1944567 0.88994759 0.84172821 1.126644e-42
-1.1831535 0.89130068 0.84043372 1.4755673e-42
-1.175649 0.89294821 0.83755499 1.488179e-42
-1.1685275 0.89450467 0.83484203 1.4769686e-42
-1.1616915 0.89600611 0.83221787 1.4713634e-42
-1.1568607 0.89699823 0.83054918 1.1070258e-42
-1.1494384 0.89863241 0.82768929 1.4671595e-42
-1.1446338 0.89961934 0.82602906 1.1070258e-42
-1.1178442 0.90446281 0.81854999 2.8025969e-44
-1.1089964 0.90647012 0.81498104 2.5223372e-44
-1.1001788 0.90847296 0.81141782 2.3822074e-44
-1.0939481 0.90983224 0.8090508 1.0818024e-42
-1.2852139 0.86919677 0.87877011 3.8255448e-43
-1.2671009 0.87286395 0.87265569 2.5223372e-44
-1.2572761 0.87515372 0.8685286 3.8675838e-43
-1.2479588 0.87736374 0.86451107 9.1874733e-41
-1.2429566 0.87698245 0.86658001 3.0828566e-44
-1.237424 0.87823814 0.86434704 1.4573504e-42
-1.2284256 0.88037938 0.86044836 1.1098284e-42
-1.2207313 0.88215804 0.85725558 7.6510896e-43
-1.2142272 0.88310504 0.85605687 3.9236357e-44
-1.2039894 0.88556081 0.85156834 1.8477802e-40
-1.1970676 0.88715774 0.84870476 1.1042232e-42
-1.1924727 0.88818884 0.84688181 1.4755673e-42
-1.1837176 0.88893187 0.8467015 1.4727647e-42
-1.1765785 0.89050096 0.84395802 1.1196375e-42
-1.1690997 0.89215475 0.841057 1.8342997e-42
-1.1620029 0.89371693 0.83832341 1.1112297e-42
-1.1549271 0.89527565 0.83559483 3.9516617e-43
-1.1475136 0.89691865 0.83270931 7.5109598e-43
-1.1287372 0.90097791 0.82567602 3.8956097e-43
-1.1019299 0.90595084 0.8178516 2.8025969e-44
-1.2736038 0.86911178 0.88141584 3.8395578e-43
-1.2632861 0.87152535 0.87705791 2.5223372e-44
-1.2482116 0.87502164 0.87077153 3.0828566e-44
-1.2414814 0.87510502 0.87194753 9.2590796e-41
-1.2361453 0.8763212 0.86978024 1.1140323e-42
-1.2286829 0.87805414 0.86666232 1.1056245e-42
-1.2210343 0.87968487 0.86385894 3.2229865e-44
-1.2116576 0.88152468 0.86085147 9.2582388e-41
-1.2053356 0.88299292 0.85820985 1.4657582e-42
-1.1960568 0.88517529 0.85425872 7.4128689e-43
-1.1888924 0.88684332 0.85125393 1.4573504e-42
-1.1712428 0.88943583 0.84793961 1.1308479e-42
-1.1666765 0.89038467 0.84633255 1.4783699e-42
-1.1592335 0.89204413 0.84340882 3.9796876e-43
-1.1496513 0.89423287 0.83950377 7.6370766e-43
-1.1304635 0.89842069 0.83220953 4.0777785e-43
-1.1234854 0.89997298 0.82947797 4.6242849e-44
-1.1103194 0.90308434 0.8238318 3.5032462e-44
-1.1000549 0.90428966 0.82271951 3.8675838e-43
-1.0934765 0.90575343 0.82014334 1.460153e-42
-1.2511394 0.87214321 0.87792063 3.8535708e-43
-1.2469264 0.87309527 0.87623143 9.2225057e-41
-1.2309637 0.87523657 0.87378228 9.2590796e-41
-1.2232808 0.87703776 0.87052643 3.0828566e-44
-1.2147257 0.87904495 0.86689675 4.0637655e-43
-1.2062888 0.8805238 0.86466688 9.295093e-41
-1.2002367 0.88193518 0.86212224 9.2578184e-41
-1.1909782 0.88412929 0.85813534 1.4531465e-42
-1.1847094 0.88508284 0.85686982 9.2590796e-41
-1.177941 0.88697028 0.8531912 1.4895803e-42
-1.1715057 0.88712847 0.85410428 1.1308479e-42
-1.1640499 0.88879985 0.85115111 1.1294466e-42
-1.1569771 0.89037776 0.84837025 1.4713634e-42
-1.1499251 0.89195222 0.84559411 7.5810247e-43
-1.1358393 0.89510006 0.84004128 2.6624671e-44
-1.1263437 0.89728796 0.83612019 2.1818217e-42
-1.1193804 0.89884764 0.83336562 1.4573504e-42
-1.1084273 0.90141606 0.82872254 1.1154336e-42
-1.10004 0.90215081 0.82848781 3.7975188e-43
-1.0916044 0.90410072 0.82498771 7.5109598e-43
-1.2634467 0.8669225 0.88943112 1.8407176e-40
-1.2534207 0.86929882 0.88511276 3.9376487e-43
-1.2456704 0.87111801 0.88182241 9.2589395e-41
-1.2434229 0.87158096 0.88104236 3.8115318e-43
-1.2357042 0.87339354 0.87776327 9.2580987e-41
-1.2272536 0.87338549 0.87954402 1.8478643e-40
-1.2195926 0.87519616 0.87625813 1.1168349e-42
-1.2121918 0.87694174 0.87309325 1.1070258e-42
-1.2037096 0.87895125 0.86944246 1.8406195e-40
-1.1976738 0.88036734 0.86688179 1.8406476e-40
-1.1903332 0.88210022 0.86373878 1.1056245e-42
-1.1821654 0.88352937 0.86158669 1.1084271e-42
-1.1759684 0.88522208 0.85831398 1.8385036e-42
-1.1720647 0.88474822 0.8604039 1.1336505e-42
-1.1620823 0.88706404 0.85623932 1.1294466e-42
-1.1575444 0.88801634 0.85461706 1.835701e-42
-1.1504964 0.88959998 0.85181558 3.9937006e-43
-1.1339068 0.89339662 0.8450349 3.9656747e-43
-1.1244211 0.89559793 0.84107584 1.8300958e-42
-1.1174664 0.8971656 0.83829784 1.1070258e-42
-1.1065302 0.89974856 0.83361191 1.474166e-42
-1.0981477 0.90048933 0.8333602 3.3631163e-44
-1.0897269 0.90244895 0.82983077 3.5032462e-44
-1.2525558 0.86719382 0.89096659 7.4689208e-43
-1.2443779 0.86918706 0.88729632 9.2592197e-41
-1.2414542 0.86922687 0.88779753 1.8407457e-40
-1.2337543 0.87105083 0.88448387 3.9236357e-44
-1.2250434 0.87162876 0.88473916 4.0637655e-44
-1.2187403 0.87311947 0.88203293 3.9937006e-43
-1.2113487 0.87487507 0.87883943 4.0637655e-44
-1.2011195 0.87738186 0.87421173 7.5950377e-43
-1.1951002 0.8788026 0.87163502 3.7835059e-44
-1.1866872 0.88029456 0.86936462 9.2590796e-41
-1.1796107 0.88197899 0.86629736 1.1084271e-42
-1.1739904 0.88347483 0.86343545 7.7631935e-43
