# .PCD v0.7 - Point Cloud Data file format
VERSION 0.7
FIELDS x y z rgb
SIZE 4 4 4 4
TYPE F F F F
COUNT 1 1 1 1
WIDTH 1050
HEIGHT 1
VIEWPOINT 0 0 0 1 0 0 0
POINTS 1050
DATA ascii
0.55821568 0.65644717 1.9064356 4.2377424e-39
0.5549444 0.67743659 1.9295857 6.8159872e-39
0.55633676 0.6828196 1.9264218 4.9731592e-39
0.5526318 0.71417427 1.9561837 5.5259743e-39
0.55301905 0.7177577 1.9562787 5.066794e-39
0.55340624 0.72134113 1.9563736 5.066794e-39
0.55449975 0.7275148 1.9547981 8.1081694e-39
0.55510145 0.73518991 1.9559302 7.0021805e-39
0.55507493 0.74434882 1.9603177 7.2780471e-39
0.55611682 0.74642503 1.9570382 5.5259743e-39
0.55459219 0.75474709 1.9671456 7.0018288e-39
0.55629462 0.75418103 1.9599369 7.5553655e-39
0.55671334 0.75875944 1.9603684 7.5550012e-39
0.55582458 0.76560009 1.9671899 5.1586393e-39
0.55621386 0.76920366 1.9672854 5.2511852e-39
0.55660325 0.77280724 1.9673809 5.3433809e-39
0.55699265 0.77641076 1.9674762 4.7927252e-39
0.55738205 0.78001434 1.9675717 5.5284812e-39
0.55645728 0.78677797 1.9745041 5.6181461e-39
0.55766356 0.78791469 1.9701153 4.3270429e-39
0.55855036 0.79082489 1.9678582 1.0101905e-39
0.5445646 0.58328128 1.9279293 1.0413417e-38
0.54592055 0.58455479 1.9229937 7.741549e-39
0.54720592 0.58652294 1.9186703 1.0596009e-38
0.55168194 0.5941329 1.9039693 7.4649551e-39
0.55200303 0.59741229 1.9041921 9.8598863e-39
0.55243462 0.60109854 1.9041538 7.2802051e-39
0.55455863 0.60087317 1.8953851 7.096174e-39
0.55493307 0.60433769 1.8954769 7.0025449e-39
0.5549829 0.60911524 1.8975059 9.3953138e-39
0.5575977 0.60712749 1.8859119 7.550318e-39
0.5569495 0.61304682 1.8913214 9.1187241e-39
0.55834198 0.61401629 1.8860945 5.8036401e-39
0.55717731 0.62087661 1.8940507 8.014529e-39
0.55908644 0.62090504 1.886277 5.5259743e-39
0.55861139 0.62625992 1.8907167 7.7368617e-39
0.5598309 0.62779385 1.8864595 5.4337786e-39
0.55860692 0.63481742 1.8947335 7.0000155e-39
0.55833602 0.63924962 1.897909 7.0922182e-39
0.55816764 0.64441669 1.9010102 6.7230699e-39
0.55786878 0.64854819 1.9041598 7.1840438e-39
0.55979991 0.64937651 1.8966701 4.3281401e-39
0.56017429 0.65284097 1.8967619 4.696194e-39
0.56054866 0.65630549 1.8968537 4.1458942e-39
0.55920893 0.66378915 1.9058148 5.0649765e-39
0.55958527 0.66727197 1.905907 4.7887595e-39
0.55734146 0.69024646 1.9257938 4.9735095e-39
0.55466384 0.710114 1.9459987 8.7492214e-39
0.55530214 0.71312445 1.9448017 5.341583e-39
0.55491823 0.71820307 1.9487402 8.290404e-39
0.55647236 0.73691893 1.951146 7.9226991e-39
0.55714947 0.74390429 1.9516486 7.7379561e-39
0.55791324 0.76114595 1.9565891 5.1586393e-39
0.5583005 0.76472944 1.9566841 5.1582861e-39
0.55763781 0.77048278 1.9620756 8.9343427e-39
0.559075 0.77189618 1.9568739 5.5256239e-39
0.55832148 0.7776019 1.962613 8.4747911e-39
0.55984932 0.77906305 1.9570638 5.066794e-39
0.55915493 0.78481686 1.9625849 7.0007358e-39
0.55989724 0.79205775 1.9629401 4.2362878e-39
0.56453854 0.79859978 1.9470662 8.2651947e-40
0.55408454 0.59818995 1.8960649 1.0229022e-38
0.55589008 0.60716766 1.8928956 9.4885801e-39
0.55783558 0.60749972 1.8851153 7.4581224e-39
0.55660474 0.61413807 1.8932374 9.3038287e-39
0.55858004 0.61438853 1.8852978 6.4490081e-39
0.55895221 0.61783284 1.8853891 6.1713437e-39
0.55904806 0.62184805 1.8868741 8.2904012e-39
0.55969656 0.62472165 1.8855716 5.8947554e-39
0.55913639 0.62982684 1.8902419 7.8301447e-39
0.56044096 0.63161051 1.8857541 5.0653548e-39
0.56081319 0.63505483 1.8858453 5.249386e-39
0.56118542 0.63849926 1.8859365 5.0653548e-39
0.56147641 0.64272225 1.8867229 7.3684295e-39
0.56192976 0.64538813 1.886119 4.6043669e-39
0.5608148 0.652013 1.8937626 7.8290461e-39
0.56078798 0.65667987 1.8960525 4.0536986e-39
0.55881983 0.66502631 1.9079802 7.737212e-39
0.56153667 0.66360897 1.8962361 4.6965625e-39
0.5566473 0.70182234 1.934034 5.0653548e-39
0.55710125 0.71869868 1.9400679 7.0940062e-39
0.55777425 0.72564524 1.9405686 7.460649e-39
0.55779588 0.73137444 1.943157 6.909266e-39
0.55853105 0.73854655 1.9435097 7.2776912e-39
0.55771202 0.75298417 1.9535962 8.4762372e-39
0.55978155 0.75268549 1.9450158 5.5256239e-39
0.55970931 0.75741816 1.9475214 7.555004e-39
0.55970973 0.77586693 1.9561402 5.4337786e-39
0.56046623 0.77811944 1.9541067 7.5535592e-39
0.56048417 0.78303373 1.9563301 4.6058158e-39
0.56059396 0.78659976 1.9575481 6.9078129e-39
0.56169546 0.78965038 1.954481 6.8166991e-39
0.56243467 0.79686576 1.9548368 4.7848093e-39
0.56697959 0.79743874 1.9365672 8.2651947e-40
0.56756556 0.80096573 1.9358246 1.1974642e-39
0.5693866 0.79984188 1.9278723 9.1835496e-41
0.56829661 0.80809945 1.9361767 1.4736825e-39
0.54816031 0.58975959 1.9162899 1.0413423e-38
0.55085415 0.59276736 1.9067079 1.0044279e-38
0.5579024 0.60863131 1.8853716 1.0042473e-38
0.55844575 0.6113162 1.8844099 7.3680904e-39
0.55855596 0.61536694 1.8858532 9.3978278e-39
0.5609234 0.61438316 1.8757371 7.0028952e-39
0.56129366 0.61780941 1.8758278 6.4508074e-39
0.56037629 0.62499899 1.8829287 8.2911131e-39
0.56203407 0.62466162 1.8760093 5.7121634e-39
0.56108713 0.63193208 1.8832687 7.8301321e-39
0.56098467 0.63624156 1.8857005 7.7379463e-39
0.5614233 0.63887149 1.8851399 5.4334087e-39
0.56097728 0.6433453 1.8890498 7.2766038e-39
0.56216776 0.64576036 1.8853225 4.7884092e-39
0.56253999 0.64920467 1.8854138 4.6040166e-39
0.56291211 0.6526491 1.885505 4.1455467e-39
0.56328428 0.65609342 1.8855963 4.1455467e-39
0.56197709 0.66337919 1.8943326 6.5404835e-39
0.56215042 0.66744775 1.8955265 4.237392e-39
0.55830079 0.69929194 1.9261075 7.3691666e-39
0.55728185 0.70632136 1.9335479 7.0003813e-39
0.5582673 0.71281719 1.9325639 7.0003883e-39
0.55899835 0.71995026 1.9329151 6.7248748e-39
0.55935568 0.73596352 1.9389393 7.830872e-39
0.55977184 0.74051118 1.9393669 7.7379561e-39
0.5615561 0.76310492 1.9426457 7.2773381e-39
0.5613023 0.76776552 1.945859 7.8297944e-39
0.56118715 0.77325332 1.948893 7.1847781e-39
0.56233668 0.77443916 1.9447583 5.0660905e-39
0.56192487 0.78044963 1.9492462 6.9089115e-39
0.56310636 0.78156215 1.944947 5.2508349e-39
0.56349117 0.78512359 1.9450414 5.4355765e-39
0.56387597 0.78868496 1.9451357 5.3440843e-39
0.56924921 0.79669952 1.9269643 7.3468397e-40
0.56962985 0.80022252 1.9270576 4.5917748e-40
0.56888688 0.80898571 1.9341831 1.1981732e-39
0.55831146 0.60824412 1.8835222 7.7379463e-39
0.55804259 0.61366194 1.8871504 9.6729727e-39
0.55905586 0.61513293 1.8837047 6.8185137e-39
0.559807 0.61829656 1.8821194 9.214147e-39
0.56153029 0.61817962 1.8750354 6.4508074e-39
0.56126422 0.62274641 1.8782545 8.9368482e-39
0.56227082 0.62503183 1.875217 6.0809459e-39
0.56191456 0.62945598 1.8787372 8.5666266e-39
0.56301123 0.63188404 1.8753985 5.8947554e-39
0.56338143 0.63531011 1.8754892 5.8943868e-39
0.56375164 0.63873625 1.8755801 5.341583e-39
0.5641219 0.64216232 1.8756708 4.8806048e-39
0.56449211 0.6455884 1.8757616 4.8806048e-39
0.56433517 0.65025926 1.878584 6.8170592e-39
0.56472701 0.65400255 1.8787349 6.3560796e-39
0.56560278 0.6558668 1.8760339 4.1448377e-39
0.56440359 0.66337848 1.8844348 6.2635281e-39
0.56463879 0.66679889 1.8850734 4.052642e-39
0.55883294 0.69843471 1.9235361 4.7884092e-39
0.5592137 0.7019577 1.9236294 4.9731592e-39
0.55959439 0.70548075 1.9237227 5.0650045e-39
0.55997503 0.70900387 1.9238161 4.6976611e-39
0.56035578 0.71252686 1.9239094 4.6980114e-39
0.56054467 0.71642292 1.9249593 7.4610021e-39
0.56059688 0.72485572 1.9286866 7.3698868e-39
0.5605455 0.73010486 1.931349 6.8167159e-39
0.56127644 0.73723811 1.9317006 7.1844208e-39
0.56200737 0.74437135 1.9320521 7.2773353e-39
0.56273824 0.75150478 1.932404 7.3684519e-39
0.56202769 0.75777322 1.938231 7.5546438e-39
0.56325948 0.75924933 1.9338971 4.7895036e-39
0.5636422 0.76279062 1.933991 5.2490356e-39
0.56402481 0.76633203 1.9340848 5.2490356e-39
0.56412238 0.77476311 1.937626 7.646122e-39
0.56531692 0.79483032 1.9421296 6.3585992e-39
0.56605172 0.80200326 1.9424844 4.4206875e-39
0.57025397 0.80412638 1.9263362 0
0.5585494 0.60861635 1.8827255 7.3724064e-39
0.56077319 0.61629003 1.8772405 9.4903877e-39
0.56176698 0.61854982 1.8742431 6.7266838e-39
0.56213725 0.6219759 1.8743339 6.6330505e-39
0.56203163 0.62655985 1.8769064 8.6624165e-39
0.56287766 0.62882817 1.8745154 6.2646169e-39
0.56274104 0.63347709 1.8772447 8.5680615e-39
0.56376308 0.63581389 1.874168 8.4737009e-39
0.56345046 0.64039439 1.8775831 7.737575e-39
0.56441188 0.64251179 1.8746512 7.5531921e-39
0.56415993 0.64731163 1.8779217 7.1844068e-39
0.56509894 0.64938486 1.87506 4.6058158e-39
0.56546921 0.65281081 1.8751508 4.2377424e-39
0.56583941 0.65623707 1.8752415 4.1455467e-39
0.56530035 0.66154021 1.8799182 6.5408324e-39
0.56657988 0.66308922 1.8754231 3.9611471e-39
0.56481969 0.6709308 1.8862666 6.2660476e-39
0.5656212 0.67405993 1.8844594 4.052642e-39
0.56131959 0.69774777 1.9130728 4.7884092e-39
0.56110412 0.70251226 1.916178 6.5404849e-39
0.56112099 0.71134758 1.9202372 6.9085416e-39
0.56184769 0.71843964 1.9205869 6.6330393e-39
0.56212199 0.72699982 1.923468 5.0650045e-39
0.56253421 0.73117208 1.9237359 7.6457591e-39
0.56288338 0.73404586 1.9236547 4.6976611e-39
0.56258738 0.73964107 1.9274763 7.4624482e-39
0.56364471 0.74109197 1.9238414 5.1586393e-39
0.56402546 0.74461508 1.9239347 5.1586393e-39
0.56440616 0.74813813 1.924028 4.8820524e-39
0.56467211 0.75653887 1.9268688 7.278057e-39
0.5632866 0.76434082 1.936165 6.7255992e-39
0.56422597 0.7664544 1.9333212 7.3702554e-39
0.56503475 0.77379739 1.9334534 5.0664436e-39
0.56475329 0.77865088 1.9368688 6.9096346e-39
0.56580013 0.78088009 1.9336411 4.8820524e-39
0.56472719 0.78789347 1.9412946 7.2776982e-39
0.56656545 0.78796279 1.9338287 4.3314023e-39
0.56694806 0.79150409 1.9339225 4.2392011e-39
0.56733078 0.7950455 1.9340163 4.6061661e-39
0.5677135 0.79858679 1.9341102 3.5923729e-39
0.5680961 0.80212814 1.934204 2.9470007e-39
0.56237388 0.6223461 1.8735415 6.8170816e-39
0.5623039 0.62624621 1.8756492 9.3067097e-39
0.56327462 0.62936682 1.873148 9.0286851e-39
0.56348455 0.63262445 1.8738139 6.3560937e-39
0.56385475 0.63605058 1.8739046 6.9982106e-39
0.56422502 0.63947666 1.8739953 5.9865825e-39
0.56459522 0.64290279 1.8740861 5.5259743e-39
0.56667715 0.64233649 1.8653296 5.249386e-39
0.56875509 0.64173359 1.8565724 4.6980114e-39
0.56824678 0.64701104 1.8611115 7.0932873e-39
0.56948769 0.6485126 1.8567519 4.4217735e-39
0.57155764 0.64783663 1.8479928 4.5139705e-39
0.57023233 0.65482634 1.8566645 6.1720429e-39
0.57228631 0.65457904 1.8481714 3.6870867e-39
0.56888455 0.66663128 1.8676776 6.0794899e-39
0.56342536 0.71545208 1.9127561 7.1855012e-39
0.56383276 0.71914387 1.9128195 4.7902071e-39
0.56352586 0.72372305 1.9162109 7.5532047e-39
0.56458974 0.7261498 1.9130051 5.0650045e-39
0.56388849 0.73350346 1.9193015 6.8177935e-39
0.5648405 0.74271089 1.9197208 7.0936629e-39
0.56464946 0.74851882 1.9232132 5.0664436e-39
0.56400925 0.75316519 1.9279958 8.291483e-39
0.56541085 0.75556499 1.9233999 4.7898568e-39
0.56579161 0.75908792 1.9234933 4.7898568e-39
0.5661723 0.76261109 1.9235866 4.7898568e-39
0.56655306 0.76613402 1.9236799 4.7898568e-39
0.56693369 0.76965719 1.9237733 5.0664436e-39
0.56692088 0.77368385 1.9257069 7.6471982e-39
0.56672388 0.77989274 1.9294118 7.5542837e-39
0.56807578 0.78022629 1.9240533 4.697308e-39
0.56780219 0.79107511 1.9302384 6.2660602e-39
0.568533 0.79820931 1.9305911 5.9887419e-39
0.56926382 0.80534339 1.9309437 5.1589686e-39
0.56298071 0.6261425 1.8728399 7.0025449e-39
0.56335098 0.62956858 1.8729306 6.8188641e-39
0.5644275 0.63254946 1.8699325 1.0042827e-38
0.56409138 0.63642079 1.8731122 7.1826103e-39
0.56667948 0.63563514 1.8621889 9.5793338e-39
0.56825674 0.63532084 1.8556089 5.6185286e-39
0.56775999 0.64061445 1.8601084 7.9219774e-39
0.56896973 0.6413815 1.8555328 7.1836963e-39
0.57106197 0.64145845 1.8470345 4.7880589e-39
0.56966972 0.64821672 1.855871 6.4486424e-39
0.57179064 0.64820093 1.847213 4.6058158e-39
0.57215488 0.65157217 1.8473024 4.237392e-39
0.57251912 0.65494341 1.8473917 4.4214246e-39
0.57097763 0.66210437 1.8570253 6.5401262e-39
0.57324779 0.66168576 1.8475703 4.1448377e-39
0.57361203 0.66505712 1.8476596 4.3277898e-39
0.57228565 0.67260563 1.8565967 4.6040166e-39
0.57265198 0.67599505 1.8566865 4.6040166e-39
0.56471187 0.70500261 1.9026262 8.0141674e-39
0.56516868 0.70784104 1.9020891 4.6058158e-39
0.56369191 0.7167266 1.9122645 6.7252307e-39
0.56353074 0.72875816 1.9185436 7.0014575e-39
0.56540698 0.73011911 1.9115266 7.7368799e-39
0.56558877 0.7335341 1.9123806 4.7898568e-39
0.56596732 0.73703706 1.9124734 5.4327094e-39
0.56634581 0.74054003 1.9125662 5.3412327e-39
0.56672436 0.74404287 1.912659 5.4337786e-39
0.56710285 0.74754584 1.9127518 5.341583e-39
0.56565434 0.75594574 1.9225851 5.0653548e-39
0.56692553 0.75701243 1.9178984 7.3702484e-39
0.56641573 0.76299179 1.9227718 4.3321058e-39
0.56674331 0.76675975 1.923196 7.8312279e-39
0.56717718 0.77003795 1.9229585 4.1473558e-39
0.56724596 0.77496123 1.9249784 6.6337581e-39
0.56793845 0.77708399 1.9231452 4.7909161e-39
0.56721568 0.78417581 1.9294068 7.0007414e-39
0.5686999 0.7841301 1.9233317 4.6980114e-39
0.56908053 0.78765309 1.9234252 4.6058158e-39
0.56946129 0.79117626 1.9235184 4.4214246e-39
0.56984204 0.79469925 1.9236119 4.6058158e-39
0.57022274 0.7982223 1.9237051 4.5136202e-39
0.57060337 0.80174536 1.9237984 3.6867364e-39
0.57098413 0.80526847 1.9238918 3.4101411e-39
0.56507784 0.62583005 1.8641405 9.8595206e-39
0.56775832 0.6289081 1.8546454 6.9978603e-39
0.5705663 0.63508022 1.8460761 5.7107242e-39
0.57092565 0.63849401 1.8462055 7.5521285e-39
0.57129484 0.64182276 1.8462548 4.6036662e-39
0.57099193 0.64642578 1.8496413 7.0932944e-39
0.57202345 0.64856517 1.8464334 4.6058158e-39
0.57106018 0.65437961 1.8530794 6.7252293e-39
0.572752 0.65530765 1.8466121 4.237392e-39
0.57235008 0.66101408 1.8509182 6.2638896e-39
0.57348055 0.66205007 1.8467907 4.052642e-39
0.57251787 0.66928536 1.8540983 7.552832e-39
0.57420921 0.66879261 1.8469694 4.6040166e-39
0.57162231 0.67979455 1.8626617 7.7382994e-39
0.57493776 0.67553502 1.8471479 4.237392e-39
0.57361865 0.6831404 1.8560822 4.7887595e-39
0.57398492 0.68652999 1.856172 4.5136202e-39
0.5669201 0.71286702 1.8972938 7.1858571e-39
0.56653839 0.71866578 1.9015604 4.6980114e-39
0.56639028 0.7226789 1.9040394 7.3702456e-39
0.56729102 0.72563136 1.901745 5.0635668e-39
0.56742305 0.73002845 1.9032612 6.9092702e-39
0.56620932 0.73741555 1.9116633 5.6167406e-39
0.56627703 0.74197906 1.9135194 7.0933014e-39
0.56696635 0.74442136 1.9118489 5.4337786e-39
0.5667482 0.74967408 1.9151933 8.4751526e-39
0.56772339 0.75142735 1.9120345 5.249386e-39
0.56702638 0.7580092 1.917953 6.633398e-39
0.56848055 0.75843316 1.9122201 4.3321058e-39
0.56885892 0.76193607 1.9123129 4.5132699e-39
0.56923741 0.76543909 1.9124057 4.1473558e-39
0.56957114 0.76991427 1.9131359 7.2780514e-39
0.56999457 0.7724449 1.9125913 4.7909161e-39
0.57023323 0.77677983 1.9136435 7.4617209e-39
0.57075161 0.77945083 1.9127769 4.6980114e-39
0.5711301 0.78295368 1.9128697 4.5136202e-39
0.57150865 0.78645664 1.9129626 4.237392e-39
0.57188714 0.78995955 1.9130553 4.237392e-39
0.57205737 0.80332267 1.9186052 5.6213985e-39
0.56808341 0.62948525 1.8535893 8.7521052e-39
0.56947154 0.63448399 1.8502628 9.3963928e-39
0.57079917 0.63544452 1.8452965 6.0787977e-39
0.57039225 0.64077884 1.8494486 8.3833017e-39
0.57152778 0.64218706 1.8454751 5.8951057e-39
0.57109112 0.64759833 1.8497847 7.3709476e-39
0.57225633 0.64892948 1.8456538 4.7909161e-39
0.57281065 0.65195894 1.8448082 6.8170578e-39
0.5736382 0.65347838 1.8421428 7.2787562e-39
0.57346362 0.65918219 1.8455201 6.9096136e-39
0.5754056 0.65826976 1.8371727 4.6058158e-39
0.57576793 0.6616227 1.8372616 4.6040166e-39
0.57444215 0.66915691 1.8461896 4.4199854e-39
0.57480645 0.67252815 1.8462789 4.3277898e-39
0.5751707 0.67589933 1.8463683 4.603648e-39
0.57553494 0.67927057 1.8464576 4.4214246e-39
0.5749681 0.68475741 1.8513335 7.2762521e-39
0.5678485 0.72062606 1.8971323 6.5415611e-39
0.56753159 0.72600776 1.9009396 4.6058158e-39
0.56832755 0.72886938 1.8990302 7.4620895e-39
0.56828433 0.7329734 1.9011241 4.7902071e-39
0.56836474 0.7372973 1.9028163 7.4624412e-39
0.56903696 0.73993897 1.9013087 5.249386e-39
0.56758684 0.74830294 1.9111316 5.1589896e-39
0.56796539 0.7518059 1.9112244 4.7902071e-39
0.56834388 0.75530881 1.9113172 4.6980114e-39
0.56922275 0.75726587 1.9086469 7.1858571e-39
0.56910092 0.76231462 1.9115028 4.5136202e-39
0.56988341 0.76411945 1.9091544 7.2769724e-39
0.56985807 0.76932049 1.9116883 4.6058158e-39
0.56999379 0.77326035 1.9129753 6.632319e-39
0.57110167 0.7792483 1.911255 6.4482865e-39
0.57182497 0.786318 1.9116074 5.8050751e-39
0.57254845 0.79338759 1.9119598 5.7132452e-39
0.57103199 0.63580883 1.8445169 5.894405e-39
0.57139635 0.63918012 1.8446062 6.356444e-39
0.57176071 0.64255136 1.8446954 6.5404751e-39
0.5733366 0.64145446 1.8377552 8.1081623e-39
0.57315564 0.64713985 1.8411493 7.6464667e-39
0.57455033 0.64857328 1.8361307 5.1593399e-39
0.57491267 0.65192622 1.8362197 5.0671429e-39
0.57527488 0.65527916 1.8363085 5.0671429e-39
0.57498771 0.66040272 1.8398738 8.1989174e-39
0.57599956 0.66198504 1.8364861 4.6040166e-39
0.57523161 0.66803896 1.8424469 7.7372246e-39
0.57672417 0.66869092 1.8366637 4.4199854e-39
0.57537317 0.6759569 1.8455693 7.7372176e-39
0.57744879 0.67539674 1.8368415 4.052642e-39
0.57566392 0.68380368 1.8480496 6.2635309e-39
0.57649648 0.68637729 1.8458565 4.4217735e-39
0.57686073 0.68974864 1.8459458 4.5136202e-39
0.57019001 0.72896528 1.8914783 4.6980114e-39
0.56890124 0.73683262 1.9004109 4.6980114e-39
0.56927764 0.74031538 1.9005032 5.0653548e-39
0.56965399 0.7437982 1.9005954 4.7902071e-39
0.56921285 0.7489385 1.9047965 8.1070861e-39
0.56858587 0.7556873 1.9105071 4.6058158e-39
0.56868786 0.75933444 1.9117955 6.5411982e-39
0.56848729 0.76621825 1.9158297 6.5404793e-39
0.56972152 0.76619619 1.9107854 4.7884092e-39
0.57009995 0.76969898 1.9108783 4.6058158e-39
0.57241094 0.76860255 1.9009398 7.0018232e-39
0.57266474 0.77166069 1.9013336 4.237392e-39
0.57250798 0.77697647 1.9044565 6.7255936e-39
0.57341754 0.77862626 1.9015181 4.237392e-39
0.57454652 0.78907478 1.9017949 3.8704172e-39
0.57492292 0.79255754 1.9018872 3.8704144e-39
0.57386297 0.80134493 1.9103158 6.1724255e-39
0.57090116 0.636886 1.8455541 9.2145155e-39
0.57162917 0.63954437 1.8438265 6.6319715e-39
0.57233495 0.64145148 1.841839 8.7510136e-39
0.57405722 0.64222974 1.8351778 5.7107242e-39
0.57303113 0.64824951 1.842176 7.8312097e-39
0.57478189 0.64893556 1.8353554 5.8021912e-39
0.57437932 0.6534813 1.8391216 7.8301363e-39
0.57581335 0.65414751 1.8335835 7.9226851e-39
0.57586884 0.65899438 1.8356218 5.2490174e-39
0.57623118 0.66234732 1.8357108 4.6962136e-39
0.57659346 0.66570032 1.8357996 4.7884092e-39
0.5769558 0.6690532 1.8358884 4.6043669e-39
0.57731813 0.6724062 1.8359772 4.1448377e-39
0.57768047 0.67575908 1.836066 4.1455467e-39
0.57804275 0.67911202 1.8361548 4.6040166e-39
0.57768381 0.68392634 1.8398685 6.724516e-39
0.57763797 0.68966573 1.8427367 6.1724114e-39
0.57912964 0.68917078 1.8364214 4.052642e-39
0.57188737 0.72107035 1.8808662 4.6058158e-39
0.57130796 0.72658974 1.8858083 7.8312223e-39
0.56978691 0.73636293 1.896579 6.817069e-39
0.57005882 0.73919737 1.8967944 7.2787688e-39
0.56989461 0.74417454 1.8997899 4.7902071e-39
0.57027096 0.74765736 1.8998822 4.8806048e-39
0.5706473 0.75114012 1.8999745 4.8806048e-39
0.57102358 0.75462294 1.9000667 4.6058158e-39
0.57150567 0.75750506 1.8994474 7.2776884e-39
0.5734244 0.75705588 1.8914113 4.8806048e-39
0.57325071 0.76132178 1.8941128 7.1851355e-39
0.57355207 0.76653385 1.8953192 6.6323204e-39
0.57454747 0.76744944 1.8916867 4.236683e-39
0.57427031 0.77354807 1.8956667 6.2635421e-39
0.57529622 0.77437842 1.8918703 3.9626142e-39
0.57498854 0.78056246 1.8960147 6.2639008e-39
0.57516807 0.79181141 1.9005384 6.081669e-39
0.57412487 0.64262015 1.8350842 8.3829542e-39
0.57465124 0.64594495 1.8344911 5.5284812e-39
0.5753355 0.64782512 1.8325788 8.5669839e-39
0.5753758 0.65265083 1.8346688 5.7107242e-39
0.57573807 0.65600377 1.8347577 5.7114277e-39
0.57610053 0.65935671 1.8348465 5.341213e-39
0.57646281 0.66270965 1.8349353 4.9731592e-39
0.57734257 0.66538656 1.8325976 6.9996582e-39
0.5782578 0.66680533 1.8295273 7.2769625e-39
0.57803476 0.67214888 1.8329337 6.3560866e-39
0.57888824 0.67335194 1.8300147 6.9085332e-39
0.57808071 0.68054312 1.8366685 6.3557237e-39
0.58031112 0.67854863 1.8266393 4.1448377e-39
0.58067149 0.68188334 1.8267276 4.052642e-39
0.57936132 0.68953311 1.8356459 3.9604464e-39
0.5791955 0.69367403 1.8382572 6.8174291e-39
0.57748532 0.7117216 1.853665 4.237392e-39
0.57286978 0.72833133 1.880252 4.5136202e-39
0.57141745 0.73664302 1.8900594 4.6980114e-39
0.57207048 0.73951834 1.8887391 7.1865732e-39
0.57230657 0.74366271 1.8897128 6.8159844e-39
0.57209939 0.74796903 1.8925699 7.1854928e-39
0.57225704 0.75273299 1.8941526 6.6330351e-39
0.57328933 0.75396568 1.8905183 4.9731592e-39
0.5729754 0.75974715 1.8945003 6.9996638e-39
0.57403797 0.76089478 1.8907019 4.9731592e-39
0.57441241 0.7643593 1.8907937 4.6058158e-39
0.57519597 0.76732486 1.8889835 6.8174347e-39
0.5758478 0.77411008 1.8894945 6.6341239e-39
0.57807875 0.7923786 1.8889314 6.4490138e-39
0.57303864 0.64252096 1.8394685 8.839259e-39
0.57452047 0.64295435 1.8336269 5.894405e-39
0.57373458 0.64931965 1.8398063 8.3843905e-39
0.57597488 0.64874429 1.8304 8.9368454e-39
0.57508278 0.65454322 1.8367482 8.1992706e-39
0.57772565 0.65256488 1.8250443 8.1070833e-39
0.57678574 0.6588456 1.8318124 7.5524648e-39
0.57835495 0.65909982 1.8255309 7.7375876e-39
0.57873976 0.6622358 1.8254263 4.7902071e-39
0.58078122 0.66136295 1.8166919 4.8806048e-39
0.58113962 0.66467935 1.8167797 4.9731592e-39
0.58149803 0.66799563 1.8168676 4.8813139e-39
0.58086926 0.67368358 1.8220896 7.1847697e-39
0.58221465 0.67462838 1.8170433 4.237392e-39
0.58149642 0.68020523 1.8225787 6.5404793e-39
0.5829314 0.68126106 1.817219 3.8686011e-39
0.5832898 0.68457747 1.8173069 4.5114524e-39
0.58198279 0.69224757 1.8262215 4.1448377e-39
0.57829899 0.71516293 1.8519542 7.0018246e-39
0.57818097 0.71969533 1.8545535 6.5401192e-39
0.57587773 0.73457313 1.8708996 4.2377424e-39
0.57624787 0.73799926 1.8709904 4.4214246e-39
0.5759387 0.75176293 1.8786823 7.1858613e-39
0.57658696 0.7585119 1.8791924 7.2773367e-39
0.57682967 0.76314741 1.880368 4.5129167e-39
0.5772019 0.76659197 1.8804592 4.5129167e-39
0.57757413 0.77003628 1.8805505 3.9622611e-39
0.57794631 0.77348071 1.8806417 3.8704172e-39
0.57776707 0.77852565 1.8837299 6.1731429e-39
0.57869059 0.78036946 1.8808242 3.9629645e-39
0.5784809 0.7854988 1.8840765 6.1742149e-39
0.57943505 0.78725827 1.8810067 4.0548098e-39
0.57475215 0.64331669 1.8328514 6.263189e-39
0.57573909 0.64463758 1.829443 9.0290438e-39
0.57547671 0.65002257 1.833029 6.356444e-39
0.57583904 0.65337545 1.833118 6.355365e-39
0.57788908 0.65259218 1.8243901 5.8951057e-39
0.57824945 0.65592682 1.8244785 5.6177999e-39
0.57860982 0.65926147 1.8245668 5.0653548e-39
0.580652 0.65840501 1.815837 5.066794e-39
0.57925773 0.66594118 1.8250452 7.3673659e-39
0.58096838 0.66597617 1.818084 7.5535522e-39
0.57994729 0.67268252 1.8253824 7.1847641e-39
0.58208549 0.6716705 1.8161885 4.9731592e-39
0.58063692 0.67942399 1.8257196 6.4490025e-39
0.58280218 0.67830312 1.8163642 4.2377424e-39
0.58132654 0.68616551 1.8260568 6.0798543e-39
0.58351892 0.68493587 1.8165399 4.4192568e-39
0.58135277 0.69419825 1.8297027 7.4617195e-39
0.58293384 0.69927722 1.825627 4.1448377e-39
0.58107096 0.72154689 1.843631 4.0529924e-39
0.57715398 0.74062294 1.8685205 7.0007442e-39
0.57771152 0.74357176 1.8676246 6.4490081e-39
0.57759529 0.74864787 1.8704703 4.6054655e-39
0.57674098 0.75512415 1.8769807 6.9089129e-39
0.57833576 0.75550002 1.8706518 4.9731592e-39
0.5774523 0.76207602 1.8773278 6.6323288e-39
0.57789713 0.76625311 1.8774649 7.185504e-39
0.5781281 0.64940155 1.8219248 8.8453757e-39
0.57700759 0.65514344 1.8291779 8.4755043e-39
0.57884073 0.65843749 1.82324 8.9350461e-39
0.58049273 0.65970474 1.8170938 7.9219802e-39
0.5812394 0.66207963 1.8151579 5.3419319e-39
0.58159786 0.66539609 1.8152457 5.4334087e-39
0.58195609 0.66871238 1.8153336 5.249386e-39
0.58231455 0.67202884 1.8154215 5.0653548e-39
0.58417642 0.671489 1.8075747 4.7902071e-39
0.5845331 0.67478895 1.8076621 4.6980114e-39
0.58350307 0.68102336 1.8147763 6.8159844e-39
0.58524626 0.68138874 1.807837 4.1448377e-39
0.58410633 0.68861049 1.8158609 4.052642e-39
0.58595937 0.68798858 1.8080119 3.4097908e-39
0.58392894 0.69889921 1.8213917 7.1862103e-39
0.5866726 0.6945883 1.8081868 4.237392e-39
0.58203244 0.72865355 1.84303 4.237392e-39
0.57947499 0.74447733 1.8608547 4.5136202e-39
0.57806879 0.75227511 1.8702337 7.27805e-39
0.58021152 0.751293 1.8610353 4.5136202e-39
0.57871342 0.75899923 1.8707465 7.4620783e-39
0.58112305 0.77209878 1.8670384 6.2646197e-39
0.58116394 0.77985299 1.8704948 4.5132699e-39
0.57798946 0.64997816 1.8227594 6.3586118e-39
0.58075172 0.65580541 1.8142153 5.9869524e-39
0.58111018 0.65912169 1.8143032 5.7107242e-39
0.58333462 0.66194594 1.8065493 5.6177999e-39
0.58210611 0.66971469 1.8151904 8.6584635e-39
0.58337241 0.67113501 1.8106889 7.6461136e-39
0.58294123 0.67638397 1.8148999 7.0014631e-39
0.58476096 0.67514551 1.8068991 5.066794e-39
0.58362728 0.68309039 1.8152355 7.0007414e-39
0.58547419 0.68174535 1.807074 4.4214246e-39
0.58476537 0.68847638 1.81311 6.9089059e-39
0.58452153 0.69176441 1.815641 5.8965476e-39
0.58820146 0.68724859 1.798521 3.9604464e-39
0.58855611 0.69053024 1.7986081 3.8682508e-39
0.58725709 0.69824469 1.807511 3.9604464e-39
0.58761364 0.7015447 1.8075985 4.052642e-39
0.58797026 0.70484453 1.8076859 4.052642e-39
0.58037955 0.73930198 1.8547469 6.1731373e-39
0.58011013 0.74887693 1.8603195 6.3568125e-39
0.58081508 0.75577062 1.8606657 6.632319e-39
0.58002192 0.76672459 1.8690189 7.2776996e-39
0.58076894 0.76743168 1.8663023 6.2649798e-39
0.58066595 0.77344823 1.8695334 7.1855026e-39
0.58265626 0.77210808 1.8607889 4.5132699e-39
0.5830245 0.77551585 1.8608792 4.5132699e-39
0.58101618 0.6564846 1.8134539 8.3833073e-39
0.58170229 0.6631909 1.8137895 7.9223306e-39
0.58273971 0.66273689 1.8093457 8.1074463e-39
0.58391923 0.66560245 1.8058735 5.2490356e-39
0.58427584 0.6689024 1.805961 5.0650045e-39
0.58630049 0.66791362 1.7972405 4.7895036e-39
0.58455962 0.67662495 1.8084116 9.2138022e-39
0.58537918 0.67938602 1.8063589 7.7386624e-39
0.58609676 0.68148422 1.8044121 7.6468381e-39
0.58771896 0.68104011 1.7975882 4.6058158e-39
0.58677888 0.68815309 1.8047464 6.7234286e-39
0.58842814 0.68760324 1.7977622 4.052642e-39
0.58791941 0.69369835 1.8026851 6.5408436e-39
0.58913743 0.69416648 1.797936 3.8682508e-39
0.58796263 0.70168811 1.8062419 6.8167103e-39
0.58737493 0.70608467 1.8106937 6.0795096e-39
0.58614731 0.72370076 1.8239317 4.237392e-39
0.58486718 0.73158002 1.8328347 4.237392e-39
0.58165073 0.745848 1.852621 7.1858557e-39
0.58082736 0.75947499 1.8623463 7.1858557e-39
0.58341753 0.75761682 1.8509129 4.4214246e-39
0.58157039 0.77668393 1.8673567 7.0018302e-39
0.58276772 0.78213245 1.8650187 6.1738632e-39
0.58279812 0.66512907 1.8102252 8.1992832e-39
0.58414716 0.665959 1.8051105 5.3412327e-39
0.58342099 0.67162675 1.8107206 7.7368715e-39
0.58652723 0.6682682 1.7964816 5.1582861e-39
0.58688188 0.67154986 1.7965685 5.2504818e-39
0.58723646 0.67483145 1.7966554 5.804359e-39
0.58759105 0.6781131 1.7967424 5.9883999e-39
0.58794558 0.6813947 1.7968293 4.7902071e-39
0.58744651 0.68747348 1.8017056 7.1840565e-39
0.5901444 0.68399763 1.7890774 4.1448377e-39
0.59049726 0.68726277 1.7891639 3.9604464e-39
0.58936411 0.69452107 1.7971771 3.8682508e-39
0.5897187 0.69780266 1.797264 3.8682508e-39
0.59007335 0.70108432 1.797351 3.5913136e-39
0.59042794 0.70436579 1.7974379 4.2352354e-39
0.5827086 0.75615722 1.8531232 6.4482865e-39
0.58269298 0.76541233 1.8575108 7.554997e-39
0.5831551 0.7726717 1.8590177 6.2646197e-39
0.58437514 0.66631562 1.8043473 6.0805956e-39
0.5867539 0.66862285 1.7957226 6.2667791e-39
0.58710855 0.6719045 1.7958095 5.9005203e-39
0.58600032 0.67841923 1.8033736 9.5825834e-39
0.58781773 0.67846775 1.7959834 5.8021912e-39
0.58720231 0.68339068 1.8007938 7.553548e-39
0.59001708 0.68108535 1.7882358 4.3281401e-39
0.59036988 0.68435043 1.7883222 4.3277898e-39
0.5907228 0.68761563 1.7884088 4.052642e-39
0.5910756 0.69088078 1.7884953 3.8682508e-39
0.58994538 0.69815731 1.7965051 3.5920226e-39
0.59030002 0.7014389 1.796592 4.0497736e-39
0.59065455 0.70472044 1.7966789 3.8682508e-39
0.58477139 0.74214363 1.8381611 6.1717052e-39
0.585136 0.74533552 1.8381655 6.6344854e-39
0.58496225 0.75137162 1.8416944 6.6348385e-39
0.58551389 0.75370932 1.8405366 3.8707675e-39
0.58587819 0.75708061 1.8406259 4.4210742e-39
0.58430761 0.77530283 1.8555465 6.9096276e-39
0.58490598 0.66571003 1.8018988 9.0279705e-39
0.58552539 0.67218304 1.802397 1.0228307e-38
0.58733523 0.67225909 1.7950506 6.4536941e-39
0.58692485 0.67777437 1.7993016 9.3971005e-39
0.58804446 0.67882234 1.7952245 5.0646262e-39
0.58857757 0.68163919 1.7943661 7.6453667e-39
0.59024268 0.68143821 1.7874806 4.3281401e-39
0.59059548 0.68470329 1.7875671 4.4199854e-39
0.59094834 0.68796849 1.7876537 4.1448377e-39
0.59130114 0.69123358 1.7877401 4.052642e-39
0.59165394 0.69449878 1.7878267 3.7760551e-39
0.59062445 0.70076805 1.7949551 7.3680848e-39
0.59235966 0.701029 1.7879996 3.8682508e-39
0.59123588 0.70835674 1.7960069 3.7760551e-39
0.59159046 0.71163827 1.7960939 3.7760551e-39
0.5895521 0.73019862 1.8130803 4.0522917e-39
0.5871926 0.74660397 1.8303698 5.8972749e-39
0.58737355 0.74943167 1.8309525 3.8707675e-39
0.58724964 0.75520748 1.8341566 6.3568181e-39
0.5864895 0.76118481 1.8400503 7.3680946e-39
0.5865044 0.76877588 1.8435363 6.1724255e-39
0.58622891 0.7758469 1.8479635 5.8058023e-39
0.58649808 0.66276884 1.7940309 4.9724305e-39
0.58756191 0.67261368 1.7942917 6.2685643e-39
0.58791649 0.67589527 1.7943786 4.6054655e-39
0.58827108 0.67917693 1.7944657 4.6058158e-39
0.58993322 0.67966372 1.7879136 8.0152464e-39
0.59046817 0.68179101 1.7867255 4.7884092e-39
0.59082103 0.68505609 1.7868121 4.7887595e-39
0.59117389 0.68832129 1.7868985 4.6040166e-39
0.59152669 0.69158643 1.786985 4.603648e-39
0.59035033 0.69610053 1.7938924 6.5390402e-39
0.59371132 0.6940853 1.7792419 4.1430398e-39
0.5935939 0.69860452 1.7818323 6.5390486e-39
0.59351027 0.70374626 1.7845762 6.0791382e-39
0.59267211 0.70921379 1.7905494 6.447932e-39
0.59261292 0.71470994 1.7933589 5.9872957e-39
0.59399647 0.71444237 1.7875905 3.8682508e-39
0.58762902 0.75018352 1.8302619 6.9089087e-39
0.5875566 0.77237278 1.8409253 6.8188711e-39
0.57890105 0.62810832 1.8088226 7.3706309e-39
0.57925946 0.63142473 1.8089105 6.9092772e-39
0.58849782 0.67953157 1.7937067 4.237392e-39
0.59034097 0.67887872 1.7858839 5.0653548e-39
0.59069377 0.68214387 1.7859703 5.0653548e-39
0.59090424 0.6854679 1.7866652 8.8435624e-39
0.59139943 0.68867415 1.7861434 4.7884092e-39
0.59152448 0.69198579 1.7871807 8.3807878e-39
0.59217161 0.69503284 1.7859646 7.0003841e-39
0.59296578 0.69735819 1.7838122 6.4461243e-39
0.59428686 0.697685 1.7785766 4.1430398e-39
0.59463787 0.70093375 1.7786627 3.8682508e-39
0.59351635 0.70826489 1.7866623 3.7760551e-39
0.59354842 0.71227437 1.7884052 6.1724114e-39
0.59422201 0.71479523 1.7868354 3.7760551e-39
0.58933347 0.75747156 1.8267158 6.0805844e-39
0.58832335 0.76575238 1.8347046 7.6464765e-39
0.5893541 0.76988745 1.8324329 5.8976308e-39
0.58460319 0.66768175 1.804055 9.1212549e-39
0.58600003 0.67434168 1.8014694 7.0011253e-39
0.58635664 0.67764163 1.8015569 6.7263363e-39
0.58671325 0.68094152 1.8016443 6.6355714e-39
0.59127212 0.68576175 1.7853018 5.2490174e-39
0.59162498 0.68902695 1.7853882 4.9735095e-39
0.59197778 0.69229209 1.7854748 4.7884092e-39
0.59380907 0.69153881 1.7776532 4.4199854e-39
0.59416014 0.69478744 1.7777393 4.1430398e-39
0.59451121 0.69803602 1.7778254 4.1430398e-39
0.59513652 0.70044994 1.7764026 6.5401234e-39
0.59521329 0.7045334 1.7779975 4.0508442e-39
0.59556437 0.70778215 1.7780836 3.957578e-39
0.59508044 0.71330816 1.7826391 5.8025513e-39
0.59352338 0.73478198 1.7990239 5.8036345e-39
0.59007722 0.77074718 1.8298844 7.1872921e-39
0.58526081 0.66864121 1.8018211 9.766976e-39
0.58622801 0.67469829 1.8007063 6.9089297e-39
0.59258401 0.69188786 1.7828133 7.4602846e-39
0.5931865 0.69371688 1.7812103 6.7234314e-39
0.59467179 0.69429195 1.7754208 7.0000253e-39
0.59450775 0.69855642 1.7780826 6.4461299e-39
0.59508669 0.70163584 1.77716 3.9604464e-39
0.59518111 0.70514125 1.7784126 6.261733e-39
0.59578884 0.70813322 1.7773322 3.957578e-39
0.59609765 0.71130258 1.7775536 6.6312414e-39
0.59649092 0.71463054 1.7775043 3.9586471e-39
0.59612316 0.71932042 1.7811954 6.7230783e-39
0.59113747 0.76418883 1.8224962 5.5288483e-39
0.58768523 0.67109251 1.7930779 1.0597821e-38
0.58846867 0.67403215 1.791256 7.8341104e-39
0.58882326 0.67731369 1.791343 8.2954333e-39
0.58917785 0.6805954 1.7914299 6.8221067e-39
0.58953249 0.68387693 1.7915168 5.7121634e-39
0.59425795 0.69224089 1.7761506 4.6980114e-39
0.59460902 0.69548953 1.7762367 4.5132699e-39
0.59555119 0.69731027 1.7732444 6.9088989e-39
0.59694546 0.69746304 1.7676288 3.8679005e-39
0.5966754 0.70222998 1.7709576 6.6319645e-39
0.59764355 0.70392376 1.7678 4.0497736e-39
0.59736854 0.70988154 1.7717056 5.9873027e-39
0.5980016 0.71717662 1.7725322 7.2766024e-39
0.59665453 0.73994327 1.788664 5.528484e-39
0.58904999 0.67766827 1.790584 7.7426182e-39
0.59089029 0.67702496 1.782777 6.7295523e-39
0.59124315 0.68029004 1.7828634 5.804359e-39
0.59647042 0.69135135 1.7667106 4.5132699e-39
0.59615594 0.69696122 1.7706145 7.0018134e-39
0.59716856 0.69781208 1.7668818 4.0522917e-39
0.59682685 0.70352572 1.7709452 6.1709821e-39
0.59786671 0.70427281 1.7670529 3.957578e-39
0.59821582 0.7075032 1.7671385 4.2352354e-39
0.59868592 0.71015167 1.7664584 6.8149124e-39
0.59111828 0.67746514 1.7820525 9.3981767e-39
0.59146869 0.68064284 1.7821083 6.1713437e-39
0.59188545 0.68417364 1.7820581 1.013431e-38
0.59217435 0.68717307 1.7822813 6.0794984e-39
0.59669358 0.6917004 1.7659636 5.5284812e-39
0.59704262 0.69493073 1.7660491 5.3437312e-39
0.59761751 0.69765931 1.7649792 8.3840192e-39
0.59774083 0.70139152 1.7662202 5.1589896e-39
0.59822279 0.70401585 1.7654804 7.1847711e-39
0.60159892 0.72073287 1.7595208 7.0932887e-39
0.59936965 0.7437107 1.7793499 5.7118004e-39
0.59116328 0.68137938 1.7836982 9.4882241e-39
0.59387809 0.68354791 1.7736384 6.356444e-39
0.5942291 0.68679667 1.7737244 6.355365e-39
0.59834421 0.69632655 1.7613926 8.01668e-39
0.59901261 0.70285982 1.7617188 7.1862046e-39
0.60053056 0.70698351 1.757454 6.5404821e-39
0.60063243 0.7107352 1.7587916 7.0929384e-39
0.60119677 0.71349853 1.7577811 6.17241e-39
0.60123473 0.7170701 1.7592946 6.7241573e-39
0.59181643 0.67851007 1.7796936 8.7535332e-39
0.59191972 0.6813485 1.780598 6.6337539e-39
0.59356517 0.68515503 1.7756654 1.0319421e-38
0.59445345 0.68714774 1.7729732 6.5401248e-39
0.59488398 0.68956113 1.7723448 8.4769449e-39
0.60017037 0.7046206 1.7578192 7.7379449e-39
0.60372913 0.72019196 1.7505792 7.6453863e-39
0.60323006 0.72983861 1.7571225 7.2776856e-39
0.59467793 0.68749881 1.7722218 6.3560937e-39
0.59502894 0.69074738 1.7723079 6.0809459e-39
0.59736305 0.69274765 1.7637222 6.1727968e-39
0.60186434 0.70618922 1.7516427 7.4635132e-39
0.60357404 0.7121163 1.7474388 6.7263055e-39
0.60370022 0.71610612 1.7487882 7.0929426e-39
0.59784913 0.69279593 1.7617619 8.5691489e-39
0.6026426 0.70371926 1.7473143 8.476233e-39
0.60324079 0.7100209 1.7478188 8.0148947e-39
0.60495931 0.72336394 1.747044 6.9092716e-39
0.60591221 0.73027039 1.7463841 7.094023e-39
0.60426086 0.71313858 1.745115 7.1869319e-39
0.60597539 0.71601576 1.7394661 7.9223418e-39
0.60641932 0.72363842 1.7412169 5.8061597e-39
0.60730821 0.72955507 1.7403558 7.6471954e-39
0.6068821 0.72387642 1.7394407 7.2802136e-39
0.60485309 0.7089926 1.7407622 1.0412345e-38
0.60733199 0.71333206 1.7326789 9.4893101e-39
0.60613501 0.70833409 1.7352257 8.8442967e-39
0.6066066 0.71060181 1.7343619 8.9368468e-39
0.60900944 0.71768737 1.7278715 9.307451e-39
0.61168951 0.72290927 1.7193803 9.1230317e-39
0.58807236 0.69098777 1.800795 1.0594196e-38
0.58951271 0.67781407 1.7887645 1.5296908e-38
0.5940522 0.76768231 1.8122393 9.8584444e-39
0.61025482 0.72950447 1.7283136 1.0870786e-38
0.6100843 0.73798102 1.7329699 1.041019e-38
0.61343354 0.7359795 1.7183737 1.0685695e-38
0.61396903 0.74231708 1.7191508 1.0319423e-38
0.61703509 0.73486215 1.7031616 1.0594933e-38
0.61742651 0.73352724 1.7009412 1.1884227e-38
0.51478076 0.72347331 2.1149158 3.6734198e-39
0.51316762 0.68035281 2.1013477 3.1224069e-39
0.51399904 0.68804646 2.1015513 3.3979134e-39
0.51441473 0.69189316 2.1016533 2.7550649e-39
0.51712215 0.69081217 2.0901051 2.3877229e-39
0.51595783 0.70349193 2.1007788 3.1256369e-39
0.51675099 0.71119601 2.1011434 3.2146011e-39
0.51774013 0.72266787 2.1024687 3.3060779e-39
0.51630282 0.73550344 2.1143284 3.3060779e-39
0.50807798 0.53073305 2.0521982 0
0.50888956 0.53824377 2.0523973 4.1480747e-39
0.51010692 0.54950994 2.0526958 5.8079561e-39
0.51091856 0.5570206 2.0528946 3.2250478e-39
0.51779938 0.69504827 2.0893221 2.9448652e-39
0.5182125 0.69887137 2.0894234 2.6686384e-39
0.51862556 0.70269442 2.0895247 3.0370608e-39
0.51903868 0.7065174 2.0896261 2.3898935e-39
0.51986492 0.71416348 2.0898285 1.0101905e-39
0.5202781 0.71798658 2.0899298 1.8367099e-39
0.52069116 0.72180957 2.0900311 1.6530389e-39
0.51883727 0.7307772 2.1017828 2.2958874e-39
0.50949866 0.52986455 2.0459976 7.3937412e-40
0.50874317 0.53489429 2.0514293 1.7481423e-39
0.51022458 0.53673071 2.0462451 9.0319207e-39
0.50996053 0.54616028 2.0517278 6.6359175e-39
0.51036638 0.54991573 2.0518272 6.4533255e-39
0.51077223 0.55367106 2.0519266 6.4515109e-39
0.51592869 0.62549192 2.0644524 1.102026e-39
0.51577693 0.64003408 2.071866 4.5046154e-39
0.51606607 0.65287489 2.0766864 6.4284847e-40
0.51853055 0.67568141 2.0772908 2.3906222e-39
0.51935208 0.68328357 2.077492 2.3906222e-39
0.51976275 0.68708473 2.0775928 2.4828206e-39
0.52017349 0.69088578 2.0776935 3.2218122e-39
0.51847661 0.69928449 2.0885394 3.3140078e-39
0.51888961 0.70310754 2.0886407 3.2218122e-39
0.5198676 0.70581967 2.0859191 4.8744854e-39
0.52094328 0.70780975 2.0824614 5.9826476e-39
0.52012902 0.7145766 2.0889444 1.4697267e-39
0.52083498 0.71743953 2.0874026 3.4047391e-39
0.52095515 0.72222269 2.0891471 1.1938615e-39
0.52079362 0.726964 2.0920215 2.9387359e-39
0.5217815 0.72986877 2.0893495 2.8469004e-39
0.51168203 0.53981441 2.0417411 9.3074258e-39
0.5134896 0.54466265 2.0366337 1.0133937e-38
0.51316202 0.55122614 2.0410366 8.3833003e-39
0.51380646 0.55365753 2.0395441 5.9876545e-39
0.51420963 0.55738908 2.039643 6.6287079e-39
0.51700592 0.63345474 2.0637791 2.9409275e-39
0.51741409 0.63723207 2.0638793 3.774616e-39
0.51782227 0.64100933 2.0639791 3.7749663e-39
0.51823044 0.64478672 2.0640793 3.8682508e-39
0.51863855 0.64856398 2.0641794 4.6058158e-39
0.51904678 0.65234137 2.0642796 4.2402605e-39
0.51945496 0.65611857 2.0643795 4.609036e-39
0.51986313 0.65989602 2.0644796 4.701233e-39
0.52027124 0.66367316 2.0645797 4.7934287e-39
0.52067941 0.66745061 2.0646799 4.885983e-39
0.52156025 0.66990602 2.0622349 7.3720322e-39
0.52149588 0.6750052 2.0648799 4.9778255e-39
0.52227139 0.67751616 2.0628898 8.568772e-39
0.52002531 0.68749547 2.0767138 5.4362855e-39
0.52118522 0.68884552 2.0726137 8.106719e-39
0.52082753 0.69540232 2.0771363 6.4450369e-39
0.52247244 0.69572258 2.0705764 7.5542655e-39
0.52166837 0.70269984 2.0771165 5.4362855e-39
0.52207905 0.70650101 2.0772173 5.8972581e-39
0.52248979 0.710302 2.077318 5.2515356e-39
0.52302921 0.71354926 2.0766354 4.6004054e-39
0.52331126 0.71790415 2.0775194 3.1285179e-39
0.52413279 0.72550642 2.0777206 1.0101905e-39
0.51447016 0.54862148 2.0344839 8.8428505e-39
0.51543868 0.55225402 2.0322309 7.921969e-39
0.51938826 0.64746898 2.0606103 7.8308622e-39
0.51930779 0.65274954 2.0634058 4.8856299e-39
0.52016675 0.65503222 2.0609686 7.3720322e-39
0.52012402 0.66030419 2.063606 4.9781787e-39
0.52094519 0.66259545 2.0613275 7.4642265e-39
0.52094048 0.66785878 2.0638061 5.2544054e-39
0.52139628 0.67140877 2.0636055 7.6486149e-39
0.52175677 0.67541337 2.0640063 5.2540523e-39
0.52216488 0.6791907 2.0641065 5.2540523e-39
0.52257311 0.68296802 2.0642064 5.7125123e-39
0.52298135 0.68674535 2.0643065 5.5284812e-39
0.52338946 0.69052267 2.0644066 5.5284812e-39
0.52401727 0.69410646 2.0635204 8.1078008e-39
0.52312487 0.70505142 2.0722742 7.7379267e-39
0.52502215 0.70563191 2.0648069 5.896905e-39
0.5157041 0.54318649 2.0269115 7.1847725e-39
0.51610494 0.54689598 2.0270097 7.3687938e-39
0.51966649 0.62999582 2.051311 6.2642427e-39
0.52007228 0.63375115 2.0514104 5.9873013e-39
0.52095264 0.63576621 2.0487611 8.10564e-39
0.52092749 0.64654458 2.0539 7.9223362e-39
0.52169549 0.6487726 2.0518084 5.7107242e-39
0.52164668 0.65386397 2.0543866 7.8304937e-39
0.52250707 0.65628338 2.0520074 5.7107242e-39
0.52236587 0.66118371 2.0548732 7.9219802e-39
0.52331865 0.6637941 2.0522065 5.8947554e-39
0.5237245 0.66754943 2.0523059 5.8947554e-39
0.52413034 0.67130482 2.0524054 6.6287345e-39
0.52466065 0.67575604 2.0523221 9.1198031e-39
0.52494186 0.67881554 2.0526044 6.0787977e-39
0.52433181 0.68542194 2.0581794 9.0283208e-39
0.52365035 0.69093084 2.0635331 6.263189e-39
0.52466387 0.69374299 2.0607131 8.1056512e-39
0.52446675 0.69848543 2.0637331 5.7103739e-39
0.5254423 0.70130646 2.0610721 7.4613538e-39
0.5252831 0.70604008 2.0639334 5.7107242e-39
0.52569127 0.70981747 2.0640333 5.8943868e-39
0.52766985 0.71514642 2.0584533 5.2457594e-39
0.51642412 0.54248965 2.023649 9.4889346e-39
0.51894653 0.54338807 2.0137804 9.5800526e-39
0.51894438 0.54714584 2.0155451 7.4609895e-39
0.51965147 0.55055845 2.0142553 9.3030986e-39
0.52310205 0.65169144 2.0474353 7.8297706e-39
0.52387577 0.65920991 2.0477922 7.7379435e-39
0.52388126 0.6635595 2.0498023 8.1067316e-39
0.5246495 0.6667285 2.0481493 7.8301433e-39
0.5245986 0.6708675 2.0502911 8.8414212e-39
0.52479547 0.67546594 2.0516365 6.263189e-39
0.52520132 0.67922133 2.0517359 6.0787977e-39
0.52560711 0.68297666 2.0518353 5.9869524e-39
0.52648991 0.68612593 2.049706 8.2907698e-39
0.52641875 0.6904875 2.0520344 6.1709933e-39
0.52661943 0.6947149 2.0531907 7.8305063e-39
0.52723038 0.69799817 2.0522332 5.7107242e-39
0.52733761 0.70203292 2.0536809 7.8294231e-39
0.5280419 0.70550895 2.0524323 5.6177999e-39
0.52921259 0.70729369 2.0484912 7.1858403e-39
0.52885348 0.71301967 2.0526314 5.0681967e-39
0.52981812 0.71559721 2.0499015 7.6446521e-39
0.52966517 0.72053039 2.0528302 4.0537014e-39
0.52987427 0.72449708 2.0538309 5.0599458e-39
0.53047675 0.72804111 2.0530293 5.5101298e-40
0.51815557 0.54006869 2.0154557 9.8573654e-39
0.51880062 0.54385668 2.0145946 7.6457507e-39
0.51919907 0.54754436 2.0146923 7.6457507e-39
0.52159441 0.54767084 2.0049813 7.5524816e-39
0.52201205 0.55201125 2.005306 9.3052678e-39
0.52392459 0.6414783 2.0393081 8.1960518e-39
0.52703983 0.64414829 2.0278492 5.9869524e-39
0.52647209 0.65000188 2.0328999 8.014536e-39
0.5269345 0.66721803 2.039058 6.9053116e-39
0.52733773 0.67094964 2.0391569 6.1713437e-39
0.52756876 0.67560971 2.0403922 8.2911201e-39
0.52814424 0.6784128 2.0393546 5.7103739e-39
0.52846724 0.68188602 2.03966 7.6461164e-39
0.52895075 0.68587607 2.0395522 5.5277721e-39
0.52923751 0.68937522 2.0400174 7.7375834e-39
0.5297572 0.69333923 2.0397499 5.7107242e-39
0.53000778 0.69686419 2.0403748 7.4617167e-39
0.53045028 0.70071387 2.0403686 7.461358e-39
0.53029269 0.70666677 2.0437927 7.6453905e-39
0.53073621 0.72844696 2.0521607 4.1455467e-39
0.531142 0.73220229 2.0522602 2.6700579e-39
0.53195357 0.73971295 2.0524592 9.1835496e-40
0.53289837 0.74149376 2.0494378 2.2047708e-39
0.53368521 0.74577707 2.0482297 1.1938615e-39
0.53111118 0.7559616 2.0634871 5.5101298e-40
0.52043092 0.54675788 2.0093005 1.087115e-38
0.52184778 0.54806715 2.004133 7.6446787e-39
0.52215594 0.55182338 2.0046313 9.672614e-39
0.52264035 0.55540222 2.0043275 7.552832e-39
0.52303672 0.55906987 2.0044246 7.095451e-39
0.52742362 0.62169653 2.0157933 6.7205532e-39
0.52689523 0.64083958 2.0268929 5.894405e-39
0.52745771 0.64536595 2.0267136 7.8297748e-39
0.52769691 0.64825881 2.0270896 5.9869524e-39
0.52809781 0.65196842 2.0271878 5.9869524e-39
0.52847254 0.65511519 2.0271297 7.9219732e-39
0.52869177 0.65956485 2.0283148 8.106733e-39
0.52839535 0.66434914 2.031759 8.1971266e-39
0.52880669 0.6680516 2.0318112 8.1989287e-39
0.52916235 0.67181146 2.0321171 8.1063701e-39
0.53050297 0.67422622 2.0277774 5.7103739e-39
0.53090382 0.6779359 2.0278759 5.4352262e-39
0.5306828 0.6831913 2.0312328 7.739747e-39
0.5313924 0.69043118 2.0317214 7.7386652e-39
0.53292042 0.72022575 2.0394104 7.0936545e-39
0.53264362 0.72481632 2.0426843 6.0773235e-39
0.53286201 0.72965419 2.044054 6.8159774e-39
0.53485376 0.73852146 2.0400734 1.7448744e-39
0.53302455 0.74762958 2.0517898 9.1835496e-40
0.53426284 0.74972904 2.0477204 1.4693679e-39
0.52210116 0.54846346 2.0032849 8.0134542e-39
0.52249748 0.55213106 2.003382 8.1060085e-39
0.52417368 0.55322385 1.9970556 1.114738e-38
0.52545828 0.55551064 1.9928844 7.4620853e-39
0.53006929 0.64422119 2.0155268 6.7202014e-39
0.52965266 0.64947534 2.019681 8.1067302e-39
0.53086627 0.65159655 2.015722 5.9869524e-39
0.53126472 0.65528417 2.0158198 5.9869524e-39
0.53003854 0.66772884 2.0266359 8.1067316e-39
0.53035837 0.67091751 2.0268214 6.0780788e-39
0.53074676 0.67495745 2.0271249 7.9227005e-39
0.53266811 0.67547572 2.0195301 7.9209012e-39
0.53156096 0.68204641 2.0271161 5.9869524e-39
0.53129643 0.68763167 2.0308046 7.6468255e-39
0.53335732 0.69218028 2.0245242 7.6453877e-39
0.53516871 0.71543306 2.0280006 5.6178196e-39
0.53652978 0.74480313 2.0361722 1.0101905e-39
0.52531618 0.55225891 1.9919447 8.1982042e-39
0.52571011 0.55590457 1.9920412 7.923062e-39
0.53134573 0.65161961 2.0137773 8.935765e-39
0.53151947 0.65568262 2.014967 5.9869524e-39
0.53204906 0.65888196 2.014302 8.752457e-39
0.53231639 0.66305804 2.0151625 6.079148e-39
0.53206253 0.66830766 2.0186508 7.9209012e-39
0.53311348 0.6704334 2.0153577 5.9866021e-39
0.53351188 0.67412108 2.0154555 5.9858818e-39
0.53391039 0.67780876 2.0155532 5.9869524e-39
0.53324902 0.68376333 2.0210333 7.9226991e-39
0.53470737 0.68518412 2.0157485 5.9869524e-39
0.53395438 0.6909703 2.0215235 8.0145318e-39
0.53550434 0.6925596 2.015944 6.3510686e-39
0.53590286 0.69624716 2.0160415 6.4439733e-39
0.5357278 0.71023995 2.0232937 8.1974937e-39
0.53653181 0.71326172 2.0214262 7.9216285e-39
0.53649151 0.71767575 2.023653 7.2769752e-39
0.53725529 0.72511166 2.0240121 7.0014547e-39
0.52781141 0.55243248 1.981848 1.0503462e-38
0.52832562 0.55709332 1.9819286 1.1424334e-38
0.53330833 0.64828038 2.0042119 5.7107242e-39
0.53370458 0.65194786 2.0043092 5.5259743e-39
0.53410101 0.65561545 2.0044062 5.9869524e-39
0.53257126 0.66345656 2.0143094 5.8951057e-39
0.5332666 0.66694653 2.0131037 8.014536e-39
0.53336817 0.67083192 2.0145049 5.8947554e-39
0.53396946 0.67413026 2.0135934 7.6475513e-39
0.5341652 0.67820728 2.0147002 5.9869524e-39
0.53638697 0.68194276 2.0073831 7.6457521e-39
0.53637189 0.69105786 2.011704 7.7379477e-39
0.53663272 0.69608545 2.0129893 8.3808046e-39
0.53713131 0.69845104 2.0120609 7.8294287e-39
0.53600353 0.70633847 2.0203462 7.7383148e-39
0.5373531 0.70770878 2.0154817 5.9866021e-39
0.53775162 0.7113964 2.0155795 5.894405e-39
0.52739853 0.55045611 1.982609 1.0594212e-38
0.52837753 0.55272973 1.9796782 8.1071016e-39
0.53113109 0.55671126 1.9703071 1.0503817e-38
0.53181881 0.56373358 1.9707832 1.0042841e-38
0.53356165 0.64867669 2.0033638 5.6185286e-39
0.53435427 0.65601176 2.0035582 5.7107242e-39
0.53519022 0.65766877 2.0009227 8.9361195e-39
0.53514689 0.66334689 2.0037525 5.7107242e-39
0.53586996 0.66560394 2.0018578 7.7375834e-39
0.53593957 0.67068201 2.0039468 5.4355765e-39
0.5357846 0.67481202 2.0065084 8.01345e-39
0.5367322 0.67801708 2.0041411 5.8947554e-39
0.53627616 0.68326384 2.0084527 8.0145346e-39
0.53752482 0.68535221 2.0043354 5.8947554e-39
0.53637904 0.69176245 2.0120039 8.1067316e-39
0.53831744 0.69268733 2.0045297 6.5368892e-39
