# .PCD v0.7 - Point Cloud Data file format
VERSION 0.7
FIELDS x y z rgb
SIZE 4 4 4 4
TYPE F F F F
COUNT 1 1 1 1
WIDTH 1051
HEIGHT 1
VIEWPOINT 0 0 0 1 0 0 0
POINTS 1051
DATA ascii
1.6800356 -0.10037326 1.0732234 1.2902355e-38
1.6815218 -0.090709038 1.0726076 1.529692e-38
1.6815622 -0.084414333 1.0754858 1.4192735e-38
1.6815627 -0.078703672 1.0782262 1.4743035e-38
1.6816065 -0.069536142 1.0824722 1.4744837e-38
1.6822853 -0.062651269 1.0833768 1.4285296e-38
1.6821527 -0.051831625 1.08904 2.1570189e-38
1.6833479 -0.047453884 1.0869154 2.0001783e-38
1.6821331 -0.042530071 1.0935754 2.110849e-38
1.6851244 -0.013396365 1.0969828 1.963337e-38
1.6844828 -0.0070749512 1.1022867 2.1294679e-38
1.6853032 -0.00072594447 1.1024334 1.9816319e-38
1.6855892 0.0052889371 1.1043099 1.9816322e-38
1.6867964 0.012415163 1.1034614 2.0093264e-38
1.6870812 0.018428635 1.1053407 1.9817034e-38
1.6877189 0.033111218 1.1101344 2.1386159e-38
1.6876612 0.03998011 1.1136365 2.1479073e-38
1.6879498 0.046177745 1.1155913 2.1386158e-38
1.6882385 0.052375548 1.1175457 2.1386156e-38
1.6892015 0.059806235 1.1177069 2.0185462e-38
1.6896832 0.068028785 1.1199511 2.1293236e-38
1.6896509 0.075448141 1.1236272 2.1292879e-38
1.6901928 0.082249776 1.1249763 2.1479069e-38
1.6906532 0.092115991 1.1280844 2.1386158e-38
1.6916928 0.101239 1.128787 1.9909597e-38
1.692266 0.1134828 1.1326388 1.9818837e-38
1.6921527 0.12537958 1.1387508 2.1294323e-38
1.6943896 0.14851195 1.1419451 2.1386159e-38
1.69436 0.1557631 1.1455306 2.1571265e-38
1.6938984 0.164352 1.1512866 2.1570547e-38
1.6946685 0.17033683 1.151436 1.9909242e-38
1.6959444 0.17881845 1.150996 2.1294681e-38
1.6957349 0.18627222 1.155315 2.1109572e-38
1.6963266 0.19215599 1.1560475 2.1570909e-38
1.6970029 0.19986579 1.1573569 2.1477997e-38
1.6972959 0.20623504 1.1593788 2.1478353e-38
1.6973054 0.21359648 1.1628786 2.1386518e-38
1.6974009 0.2207132 1.1659579 2.1386518e-38
1.6988679 0.2344743 1.1673758 2.0001788e-38
1.6990303 0.24126866 1.170064 2.13858e-38
1.698927 0.24909692 1.1741873 2.129288e-38
1.6990789 0.25457796 1.1762815 2.1293609e-38
1.6997728 0.26245764 1.17761 2.1202484e-38
1.6998398 0.2698856 1.1809394 2.1201773e-38
1.6999207 0.27718547 1.1841578 2.1109576e-38
1.7006265 0.28514558 1.1854833 2.1109218e-38
1.7016038 0.29357666 1.1860749 2.1202487e-38
1.7025112 0.30080771 1.186337 2.1294322e-38
1.7023147 0.3095279 1.1912178 2.1293961e-38
1.7026134 0.31605825 1.1932971 2.1201768e-38
1.7027051 0.32522455 1.197373 2.1017022e-38
1.7030039 0.33176449 1.1994561 2.0925544e-38
1.7039137 0.33729959 1.1988961 2.1016299e-38
1.7047924 0.34167528 1.1978894 1.9632646e-38
1.7047505 0.34974596 1.2019123 1.9172029e-38
1.705513 0.35940501 1.2038519 2.1108852e-38
1.7058126 0.36598098 1.2059498 2.0831909e-38
1.706112 0.37255719 1.208048 2.0647158e-38
1.7061352 0.38056019 1.211808 2.0001062e-38
1.7060188 0.38931224 1.2164216 1.9262776e-38
1.7071493 0.39565238 1.2154673 1.9074424e-38
1.7069507 0.40488222 1.220601 1.8613083e-38
1.7087572 0.42870608 1.2256492 1.6125223e-38
1.7104114 0.44301069 1.2266665 1.5202907e-38
1.7107047 0.4495213 1.228755 1.437134e-38
1.6635447 -0.42921922 0.97367197 1.7787633e-38
1.6631 -0.42495006 0.97729415 1.9999613e-38
1.6654149 -0.40920693 0.97666478 1.8986896e-38
1.6659096 -0.39960456 0.9795258 2.000069e-38
1.6659217 -0.39418828 0.98208278 1.9724823e-38
1.6661968 -0.38849613 0.98384267 1.8894702e-38
1.6675506 -0.38145 0.98243785 1.3731338e-38
1.6669986 -0.37675747 0.98664302 1.2070736e-38
1.6682462 -0.36408997 0.98831201 1.2992738e-38
1.6705648 -0.31984091 1.0013554 1.5759709e-38
1.6706122 -0.31396735 1.0040073 1.9446449e-38
1.6709778 -0.3079977 1.0055803 2.0736108e-38
1.6710109 -0.30216989 1.0082613 2.1195645e-38
1.6705657 -0.29651383 1.0125508 2.1197085e-38
1.6717284 -0.28924835 1.0119269 1.8427952e-38
1.671996 -0.27732697 1.016704 1.8156783e-38
1.6725692 -0.27073735 1.0178405 1.880323e-38
1.6730617 -0.26502764 1.0188396 1.7051513e-38
1.6739957 -0.25267401 1.0214672 1.7693634e-38
1.6762378 -0.21527645 1.0314919 2.1199238e-38
1.6761128 -0.20935869 1.0347749 2.0001057e-38
1.6764989 -0.20207059 1.0369084 1.8711038e-38
1.6765122 -0.19696556 1.0393121 2.0461326e-38
1.6775151 -0.19203593 1.0381315 1.8986154e-38
1.6772726 -0.18760516 1.0411166 1.778908e-38
1.6783088 -0.17985733 1.0411716 2.1014139e-38
1.6782627 -0.17379561 1.0442451 2.0831887e-38
1.6785433 -0.16785023 1.0461068 1.9817747e-38
1.6788241 -0.16190471 1.0479684 1.8805033e-38
1.6785554 -0.1556574 1.0519179 2.027693e-38
1.6785181 -0.14901932 1.0552366 2.0368414e-38
1.6800776 -0.14187643 1.0531499 1.7603274e-38
1.6803595 -0.1358943 1.0550256 1.750961e-38
1.6806412 -0.12991199 1.0569007 1.6495465e-38
1.6809889 -0.12150815 1.0597059 1.8158571e-38
1.6813061 -0.11556576 1.0614365 1.8987265e-38
1.6817648 -0.10863522 1.0631418 1.7973096e-38
1.6818573 -0.10385209 1.065111 1.2994923e-38
1.6820823 -0.097859941 1.0671918 1.4010867e-38
1.6836379 -0.088566706 1.066152 1.4744831e-38
1.6837153 -0.0823422 1.0688661 1.4745195e-38
1.683884 -0.070924982 1.073751 1.3178584e-38
1.6842963 -0.066867307 1.074241 1.4653005e-38
1.6847823 -0.061032653 1.0753231 1.4101259e-38
1.6851633 -0.047791444 1.0803328 2.0185459e-38
1.6845349 -0.041383196 1.0856316 2.1478713e-38
1.6883636 0.0086607905 1.0961164 2.0184742e-38
1.6883879 0.013456556 1.098333 2.1570193e-38
1.689858 0.021729177 1.0971051 2.138616e-38
1.6898299 0.0284811 1.100446 2.1386518e-38
1.6896787 0.035495691 1.1043484 2.1570906e-38
1.6901851 0.041212372 1.1053027 2.147871e-38
1.6901312 0.048091836 1.1087952 2.1385079e-38
1.6907526 0.053855367 1.1093647 2.1386872e-38
1.6908518 0.062022224 1.1129345 2.1478713e-38
1.6916432 0.070426606 1.1141701 2.1293239e-38
1.6927123 0.083352841 1.1165949 2.1478715e-38
1.6928018 0.08832857 1.1186677 1.9726282e-38
1.692311 0.094397664 1.1233164 2.1293598e-38
1.6929185 0.099171758 1.1234601 2.1295041e-38
1.6932125 0.10701639 1.1261868 2.1202844e-38
1.6938585 0.11446938 1.1274797 2.1386518e-38
1.6966101 0.14861122 1.1341397 2.1386879e-38
1.6965839 0.15585661 1.1377109 2.1294326e-38
1.6967427 0.17143306 1.1446273 2.138616e-38
1.6978538 0.18003304 1.1448262 1.9910313e-38
1.6979735 0.18855618 1.1484946 2.1294322e-38
1.6989119 0.20532705 1.1532273 2.1386876e-38
1.6990272 0.21715014 1.1584957 2.1479071e-38
1.6990931 0.22700353 1.1629931 2.1479434e-38
1.6993874 0.23342213 1.1650337 2.1202842e-38
1.701164 0.24162669 1.16269 2.1293607e-38
1.7018427 0.24955298 1.1640947 2.1293966e-38
1.7013627 0.25824657 1.1699656 2.1017016e-38
1.701479 0.26613814 1.1733433 2.1201043e-38
1.7022916 0.27067667 1.1726475 2.1293966e-38
1.702709 0.27982998 1.1755667 2.120141e-38
1.7030044 0.28630459 1.1776302 2.1294325e-38
1.7033591 0.29390702 1.1800252 1.972628e-38
1.7040323 0.30443749 1.1827 2.110813e-38
1.704874 0.30981594 1.182305 2.1110648e-38
1.704688 0.31856674 1.1871644 2.1017739e-38
1.7047763 0.32600391 1.1904224 2.1017381e-38
1.7058671 0.3370946 1.1918895 2.101702e-38
1.706164 0.34363186 1.1939772 2.1109573e-38
1.7060791 0.35204089 1.1983147 2.0832984e-38
1.7076041 0.36193877 1.1976736 2.1017015e-38
1.7079023 0.36851332 1.1997747 2.0924103e-38
1.7082008 0.37508795 1.2018754 2.0738996e-38
1.7088574 0.38384271 1.203757 1.9724838e-38
1.7086627 0.39302176 1.2088517 1.9170946e-38
1.7092538 0.39805436 1.2091776 1.8982949e-38
1.709501 0.40662703 1.2124187 1.7138658e-38
1.7094296 0.41359049 1.2160147 1.8059901e-38
1.7107724 0.43115377 1.2196972 1.6032309e-38
1.7128006 0.45436084 1.2236655 1.5570245e-38
1.6667924 -0.42047507 0.96638417 1.9722309e-38
1.66715 -0.41463169 0.96792442 1.9630473e-38
1.6676514 -0.40826952 0.96920568 1.944824e-38
1.6675732 -0.40294588 0.97203773 1.9540792e-38
1.6680448 -0.39706022 0.97319555 1.9632627e-38
1.667721 -0.39199477 0.97677273 1.9817376e-38
1.6679951 -0.38630444 0.97853547 1.9632266e-38
1.6705703 -0.36038077 0.98187321 1.1520076e-38
1.6711441 -0.33035651 0.99425817 1.6035218e-38
1.6724403 -0.31760898 0.99579376 1.6403628e-38
1.6724272 -0.31174964 0.99865353 1.262506e-38
1.6725783 -0.30494875 1.0013834 1.5391246e-38
1.6731366 -0.29867664 1.0024204 1.5571996e-38
1.6727207 -0.29415566 1.0060619 1.1519014e-38
1.673267 -0.28655475 1.0077789 1.4838439e-38
1.6740999 -0.28009284 1.0079352 1.4099469e-38
1.6743759 -0.27426356 1.0097574 1.5205806e-38
1.6747586 -0.26840544 1.0112168 1.5115046e-38
1.6750349 -0.26258001 1.0130363 1.3826472e-38
1.6786953 -0.20127936 1.0295203 1.7324512e-38
1.6799653 -0.18452129 1.033074 1.7413778e-38
1.6806613 -0.17777145 1.0338532 1.6311072e-38
1.6806724 -0.16568963 1.039614 1.2997066e-38
1.6804953 -0.15953068 1.0431973 1.4563284e-38
1.6807752 -0.15357925 1.0450648 1.7417766e-38
1.6807355 -0.14743756 1.0481536 1.5760437e-38
1.6814345 -0.14045984 1.049031 1.7327389e-38
1.6829531 -0.13308589 1.0472003 1.3825404e-38
1.6832334 -0.12711333 1.0490773 1.5117213e-38
1.6833299 -0.12101448 1.051663 1.705008e-38
1.6834038 -0.11488546 1.0543439 1.7695461e-38
1.6838726 -0.10647722 1.0567235 1.5113606e-38
1.6837463 -0.1015394 1.0595404 1.3543052e-38
1.6842232 -0.095788114 1.0606147 1.4194896e-38
1.6852496 -0.089415796 1.0600444 1.2626841e-38
1.6856269 -0.080008611 1.0632259 1.4654081e-38
1.6853747 -0.074039698 1.0669837 1.4283137e-38
1.685691 -0.071267426 1.067196 1.3455523e-38
1.6864494 -0.064833827 1.067602 1.4467894e-38
1.6867024 -0.058709446 1.069648 1.4653357e-38
1.6864552 -0.051991679 1.0737469 1.7049729e-38
1.6867387 -0.045917083 1.0756613 2.1477274e-38
1.687022 -0.03984236 1.0775756 2.1293602e-38
1.6868204 -0.032157034 1.081978 2.1199964e-38
1.6873657 -0.027392857 1.082337 2.1294319e-38
1.6886438 -0.017532101 1.0825506 2.1293963e-38
1.6889323 -0.0098522445 1.0852171 2.1294321e-38
1.6891042 -0.0047485447 1.0870594 2.1292877e-38
1.6894959 0.00083469559 1.0883548 2.1479066e-38
1.6903358 0.0091819698 1.0893917 2.1570186e-38
1.6920276 0.023673041 1.0903651 2.1386878e-38
1.6915704 0.031260975 1.0956249 2.1570547e-38
1.6914968 0.036968201 1.0986251 2.1293598e-38
1.6921914 0.040124934 1.0976846 1.9909232e-38
1.6923019 0.045574222 1.0999097 2.147835e-38
1.6929377 0.057337373 1.1033083 2.1294681e-38
1.6930108 0.064014465 1.1062555 2.1386875e-38
1.6945351 0.072349742 1.1048659 2.1202129e-38
1.6938608 0.072935201 1.1075317 2.0001429e-38
1.6933441 0.079333939 1.1124309 2.1386518e-38
1.6948489 0.087748013 1.1111488 2.1294326e-38
1.6951356 0.093967989 1.1131209 2.1478712e-38
1.6952623 0.10274938 1.1168884 2.1479073e-38
1.6955502 0.10900342 1.1188731 2.1571625e-38
1.6958427 0.11688297 1.1216213 2.1386875e-38
1.6975684 0.1287308 1.1212059 2.0094347e-38
1.6976542 0.1387939 1.1257336 2.1295042e-38
1.6978674 0.14477779 1.1278522 2.1201047e-38
1.698586 0.15827912 1.1317933 2.157055e-38
1.69857 0.16720825 1.1361359 2.1571265e-38
1.6986566 0.17414145 1.1391591 2.1293607e-38
1.6984124 0.18205729 1.1438227 2.1201047e-38
1.7006423 0.19795391 1.1435676 1.9725926e-38
1.7009394 0.20778303 1.1472361 2.1386881e-38
1.7012309 0.2141642 1.1492685 2.129504e-38
1.7015225 0.22054556 1.1513008 2.1478355e-38
1.701704 0.23021425 1.1553007 2.1571626e-38
1.7019958 0.23662923 1.1573484 2.1295042e-38
1.7029706 0.24263519 1.1567843 2.0278372e-38
1.7036556 0.25133988 1.1585407 2.1108849e-38
1.7038888 0.25963557 1.1616985 2.1201775e-38
1.7041818 0.26607662 1.1637546 2.1202485e-38
1.7042063 0.27406368 1.1675025 2.1108852e-38
1.7053779 0.27968585 1.1660579 2.1293966e-38
1.7055734 0.29427105 1.1723685 2.111101e-38
1.7071551 0.31130382 1.1749518 2.111065e-38
1.7068731 0.31809217 1.1792085 1.9634093e-38
1.7069229 0.324837 1.1822705 2.0925542e-38
1.7070251 0.33233058 1.1855061 2.1201768e-38
1.7079414 0.33784592 1.1849136 2.1109931e-38
1.7080564 0.34701991 1.1889117 2.10163e-38
1.7083524 0.35356477 1.1910064 2.0924106e-38
1.7099932 0.37104669 1.1935958 2.1016302e-38
1.7102908 0.37761986 1.1956997 2.0462409e-38
1.7112209 0.38494787 1.1959286 1.944861e-38
1.711624 0.39231634 1.1980402 1.7878748e-38
1.7118381 0.40709883 1.2043798 1.6676969e-38
1.7117958 0.4146449 1.2081517 1.8060256e-38
1.7133743 0.42281884 1.2064936 1.7968061e-38
1.7123801 0.43245769 1.2146374 1.7231574e-38
1.7126794 0.43910074 1.216768 1.7229775e-38
1.7149167 0.45691007 1.2174053 1.5754642e-38
1.667774 -0.42530522 0.96059328 1.9264209e-38
1.6695386 -0.41130796 0.96107256 1.963263e-38
1.6692883 -0.40661091 0.96421289 1.9813782e-38
1.6695085 -0.39861113 0.96727484 1.9907412e-38
1.6695759 -0.38974926 0.97129083 1.9632993e-38
1.6698483 -0.3840642 0.97305709 2.0093248e-38
1.6701205 -0.37837914 0.97482324 1.6124506e-38
1.6714276 -0.37136409 0.97356838 1.1056947e-38
1.671899 -0.35986975 0.97741967 1.151686e-38
1.6721779 -0.35284474 0.97980511 1.0693241e-38
1.6724069 -0.34540179 0.98256838 1.5018156e-38
1.6732249 -0.33353865 0.98537129 1.815859e-38
1.6742624 -0.31539306 0.99041355 1.8525205e-38
1.6748779 -0.30350417 0.99394381 1.6313894e-38
1.6746502 -0.29088625 1.0008075 1.2441354e-38
1.6745776 -0.28520349 1.0037923 1.3733194e-38
1.6761934 -0.27772227 1.0016695 1.1980747e-38
1.676367 -0.27198279 1.0038108 1.3640634e-38
1.6768339 -0.26611042 1.004979 1.3916505e-38
1.6775994 -0.25970152 1.0053482 1.410162e-38
1.6776419 -0.25391769 1.0079749 1.3549532e-38
1.6777257 -0.24812466 1.0104598 1.391544e-38
1.6777451 -0.24230596 1.0131848 1.3917587e-38
1.6781821 -0.23587272 1.0147276 1.4376048e-38
1.6784579 -0.23002012 1.0165622 1.3364783e-38
1.6799892 -0.20474152 1.0232822 1.4928142e-38
1.6805751 -0.19606312 1.0253762 1.3725245e-38
1.6808511 -0.18902373 1.0277797 1.4100442e-38
1.6817381 -0.18214022 1.0279472 1.5110362e-38
1.682753 -0.17558798 1.0275037 1.8247549e-38
1.6828096 -0.16958337 1.0301864 4.796335e-39
1.6823784 -0.15724067 1.0376366 8.5713517e-39
1.6831754 -0.15066734 1.037974 1.3730327e-38
1.6832696 -0.14461942 1.0405445 1.2812313e-38
1.6835477 -0.13866399 1.0424197 1.2812323e-38
1.6851276 -0.12481438 1.0434809 1.3180744e-38
1.6852244 -0.1187134 1.0460677 1.2995273e-38
1.6860301 -0.11210539 1.0463909 1.419202e-38
1.6857696 -0.10565346 1.0504099 1.3179667e-38
1.6856366 -0.099225327 1.0539659 1.5202216e-38
1.6863281 -0.093654729 1.0541948 1.4286368e-38
1.6858748 -0.085383125 1.0597692 1.4561161e-38
1.6873409 -0.081327096 1.0565315 1.2901643e-38
1.6876181 -0.075442888 1.0583758 1.3178219e-38
1.6875073 -0.069068231 1.0618279 1.3270418e-38
1.6883683 -0.062504515 1.061934 1.4560803e-38
1.6886234 -0.056385227 1.0639699 1.5205455e-38
1.6883813 -0.049658082 1.0680555 1.6589823e-38
1.6886636 -0.043585151 1.0699725 2.1845694e-38
1.6894894 -0.036863428 1.0702792 2.1293959e-38
1.6906134 -0.02257709 1.0731624 2.1383639e-38
1.6907822 -0.01546569 1.0759796 2.1570546e-38
1.6910652 -0.0093529001 1.0779138 2.129504e-38
1.691152 -0.0029318666 1.0806888 2.1386875e-38
1.6914351 0.0031889607 1.0826266 2.1479427e-38
1.692278 0.01155059 1.0836596 2.147835e-38
1.6918014 0.017334754 1.0881224 2.129288e-38
1.6929865 0.021790721 1.0860704 1.9817397e-38
1.6941268 0.035585895 1.08866 2.0001432e-38
1.6939729 0.041779213 1.0921777 2.1386159e-38
1.6942614 0.052395057 1.0962541 2.1386158e-38
1.694896 0.05813361 1.0967648 2.147835e-38
1.6951386 0.068377987 1.1008251 2.1386516e-38
1.6968927 0.08926297 1.1046478 2.0093268e-38
1.6973889 0.097757302 1.1069709 2.1571266e-38
1.6976784 0.10403198 1.1089593 2.1386518e-38
1.6976742 0.11104712 1.1123422 2.1479431e-38
1.6979606 0.11729429 1.1143286 2.1386881e-38
1.6980407 0.12407986 1.117303 2.1386878e-38
1.698704 0.1315819 1.1185588 2.1478715e-38
1.6998596 0.13890223 1.1179863 2.1386519e-38
1.6998456 0.14719628 1.1220177 2.1201406e-38
1.7002426 0.15368977 1.1237309 2.1292886e-38
1.7007834 0.16006507 1.124879 2.157055e-38
1.7007711 0.169 1.1292125 2.1478713e-38
1.7010587 0.1753066 1.1312221 2.1570552e-38
1.7011452 0.18224484 1.1342474 2.1570906e-38
1.7017479 0.19021749 1.1359437 2.1385802e-38
1.7011195 0.19793081 1.1418689 2.1292523e-38
1.7029778 0.21013285 1.1411554 2.1294325e-38
1.7032673 0.21650997 1.1431924 2.1478715e-38
1.7033523 0.22368923 1.1463383 2.1386163e-38
1.7037427 0.23269609 1.1492817 2.1478356e-38
1.7040335 0.23910974 1.1513326 2.1478718e-38
1.7043245 0.24552351 1.1533831 2.1570193e-38
1.7051872 0.25125039 1.1530814 1.9817404e-38
1.7065119 0.26736116 1.1561306 2.1294681e-38
1.7068033 0.27378485 1.1581841 2.1294321e-38
1.7070414 0.28147218 1.1610324 2.1199967e-38
1.70781 0.28815699 1.1615235 2.1201406e-38
1.707821 0.29585117 1.1651783 2.1109934e-38
1.7090137 0.31472299 1.1700206 2.1017382e-38
1.7092638 0.32427058 1.1737194 2.1018099e-38
1.7104584 0.33149973 1.1729655 1.9633367e-38
1.7101328 0.34776068 1.1819236 2.1108856e-38
1.7104278 0.35430455 1.1840217 2.1201049e-38
1.7104323 0.36235788 1.1878721 2.0832629e-38
1.7120811 0.37178487 1.1865672 2.0648239e-38
1.7125601 0.37732753 1.187534 2.0647159e-38
1.7134923 0.38464245 1.187749 1.9540809e-38
1.7134104 0.39328659 1.192188 1.9262777e-38
1.7137063 0.3998678 1.1943011 1.9076578e-38
1.7141851 0.40457049 1.1948652 1.7139032e-38
1.7139593 0.41145316 1.1989681 1.7969506e-38
1.7151206 0.43096808 1.2042302 1.6125228e-38
1.7158189 0.43663251 1.2044796 1.769075e-38
1.7156932 0.44594443 1.2093946 1.6953541e-38
1.7166432 0.45337388 1.2096021 1.6584394e-38
1.6695517 -0.42314473 0.95534337 1.9356762e-38
1.6700593 -0.41650409 0.9567368 1.9538638e-38
1.6715428 -0.40887791 0.95515138 1.9540436e-38
1.6714407 -0.40366909 0.9580124 1.9815581e-38
1.6716105 -0.39808127 0.96009517 1.9724101e-38
1.6720375 -0.38926825 0.9628157 1.9908857e-38
1.6725507 -0.38088152 0.96502733 1.9632273e-38
1.6728204 -0.37521574 0.966793 1.9907419e-38
1.67338 -0.35206687 0.97592741 1.7511389e-38
1.6744915 -0.34278041 0.97645521 1.7971671e-38
1.6750337 -0.33133775 0.98003042 1.5943017e-38
1.6747748 -0.3259415 0.98353767 1.7882355e-38
1.6764321 -0.31298953 0.98389387 1.907838e-38
1.6767173 -0.28856099 0.99461347 1.3178918e-38
1.6769896 -0.28276697 0.99643159 1.327474e-38
1.677754 -0.27637458 0.99679714 1.4744475e-38
1.6781995 -0.26992348 0.99831849 1.336368e-38
1.6792064 -0.26326782 0.99795294 1.4468597e-38
1.6792506 -0.25749484 1.0005684 1.4561517e-38
1.6795235 -0.25167701 1.0023961 1.4285646e-38
1.6795698 -0.24587491 1.0050172 1.5020691e-38
1.6798439 -0.24004732 1.0068465 1.4192738e-38
1.6803681 -0.23361178 1.0080818 1.4468962e-38
1.6806128 -0.22810769 1.0098588 1.2810877e-38
1.6821601 -0.19989271 1.0179322 1.4553543e-38
1.6824615 -0.19339828 1.0199844 1.3175682e-38
1.6844369 -0.16114791 1.0284808 4.0483078e-39
1.6844618 -0.15510941 1.0312916 1.4558996e-38
1.6849575 -0.14829457 1.0328101 1.5296204e-38
1.6853395 -0.14242648 1.034277 1.5205449e-38
1.6851243 -0.1361552 1.0380485 1.4469685e-38
1.6854022 -0.13018769 1.0399307 1.4835948e-38
1.6871476 -0.12384526 1.0368023 1.3270777e-38
1.68712 -0.11641138 1.0404695 1.4653351e-38
1.6872278 -0.10974872 1.0432866 1.4835948e-38
1.6880038 -0.10365509 1.0434679 1.4194531e-38
1.6882814 -0.097672321 1.0453582 1.5019617e-38
1.6880274 -0.091158196 1.0493836 1.4929224e-38
1.6875608 -0.083676949 1.0546253 1.4376046e-38
1.6879424 -0.077432021 1.0562741 1.5018541e-38
1.6894302 -0.073242195 1.0530231 1.2625778e-38
1.6888173 -0.068125457 1.0576481 1.4285654e-38
1.6899681 -0.059765272 1.0575913 1.4654796e-38
1.6902485 -0.053704802 1.0595094 1.5021062e-38
1.6903085 -0.04732357 1.062361 1.6406157e-38
1.6911378 -0.040597562 1.0626572 2.1660947e-38
1.6911997 -0.034227911 1.0654958 2.1294679e-38
1.6916978 -0.028500728 1.0664836 2.1478352e-38
1.6916974 -0.0212494 1.0699667 2.0093258e-38
1.6929153 -0.014162792 1.0690613 2.0002147e-38
1.6928114 -0.0066942708 1.0730139 2.1386159e-38
1.6930934 -0.00057512405 1.0749544 2.1479071e-38
1.6933478 0.0062887827 1.0773501 2.1202114e-38
1.6942161 0.01233314 1.0771804 2.1386158e-38
1.6944977 0.018451348 1.0791225 2.157019e-38
1.6948324 0.024028672 1.080616 2.0001071e-38
1.6947466 0.030688727 1.0841167 2.0001792e-38
1.6959794 0.037838373 1.0831901 2.0276937e-38
1.6966641 0.051236939 1.0872004 2.1570905e-38
1.6970248 0.064071059 1.0920858 2.1294682e-38
1.6968247 0.071364298 1.0962954 2.1479788e-38
1.6971087 0.077567048 1.0982687 2.1386875e-38
1.6977599 0.084941886 1.0995065 2.1386875e-38
1.6980433 0.091152363 1.1014855 2.1662742e-38
1.6993694 0.10016672 1.1011233 2.1478355e-38
1.6997403 0.11319134 1.1060647 2.1479071e-38
1.6997405 0.12023468 1.1094452 2.1294681e-38
1.700026 0.12648927 1.111438 2.147871e-38
1.7001071 0.1342169 1.1148612 2.1292883e-38
1.7016509 0.13924719 1.1118166 2.0370211e-38
1.702134 0.14758392 1.1141104 2.1479072e-38
1.7018508 0.15262486 1.1175326 2.0279093e-38
1.7029583 0.15720834 1.1158156 2.1663096e-38
1.7021706 0.17189728 1.1256539 2.1201405e-38
1.7025691 0.17843607 1.127383 2.1293599e-38
1.7029678 0.18497488 1.1291124 2.1109571e-38
1.7037977 0.19499364 1.1309872 2.1386516e-38
1.7038131 0.20229155 1.1344364 2.175494e-38
1.7052069 0.21182278 1.1340828 2.1386882e-38
1.7054946 0.21818717 1.1361207 2.1571268e-38
1.705582 0.22535232 1.139251 2.1386522e-38
1.7062811 0.23327172 1.140581 2.138652e-38
1.7060724 0.24159136 1.145313 2.1387235e-38
1.7063622 0.24800375 1.1473665 2.1294322e-38
1.7066522 0.25441629 1.14942 2.1478716e-38
1.7069421 0.26082894 1.1514734 2.1386879e-38
1.7085549 0.26984063 1.1500956 2.1294681e-38
1.7086557 0.27703822 1.1531944 2.1294682e-38
1.7089462 0.28346959 1.1552547 2.1109935e-38
1.7096504 0.29152733 1.1566327 2.1109936e-38
1.7096657 0.29923639 1.1602795 2.1109575e-38
1.7099564 0.30569285 1.1623514 2.1201768e-38
1.7110804 0.31724459 1.1639215 2.1201773e-38
1.7113333 0.3267754 1.1676029 2.1109575e-38
1.7122586 0.33403739 1.167817 2.1017379e-38
1.7123674 0.34151581 1.1710221 2.0925185e-38
1.7122149 0.35027981 1.1757693 2.1108855e-38
1.7125089 0.35682228 1.1778702 2.0741151e-38
1.7128031 0.36336491 1.1799711 2.0832989e-38
1.7143097 0.37017262 1.1779112 1.9172386e-38
1.7146479 0.37985283 1.1813626 2.0093984e-38
1.7147789 0.38940856 1.1854863 1.944537e-38
1.7149403 0.39769366 1.1888926 1.8983306e-38
1.7158018 0.40240207 1.1881068 1.8431574e-38
1.7160966 0.40898201 1.1902226 1.8153536e-38
1.7163916 0.41556203 1.1923387 1.7600716e-38
1.7164757 0.42332625 1.1957691 1.7600356e-38
1.7174523 0.43156239 1.1962692 1.6125579e-38
1.7177376 0.43802699 1.1983639 1.5939392e-38
1.6714754 -0.42015192 0.94997662 1.9630478e-38
1.6717745 -0.41515502 0.95131761 1.9723745e-38
1.6738293 -0.38469976 0.95867169 1.9724112e-38
1.6741503 -0.3788873 0.96032703 1.9724108e-38
1.6744193 -0.37321675 0.96209848 2.0000339e-38
1.674117 -0.36797133 0.96568584 2.0184007e-38
1.6739899 -0.36250728 0.9687587 2.0645699e-38
1.6759169 -0.35514706 0.96547675 2.0001043e-38
1.6759951 -0.34827143 0.96850061 1.8433351e-38
1.676891 -0.34015128 0.96923089 1.6868199e-38
1.6768436 -0.32913589 0.97468674 1.6314662e-38
1.6771139 -0.32341608 0.97647697 1.6958255e-38
1.6771903 -0.3178159 0.97889501 1.9171663e-38
1.67874 -0.28624606 0.98857069 1.2255127e-38
1.6788195 -0.28052962 0.99103421 1.345551e-38
1.6795868 -0.27413401 0.991391 1.4837028e-38
1.6798576 -0.26834258 0.99321342 1.4562226e-38
1.6814604 -0.26093367 0.99110222 1.4560066e-38
1.6815069 -0.25517499 0.99370259 1.4651554e-38
1.6815886 -0.24940595 0.99618244 1.4560078e-38
1.6816376 -0.24361169 0.99879134 1.4652628e-38
1.6816579 -0.23807018 1.0013796 1.5018174e-38
1.6824646 -0.23136352 1.0017467 1.4193462e-38
1.6824111 -0.22552019 1.0047413 1.4102703e-38
1.6829568 -0.21384269 1.0084172 1.4931023e-38
1.6830544 -0.20784883 1.0109496 1.3272908e-38
1.6844085 -0.20388551 1.0080633 1.2713245e-38
1.6848015 -0.19645426 1.0102413 1.2435165e-38
1.6848658 -0.19053908 1.0128537 1.4555654e-38
1.6851336 -0.17267671 1.0204816 1.9353885e-38
1.6865245 -0.15898022 1.0221384 9.5793267e-39
1.6873199 -0.15240297 1.0224833 1.5297293e-38
1.687386 -0.14634594 1.0251571 1.4652997e-38
1.6874567 -0.14029884 1.0278105 1.5204013e-38
1.6877319 -0.13436405 1.0296859 1.4377125e-38
1.6875211 -0.12807517 1.0334506 1.5019263e-38
1.6877899 -0.12175957 1.0355325 1.4469324e-38
1.6889054 -0.1156225 1.0345337 1.2901993e-38
1.6890908 -0.10797102 1.0375512 1.4744116e-38
1.6899031 -0.10134619 1.0378584 1.4653356e-38
1.6901798 -0.095364973 1.0397515 1.4468966e-38
1.6902558 -0.089193307 1.0424461 1.5112897e-38
1.6905286 -0.08192914 1.0449687 1.4009072e-38
1.6909707 -0.07691852 1.0458112 1.2809806e-38
1.6906745 -0.072120167 1.0491616 1.5021065e-38
1.6916227 -0.064764097 1.0493394 1.4836662e-38
1.6921116 -0.057728946 1.0509882 1.4469687e-38
1.6922879 -0.051342171 1.0534306 1.2993838e-38
1.6924524 -0.045310039 1.0557449 1.6681659e-38
1.6939518 -0.026053183 1.0596868 1.9909593e-38
1.6933967 -0.019299733 1.0648921 2.1478352e-38
1.6948818 -0.004540436 1.0667262 2.1293958e-38
1.6949774 0.00052002142 1.068817 2.0001788e-38
1.6952499 0.0080124214 1.0714507 2.1386875e-38
1.6960936 0.014807484 1.0717291 2.1387235e-38
1.6963947 0.020221949 1.0732634 2.0002144e-38
1.6963201 0.026939191 1.0767519 1.9909235e-38
1.6975592 0.034096345 1.075806 2.0093628e-38
1.6978334 0.040092681 1.0777148 2.0093268e-38
1.6983013 0.04563383 1.0787205 2.147871e-38
1.6986264 0.053621177 1.081405 2.1571265e-38
1.6987205 0.060195748 1.0842284 2.1571265e-38
1.699002 0.0663715 1.086198 2.1294681e-38
1.6990846 0.073053613 1.0891138 2.1294323e-38
1.699367 0.079240061 1.0910853 2.1386879e-38
1.6999389 0.086849369 1.0927156 2.1571268e-38
1.7007759 0.10239611 1.0972195 2.1201406e-38
1.7001814 0.10704827 1.1015553 2.1386518e-38
1.7016364 0.11582726 1.1006238 2.1478712e-38
1.701728 0.12264656 1.103574 2.1478715e-38
1.7020124 0.12889963 1.10557 2.1478357e-38
1.7020943 0.13571525 1.1085526 2.157091e-38
1.7029694 0.14268465 1.1088036 2.157055e-38
1.7044271 0.16129529 1.1125827 2.129324e-38
1.7045782 0.17293113 1.1176348 2.1109571e-38
1.7045606 0.18088339 1.1215147 2.1109571e-38
1.706197 0.18398015 1.1172143 2.0001795e-38
1.7057185 0.19046414 1.1220194 2.1662744e-38
1.7058085 0.19744845 1.1250539 2.1662746e-38
1.7058278 0.20475093 1.1284918 2.157091e-38
1.7075127 0.2189257 1.1293378 2.1386519e-38
1.7078042 0.22701938 1.1321929 2.1385804e-38
1.7085092 0.23493114 1.1334976 2.1387239e-38
1.7085871 0.24210985 1.1366688 2.1387595e-38
1.7088743 0.24849337 1.1387175 2.1478357e-38
1.7086902 0.25689626 1.1434029 2.1476922e-38
1.708979 0.26330766 1.1454592 2.1294328e-38
1.7106452 0.26678056 1.141234 1.95419e-38
1.7107449 0.27428311 1.1444832 2.111065e-38
1.7115765 0.28500476 1.1466893 2.1294326e-38
1.7118694 0.29321364 1.1495949 2.1295041e-38
1.7117194 0.30174175 1.1542192 2.1294325e-38
1.712009 0.30819708 1.1562941 2.1294323e-38
1.713311 0.32175219 1.1581975 2.1109572e-38
1.7136018 0.3282454 1.1602859 2.0925185e-38
1.7139783 0.33599928 1.1626769 2.0647872e-38
1.7148191 0.34199321 1.1625807 2.0833708e-38
1.7151095 0.34848556 1.1646705 2.0832626e-38
1.7147685 0.35834882 1.1706115 2.0832629e-38
1.7148843 0.36588234 1.1738191 2.0832631e-38
1.7151284 0.37459746 1.1771402 2.0092908e-38
1.7165787 0.37895799 1.1741035 1.834154e-38
1.7168607 0.38534695 1.1761743 1.8156778e-38
1.7168174 0.3934893 1.180236 1.7509261e-38
1.717769 0.40036443 1.1801711 1.8338289e-38
1.7180628 0.40694246 1.1822902 1.7878029e-38
1.7183566 0.41352069 1.1844093 1.7968783e-38
1.7184945 0.42351431 1.1887192 1.7321977e-38
1.7195011 0.43644938 1.1913689 1.7139015e-38
1.7193676 0.44760555 1.1971976 1.6768792e-38
1.6739357 -0.41782469 0.942393 1.9357125e-38
1.6742095 -0.4109166 0.94474119 1.9540793e-38
1.6742784 -0.40553465 0.94708127 1.9633348e-38
1.6758925 -0.38215196 0.95259815 1.9540797e-38
1.6761597 -0.37649164 0.95437068 1.9541153e-38
1.6762563 -0.37099469 0.95666832 1.9633349e-38
1.675907 -0.36577958 0.96040684 1.9447879e-38
1.6761907 -0.36018887 0.96208787 1.9632985e-38
1.6777831 -0.34703362 0.96277124 1.5205085e-38
1.6781162 -0.33836922 0.96575367 1.4009403e-38
1.6786544 -0.32693306 0.96933985 1.502394e-38
1.6789237 -0.32121494 0.97113311 1.5114321e-38
1.6794857 -0.315029 0.97211504 1.548168e-38
1.6797544 -0.30930552 0.97391272 1.6308541e-38
1.6804392 -0.30310622 0.97446734 1.5576741e-38
1.6813492 -0.27762309 0.98348272 1.2619923e-38
1.6816185 -0.27184182 0.9853065 1.2900899e-38
1.6818875 -0.26606029 0.98712993 1.511179e-38
1.6830208 -0.25297445 0.98940468 1.4467123e-38
1.6832237 -0.24532123 0.99236083 1.4468189e-38
1.6843127 -0.22911054 0.99629235 1.3820302e-38
1.6872317 -0.17051695 1.0140986 1.9627958e-38
1.6872932 -0.16476066 1.016645 8.6667143e-39
1.6888232 -0.15725453 1.0148369 1.3085314e-38
1.6894034 -0.15022303 1.0161608 1.4745195e-38
1.6896768 -0.14431499 1.0180304 1.4285296e-38
1.6893626 -0.13804767 1.02215 1.5019983e-38
1.6894336 -0.13195629 1.0248237 1.437677e-38
1.6899729 -0.12679115 1.0253965 1.2993478e-38
1.6921474 -0.10560464 1.0278772 1.4376055e-38
1.6922014 -0.099422783 1.0306543 1.4837745e-38
1.6922766 -0.093273118 1.0333406 1.391831e-38
1.6921554 -0.086881809 1.0368371 1.4744831e-38
1.692886 -0.081032462 1.0370619 1.3454449e-38
1.6928167 -0.07643003 1.0395161 1.4929228e-38
1.6934271 -0.069316499 1.040773 1.3087456e-38
1.6936977 -0.063458391 1.0426283 1.3087463e-38
1.6934599 -0.050379552 1.0497482 1.4375339e-38
1.6945889 -0.043298233 1.049155 1.6680223e-38
1.694903 -0.03578778 1.0516496 2.1385081e-38
1.694966 -0.029405132 1.0544912 2.1294328e-38
1.6957817 -0.023829984 1.0542827 1.9818119e-38
1.6966251 -0.0097992737 1.0580361 2.0001427e-38
1.6968963 -0.0038536489 1.059931 2.0185459e-38
1.6960542 0.003212177 1.0663012 2.138616e-38
1.6982419 0.016758189 1.0650673 2.1478713e-38
1.6981076 0.023684315 1.0688682 2.1663459e-38
1.6980913 0.030428927 1.0721635 2.1479073e-38
1.6987447 0.037702706 1.0733447 2.1479429e-38
1.6996894 0.042348742 1.072234 2.0185816e-38
1.6999621 0.048342623 1.0741476 2.0093982e-38
1.700007 0.055270609 1.0773147 2.1293598e-38
1.7008648 0.060544077 1.076813 2.1386515e-38
1.7009599 0.067123584 1.0796347 2.1386519e-38
1.7012454 0.074934639 1.082375 2.1570908e-38
1.7019008 0.08921957 1.0869153 2.1570547e-38
1.7019895 0.095953219 1.0898339 2.1570189e-38
1.7024454 0.10301822 1.0916135 2.00947e-38
1.7030267 0.11050742 1.0931537 2.1571625e-38
1.7038975 0.11744124 1.0934021 2.1294688e-38
1.7039045 0.1244831 1.096758 2.1386879e-38
1.7048556 0.13117261 1.0966065 2.1479434e-38
1.704951 0.1380026 1.0995479 2.157127e-38
1.7050347 0.14483316 1.102531 2.1570909e-38
1.7054754 0.1530215 1.1049035 2.157091e-38
1.7069213 0.16154088 1.1038795 2.0370213e-38
1.7070421 0.16882387 1.106949 2.1663462e-38
1.707072 0.177095 1.1108139 2.1293598e-38
1.7075391 0.18622886 1.1135476 2.1479073e-38
1.7075362 0.19357607 1.117085 2.1570549e-38
1.7078207 0.19990443 1.1191169 2.1570908e-38
1.7078438 0.20721152 1.1225435 2.1386518e-38
1.7079996 0.21365024 1.1250834 2.1108494e-38
1.7097117 0.22066933 1.1223981 2.1386879e-38
1.7097914 0.22954981 1.1263795 2.1479072e-38
1.7105228 0.23739959 1.1275615 2.1570908e-38
1.710808 0.24377051 1.1296113 2.1386162e-38
1.710905 0.25097126 1.1327255 2.1478353e-38
1.7110037 0.2581946 1.1358441 2.1477276e-38
1.71231 0.26287669 1.133472 2.0186179e-38
1.7125865 0.26912639 1.1354941 1.9909958e-38
1.7127765 0.27729151 1.1387423 2.1109575e-38
1.7133553 0.28775361 1.1417181 2.10163e-38
1.7138216 0.29198319 1.1420995 1.9725919e-38
1.7140758 0.29767188 1.1439313 2.1202492e-38
1.7139349 0.30621326 1.1485305 2.1202485e-38
1.7142235 0.31266713 1.1506082 2.1018097e-38
1.7153839 0.32139108 1.1506925 1.9633725e-38
1.7153636 0.32929319 1.1545578 1.9633733e-38
1.715642 0.33562684 1.1566143 1.9357861e-38
1.7168884 0.3445054 1.1564685 2.101702e-38
1.7171777 0.35099643 1.1585613 2.0924465e-38
1.71729 0.3583959 1.1617168 2.0924106e-38
1.7173915 0.36598811 1.1650026 2.0095066e-38
1.7174301 0.37392914 1.1686786 1.9909237e-38
1.7181964 0.38224933 1.1699632 1.8895442e-38
1.7182168 0.39036781 1.1737882 1.85234e-38
1.7198882 0.39411813 1.1696777 1.6588009e-38
1.7200338 0.40183809 1.172869 1.7877671e-38
1.720589 0.4067851 1.1732801 1.7600726e-38
1.7206174 0.4149698 1.1771089 1.7415972e-38
1.7210119 0.42571032 1.1808707 1.7415608e-38
1.7213041 0.43230751 1.1830041 1.7231578e-38
1.721542 0.43933317 1.185536 1.6862074e-38
1.7234015 0.44782013 1.1830338 1.5388743e-38
1.6760567 -0.40336484 0.94183391 1.8251131e-38
1.6763222 -0.39774951 0.94359076 1.8251122e-38
1.6779542 -0.37430432 0.94907463 1.5392361e-38
1.6773411 -0.36946362 0.95356679 1.437605e-38
1.6779792 -0.36333734 0.95425093 1.4652628e-38
1.6781944 -0.35782295 0.9561373 1.6222125e-38
1.6791331 -0.35140499 0.95589894 1.4932103e-38
1.6807288 -0.33559909 0.95784324 1.6867098e-38
1.6806539 -0.33014739 0.96072555 1.7142605e-38
1.6815677 -0.30710006 0.96855813 1.6493647e-38
1.6837772 -0.26951587 0.97878826 1.5295051e-38
1.6837177 -0.26382223 0.98173171 1.5109593e-38
1.685135 -0.2449117 0.98579812 1.4836968e-38
1.6853037 -0.23980275 0.98765427 1.3178539e-38
1.6890935 -0.16875373 1.0083606 1.7964842e-38
1.6918951 -0.13010789 1.0170057 1.4837028e-38
1.6925781 -0.11111712 1.0237077 1.4470406e-38
1.6938446 -0.097247064 1.0258873 1.4836664e-38
1.6941898 -0.091015719 1.027658 1.4286727e-38
1.6938206 -0.086199336 1.0312757 1.31793e-38
1.6947576 -0.082029209 1.0299643 1.4744112e-38
1.6947242 -0.074110404 1.0338839 1.4928513e-38
1.6949989 -0.06811104 1.0357925 1.4008351e-38
1.6946787 -0.061334901 1.0401779 1.4560084e-38
1.6949546 -0.055306841 1.0420955 1.4469319e-38
1.6966528 -0.047978777 1.0396087 1.2717606e-38
1.6967177 -0.041287914 1.0425909 1.6495835e-38
1.6970351 -0.033802398 1.0450623 2.1384727e-38
1.6973108 -0.027744619 1.0469953 2.1478713e-38
1.6983097 -0.0082038008 1.0528439 2.1386874e-38
1.697922 -0.00092610327 1.0577093 2.1478712e-38
1.6994298 0.0073058782 1.0563289 2.1478353e-38
1.6999073 0.013017499 1.057382 2.1478356e-38
1.6999754 0.019514866 1.0602603 2.1294684e-38
1.7000548 0.026055781 1.0631196 2.1479072e-38
1.7000425 0.032804865 1.0664036 2.1478356e-38
1.7016079 0.037861291 1.0632942 1.9908881e-38
1.701059 0.04316489 1.0677822 2.1293961e-38
1.7010227 0.050013896 1.0711986 2.1386519e-38
1.7028368 0.062842242 1.0709418 2.1479071e-38
1.7031155 0.069005646 1.072915 2.1571268e-38
1.7032086 0.077322982 1.0765791 2.1478355e-38
1.7032082 0.084225766 1.0798939 2.1570547e-38
1.7040744 0.091114864 1.0801382 2.175458e-38
1.7039642 0.098355249 1.0840032 2.1662386e-38
1.704043 0.10508793 1.086957 2.1571266e-38
1.7057527 0.11928584 1.0877267 2.1293242e-38
1.706145 0.12606005 1.0895914 2.1386881e-38
1.7070241 0.13300733 1.0898181 2.1663462e-38
1.7071216 0.13982524 1.0927459 2.1295047e-38
1.7070591 0.14585699 1.0958625 2.1201405e-38
1.7075887 0.14938961 1.0956861 2.0462764e-38
1.7074628 0.1554313 1.0990317 2.1479073e-38
1.7080827 0.16330165 1.1006179 2.1571625e-38
1.7090384 0.17124996 1.1010537 2.1386879e-38
1.7090365 0.17713922 1.1038878 1.9817758e-38
1.7097356 0.18629062 1.1058083 2.1571268e-38
1.7100205 0.19995323 1.11136 2.1663463e-38
1.709856 0.20793645 1.1157746 2.1387239e-38
1.7107774 0.21148153 1.114218 2.000216e-38
1.7119832 0.22211212 1.1150572 2.1386879e-38
1.7120516 0.23075011 1.118962 2.1109925e-38
1.7127166 0.23737909 1.1197931 2.1663462e-38
1.7129999 0.24373931 1.1218441 2.1571266e-38
1.713116 0.25085232 1.1248484 2.1479073e-38
1.7132171 0.25806195 1.127952 2.1478353e-38
1.7132859 0.26708502 1.1320407 2.1201047e-38
1.71453 0.27147415 1.1297482 2.0001794e-38
1.7144972 0.27905333 1.1335027 2.0002511e-38
1.7144339 0.28679839 1.1374451 1.9633736e-38
1.7158368 0.29373774 1.1358149 2.1386878e-38
1.7158632 0.3014355 1.1394168 2.1202848e-38
1.7161499 0.30787787 1.1414957 2.1385802e-38
1.7164454 0.31477168 1.1437603 2.101594e-38
1.7168872 0.32390836 1.146584 2.1110295e-38
1.7172947 0.32979143 1.1479676 2.1109575e-38
1.7175817 0.33625329 1.1500543 2.1108857e-38
1.7193998 0.34456956 1.1476171 2.0924107e-38
1.7197046 0.35901135 1.1534725 2.0278739e-38
1.7199439 0.36639559 1.1561713 1.944717e-38
1.720854 0.37076315 1.1550494 1.7788363e-38
1.7205 0.37807903 1.1598135 1.880072e-38
1.7207886 0.38459331 1.1619207 1.7879834e-38
1.721836 0.39606956 1.1637264 1.7415253e-38
1.7223873 0.40275964 1.1649883 1.732486e-38
1.7224742 0.41049466 1.1683942 1.7600368e-38
1.7225074 0.41869581 1.1722144 1.7507092e-38
1.7232772 0.42718223 1.1735659 1.7047907e-38
1.7234086 0.43485719 1.1767857 1.6770957e-38
1.724041 0.43921331 1.1766404 1.7138305e-38
1.6780626 -0.41149941 0.93083447 1.5853713e-38
1.6771504 -0.40783712 0.93581891 1.5206908e-38
1.6778359 -0.40119404 0.93658358 1.6500155e-38
1.6797982 -0.37746185 0.94103676 1.6405405e-38
1.6801924 -0.36077589 0.94765383 1.7600691e-38
1.6809758 -0.354624 0.94783604 1.7327004e-38
1.6811221 -0.34905338 0.94999367 1.714224e-38
1.6811945 -0.34354725 0.95238054 1.6219569e-38
1.6826582 -0.32782063 0.95475435 1.6683096e-38
1.6836489 -0.29917324 0.96500367 1.5665361e-38
1.6850206 -0.28632838 0.96631974 1.6312094e-38
1.6848286 -0.27509236 0.97239208 1.5388341e-38
1.685361 -0.25076437 0.982189 1.6307782e-38
1.6872295 -0.24082576 0.98035169 1.8521944e-38
1.6879524 -0.23044169 0.98278087 1.8336833e-38
1.6891992 -0.20467301 0.99074298 1.6772374e-38
1.6905096 -0.19730878 0.98964351 1.5666059e-38
1.6909595 -0.16596738 1.0030991 1.3915053e-38
1.6917615 -0.15944214 1.0033952 1.2165155e-38
1.691732 -0.15338515 1.006407 1.4654079e-38
1.6932302 -0.13964227 1.0077065 1.4654076e-38
1.6926605 -0.13475181 1.0120691 1.4652638e-38
1.6938448 -0.12680243 1.0116974 1.5021056e-38
1.6941155 -0.12087151 1.0135871 1.4654072e-38
1.6943864 -0.11494047 1.0154767 1.4651925e-38
1.6944585 -0.10884067 1.0181501 1.4469329e-38
1.694538 -0.10269993 1.0208169 1.4284216e-38
1.6960026 -0.094879232 1.0193915 1.4744832e-38
1.6957166 -0.090252921 1.0226239 1.3180372e-38
1.6963116 -0.086193033 1.022469 1.4837381e-38
1.6965468 -0.078025512 1.0255585 1.4377853e-38
1.6968195 -0.072037078 1.027468 1.4928149e-38
1.6970927 -0.066048533 1.0293776 1.4285651e-38
1.6970868 -0.059684653 1.0324537 1.4376054e-38
1.6973605 -0.053682316 1.0343674 1.4837034e-38
1.6976933 -0.04630544 1.0367317 1.4008346e-38
1.698727 -0.032611232 1.0396506 2.0184743e-38
1.699232 -0.02699304 1.0405613 2.1570546e-38
1.6993214 -0.019040374 1.0440633 2.1294684e-38
1.6993967 -0.012609549 1.0468842 2.16631e-38
1.7002432 -0.005848167 1.0471371 2.1570547e-38
1.700132 0.00094004918 1.050789 2.1478712e-38
1.7018517 0.015385755 1.0516418 2.1386518e-38
1.7020024 0.020312192 1.0534745 2.0093987e-38
1.7021569 0.030313132 1.0577291 2.1663102e-38
1.7032123 0.043467894 1.060312 2.1570908e-38
1.7029755 0.050753292 1.0646468 2.1569836e-38
1.7050765 0.071385153 1.0671216 2.1663462e-38
1.7051727 0.07971248 1.0707797 2.1479075e-38
1.7058412 0.087099373 1.0719615 2.1478712e-38
1.7055717 0.10014986 1.0791799 2.1109208e-38
1.705961 0.10656336 1.080882 2.1109209e-38
1.7063504 0.1129768 1.0825839 2.1108852e-38
1.7080218 0.1199889 1.0800393 2.1663462e-38
1.7083049 0.12790236 1.0828373 2.1570909e-38
1.7091856 0.13484429 1.0830549 2.1478715e-38
1.7092854 0.14165018 1.0859693 2.1479432e-38
1.7093474 0.15097581 1.0902277 2.1479071e-38
1.7096272 0.1572168 1.0922345 2.1386523e-38
1.7107197 0.1661396 1.0926546 2.000323e-38
1.7112279 0.1730417 1.0941702 2.1479434e-38
1.7113167 0.17995173 1.0971736 2.1479073e-38
1.7119337 0.18799581 1.0988532 2.1479078e-38
1.7122146 0.19428553 1.1008794 2.1386885e-38
1.7122201 0.20163983 1.1043911 2.1479792e-38
1.7123123 0.20863432 1.1074225 2.1479075e-38
1.7128421 0.21716954 1.1096468 2.1478718e-38
1.7136838 0.22241247 1.1091865 2.0002515e-38
1.7136091 0.22992517 1.1130581 2.0002508e-38
1.7147435 0.23985355 1.1138126 2.129397e-38
1.7150259 0.2462125 1.1158664 2.138652e-38
1.7153472 0.25248888 1.1177436 2.1295045e-38
1.7154281 0.25969204 1.1209153 2.1386876e-38
1.7161961 0.26747361 1.121935 1.9909239e-38
1.7157822 0.2710903 1.1251352 2.1017015e-38
1.716162 0.27798504 1.127102 2.138652e-38
1.7162714 0.28526956 1.1302123 2.1018104e-38
1.7180774 0.29351607 1.1277841 2.1202847e-38
1.7181661 0.30084258 1.1309881 2.1294326e-38
1.718451 0.30726799 1.1330646 2.1109936e-38
1.7182919 0.31775969 1.1386646 2.1201412e-38
1.7192179 0.32316077 1.1379824 2.1202129e-38
1.7193496 0.33046821 1.1410252 2.1109934e-38
1.719852 0.33573815 1.1417786 1.9817763e-38
1.721457 0.34524161 1.1406647 2.0556048e-38
1.7214835 0.34966052 1.1426922 1.8805043e-38
1.7216417 0.35697943 1.1456465 1.9725563e-38
1.7219281 0.36345702 1.1477432 1.907876e-38
1.7226955 0.37165791 1.1489667 1.8615608e-38
1.7228193 0.37915856 1.1521291 1.8062423e-38
1.7228659 0.38710999 1.1557822 1.7602165e-38
1.7230482 0.39587077 1.1593437 1.6034473e-38
1.7246363 0.40423813 1.1577433 1.7324858e-38
1.7245662 0.41302961 1.1622121 1.7324138e-38
1.7248987 0.42036596 1.1645585 1.7045033e-38
1.7253797 0.42973781 1.1673566 1.686244e-38
1.7258497 0.43518123 1.168308 1.6679123e-38
1.7257713 0.44311374 1.1723934 1.6676618e-38
1.7260734 0.45059153 1.174915 4.9750033e-39
1.6799504 -0.40392506 0.92779422 1.502283e-38
1.6798466 -0.39875808 0.93064141 1.4562935e-38
1.6804955 -0.38735411 0.93382162 1.5851868e-38
1.6818181 -0.37505037 0.93505067 1.7696169e-38
1.6802355 -0.37151399 0.9423458 1.5205436e-38
1.6816226 -0.36443904 0.94083667 1.7602898e-38
1.6819775 -0.35859054 0.94238931 1.7602898e-38
1.6827705 -0.35243729 0.94253922 1.6775657e-38
1.6830337 -0.34678295 0.94432282 1.806567e-38
1.6829913 -0.34135851 0.94707716 1.8342261e-38
1.6854314 -0.31368801 0.95173115 2.0370555e-38
1.6854781 -0.30811423 0.95424223 2.0370554e-38
1.6856982 -0.30224293 0.95628238 1.5296906e-38
1.6856489 -0.29128766 0.96171641 1.6682027e-38
1.6852393 -0.28017908 0.96849787 1.5482354e-38
1.6873746 -0.27220297 0.96477532 1.539127e-38
1.6878259 -0.26639074 0.96596944 1.5851879e-38
1.6876994 -0.25928092 0.9698301 1.6956404e-38
1.6876477 -0.25356531 0.9727571 1.7785796e-38
1.6878844 -0.24845244 0.97437471 1.8521944e-38
1.6891805 -0.23808244 0.97476888 1.5664959e-38
1.6898068 -0.22308284 0.97975516 1.6035197e-38
1.6905006 -0.22009024 0.97873819 1.5114321e-38
1.6904457 -0.21442215 0.98165399 1.3822848e-38
1.6916084 -0.20767161 0.98078209 1.3637393e-38
1.691522 -0.2019143 0.98385251 1.4466799e-38
1.6914378 -0.19612475 0.98692906 1.4374971e-38
1.6917113 -0.18953486 0.98912579 1.8064954e-38
1.6925095 -0.18303952 0.98942071 1.8434098e-38
1.6929852 -0.17574549 0.99124032 1.5942669e-38
1.6935856 -0.16916314 0.99227679 1.0416329e-38
1.6930763 -0.1643723 0.99637872 1.4559721e-38
1.6933348 -0.15699396 0.99900651 1.5298728e-38
1.6933094 -0.15091929 1.0020125 1.4470045e-38
1.6938734 -0.14520878 1.0027596 1.4929231e-38
1.6948529 -0.1378441 1.0028307 1.2902722e-38
1.6952024 -0.13131811 1.0047283 1.4376417e-38
1.6959077 -0.12463171 1.0054439 1.4561163e-38
1.695461 -0.11921629 1.0096233 1.4377125e-38
1.6962717 -0.11263971 1.0099138 1.437677e-38
1.6963443 -0.10653669 1.0125875 1.437677e-38
1.6964264 -0.10039563 1.0152444 1.4377126e-38
1.6981297 -0.084554859 1.0168258 1.4930298e-38
1.6982809 -0.078456283 1.0192183 1.4009424e-38
1.6991074 -0.071821392 1.0194808 1.4652642e-38
1.7001026 -0.051077932 1.02592 1.4744468e-38
1.6999098 -0.044417191 1.0297997 1.3825035e-38
1.6996698 -0.037640359 1.0339017 1.5574233e-38
1.7013575 -0.03149661 1.0308822 1.9263867e-38
1.7013373 -0.024966979 1.0340886 2.1570547e-38
1.7012498 -0.016686643 1.0383735 2.1294679e-38
1.7020986 -0.0099300826 1.0386155 2.1479072e-38
1.7017428 -0.0045056869 1.0424777 2.1201042e-38
1.7027376 -0.00054312713 1.0408623 2.0186534e-38
1.7024164 0.004770359 1.0445486 2.1479788e-38
1.7033679 0.024679195 1.0507417 2.1294325e-38
1.7042944 0.032236133 1.0510927 2.1478356e-38
1.7045699 0.038349148 1.053053 2.1663103e-38
1.7053529 0.045372583 1.0536562 2.1295037e-38
1.7054255 0.051936444 1.0565505 2.157055e-38
1.7055155 0.058540702 1.0594025 2.1478713e-38
1.705307 0.065851413 1.0636504 2.1479431e-38
1.7068384 0.074245252 1.062264 2.16631e-38
1.7077111 0.081127986 1.0624814 2.1478713e-38
1.7078059 0.087812506 1.0653555 2.166346e-38
1.7081958 0.093140185 1.0665343 2.1109211e-38
1.7081649 0.10069088 1.0702684 2.1109572e-38
1.7085518 0.1070692 1.0719622 2.1109568e-38
1.7099997 0.12239798 1.0742006 2.1479073e-38
1.7103181 0.12970392 1.076582 2.1201762e-38
1.7107072 0.13611768 1.0782852 2.1201045e-38
1.711229 0.14654586 1.0814465 2.1479434e-38
1.7113341 0.15339012 1.0843604 2.1756015e-38
1.7116129 0.15962984 1.0863701 2.1571625e-38
1.7122474 0.16751026 1.0879092 2.1571628e-38
1.7142115 0.18939452 1.0914695 2.1479792e-38
1.7144907 0.19566673 1.093493 2.1571268e-38
1.7144996 0.20300993 1.0969867 2.1479076e-38
1.7145926 0.20999548 1.1000124 2.1663106e-38
1.7150425 0.21885748 1.102675 2.1478718e-38
1.7153227 0.22517987 1.1047192 2.1571629e-38
1.7156029 0.23150238 1.1067634 2.1479073e-38
1.7167714 0.2423292 1.1078286 2.1386522e-38
1.7170531 0.24868694 1.1098853 2.1386881e-38
1.7173977 0.25213864 1.1103232 2.0094708e-38
1.717335 0.25948954 1.1140741 2.1294684e-38
1.7176423 0.26573536 1.1159854 2.1108494e-38
1.7180414 0.27230969 1.1177311 2.1201405e-38
1.7184603 0.27922684 1.1195697 2.1478357e-38
1.7192442 0.28416839 1.1191701 1.9725931e-38
1.720295 0.29510289 1.1207032 2.1295401e-38
1.720578 0.3015058 1.1227763 2.1202132e-38
1.7206672 0.3088409 1.125982 2.1110295e-38
1.7214059 0.31698018 1.1272774 2.1018102e-38
1.7215227 0.3243317 1.1303936 2.1017744e-38
1.7218063 0.33076537 1.1324794 2.1109578e-38
1.7216955 0.3394255 1.1370286 2.1017381e-38
1.7234516 0.35204181 1.1368748 1.7973487e-38
1.7239665 0.35796872 1.1378994 1.9263151e-38
1.7246495 0.36674422 1.1396967 1.8340092e-38
1.7247666 0.37417501 1.1428498 1.7693285e-38
1.7250515 0.38065979 1.1449556 1.7601808e-38
1.7249444 0.3896279 1.1496404 1.741706e-38
1.7250466 0.39722204 1.1529243 1.7509608e-38
1.7266843 0.40921089 1.1528883 1.5573499e-38
1.7269198 0.42218003 1.1582812 1.6954995e-38
1.7273754 0.42964292 1.1602529 1.6125949e-38
1.7277861 0.43640503 1.1620468 1.6032317e-38
1.7278435 0.44564503 1.1662799 1.6584053e-38
1.728472 0.45082831 1.1665457 1.6530515e-39
1.6824284 -0.37968048 0.93066996 1.8802876e-38
1.6840477 -0.36168915 0.9335804 1.7973466e-38
1.6841799 -0.35604358 0.93582308 2.0091805e-38
1.684566 -0.3502495 0.93723923 1.9541151e-38
1.6846377 -0.3447558 0.93962288 1.9356758e-38
1.6865919 -0.32321379 0.94305348 1.5761494e-38
1.6890582 -0.27575201 0.95711702 1.8524845e-38
1.6895167 -0.26989481 0.95830774 1.7511775e-38
1.6897804 -0.26415494 0.96013105 1.769689e-38
1.6897339 -0.25701129 0.96372443 1.7513574e-38
1.6902038 -0.2506704 0.96510679 1.6499433e-38
1.6900798 -0.24494436 0.96829432 1.7051878e-38
1.6903446 -0.23916267 0.97013396 1.751178e-38
1.6904297 -0.23337793 0.97261018 1.7235196e-38
1.6912767 -0.22684224 0.97275192 2.0277641e-38
1.6922896 -0.2236515 0.97070187 1.6038447e-38
1.6922408 -0.21797034 0.97360158 1.6220676e-38
1.691915 -0.21247324 0.97739255 1.7325941e-38
1.6921526 -0.20625356 0.9795385 1.7874082e-38
1.6935323 -0.19410828 0.98048991 1.8432644e-38
1.6946192 -0.18155298 0.98267323 2.0093611e-38
1.6948321 -0.17501597 0.98505896 1.944824e-38
1.6954432 -0.16841801 0.98606521 1.0783307e-38
1.695336 -0.16232963 0.98936743 1.4744825e-38
1.6954994 -0.15488157 0.99236482 1.474663e-38
1.6951869 -0.14862894 0.99647212 1.4563311e-38
1.6952559 -0.1426025 0.99912143 1.4744831e-38
1.6954374 -0.13707207 1.0011344 1.4835227e-38
1.6971893 -0.13275957 0.99700922 1.2995617e-38
1.6973583 -0.12340385 1.0009032 1.4650832e-38
1.6978832 -0.11782303 1.0017253 1.4285293e-38
1.6984389 -0.11061189 1.0032225 1.4193459e-38
1.6984715 -0.10504911 1.005778 1.5570995e-38
1.6984817 -0.10197791 1.0072161 1.3087106e-38
1.6987447 -0.096571848 1.008882 1.4654786e-38
1.6985396 -0.090131074 1.0126989 1.4743755e-38
1.7003305 -0.081928678 1.0103028 1.4743765e-38
1.7010061 -0.069513932 1.0138737 1.4470411e-38
1.7012757 -0.063546792 1.0157847 1.4837745e-38
1.7020115 -0.050405361 1.019492 1.42835e-38
1.7018223 -0.04208602 1.0241547 1.4193455e-38
1.7016248 -0.036732472 1.0274236 1.4282414e-38
1.7035505 -0.023132367 1.0271423 2.16631e-38
1.7033522 -0.014653688 1.0319139 2.1479069e-38
1.7036813 -0.0091852937 1.0333754 2.1201042e-38
1.7036561 -0.0021581699 1.0368383 2.1201042e-38
1.7045403 0.0067212582 1.0379741 2.1478713e-38
1.7050854 0.018860143 1.0418733 2.1570905e-38
1.7066066 0.027092222 1.040446 2.1479428e-38
1.7072644 0.034299295 1.0415794 2.1571625e-38
1.7064809 0.041640151 1.0478747 2.1201049e-38
1.7071958 0.047924507 1.0483636 2.138652e-38
1.7074698 0.054043341 1.0503321 2.1570908e-38
1.7077436 0.060162347 1.0523006 2.1570908e-38
1.7090943 0.075850897 1.0550562 2.1571268e-38
1.7093647 0.082803927 1.0574384 2.1385793e-38
1.7102436 0.088873982 1.0572438 2.1663103e-38
