# .PCD v0.7 - Point Cloud Data file format
VERSION 0.7
FIELDS x y z rgb
SIZE 4 4 4 4
TYPE F F F F
COUNT 1 1 1 1
WIDTH 1053
HEIGHT 1
VIEWPOINT 0 0 0 1 0 0 0
POINTS 1053
DATA ascii
0.67569041 0.47817567 2.3218601 5.7114599e-39
0.67572033 0.47872913 2.3204222 5.4345227e-39
0.7037757 0.44759569 2.4019182 9.3103517e-39
0.69878036 0.45399588 2.385181 9.218512e-39
0.6965065 0.4564921 2.3786461 1.1153167e-38
0.69408178 0.4600713 2.3692939 7.4667698e-39
0.68935192 0.46557009 2.3549049 5.3401593e-39
0.68894839 0.46728796 2.3504319 8.1910127e-39
0.68465179 0.47161877 2.3390872 4.775499e-39
0.68383467 0.47335029 2.3345702 7.4513065e-39
0.67645383 0.48156077 2.3130786 8.2868195e-39
0.67521936 0.48312035 2.3089998 6.0798921e-39
0.6752491 0.48367009 2.3075716 5.8026018e-39
0.64110714 0.53210419 2.1809874 1.2885682e-39
0.70743853 0.44861105 2.3993556 1.1707074e-38
0.70315862 0.45345783 2.3866704 9.4018243e-39
0.70199907 0.45502356 2.3825772 1.170743e-38
0.6984306 0.45953682 2.3707736 8.4809288e-39
0.69685584 0.46111622 2.366636 9.7702186e-39
0.6930697 0.46644562 2.3527069 7.7368827e-39
0.69373214 0.46616161 2.3534586 6.7148148e-39
0.68787366 0.47232705 2.3373137 7.4513051e-39
0.68421149 0.47712839 2.3247592 5.6981588e-39
0.67945051 0.48260033 2.3104393 6.4432698e-39
0.68023998 0.48047832 2.3159707 7.6475808e-39
0.68070608 0.48141178 2.3135545 8.5706189e-39
0.6795398 0.48424968 2.306155 4.7909708e-39
0.64515144 0.53213239 2.1809983 1.7495464e-39
0.71262568 0.44708475 2.4034302 7.3731491e-39
0.71216393 0.4487274 2.3991518 1.1521959e-38
0.70660543 0.45456633 2.3838613 1.1982942e-38
0.70759851 0.45405743 2.3852046 8.9412007e-39
0.70128274 0.46057355 2.3681386 1.0876577e-38
0.70284051 0.46013248 2.3693175 7.8337545e-39
0.69805145 0.46563083 2.3549283 6.3557433e-39
0.69808185 0.46619204 2.3534703 6.1663088e-39
0.69329214 0.47167909 2.3391106 6.0734083e-39
0.68997908 0.47661778 2.3262067 8.9307526e-39
0.6843257 0.4822104 2.3115544 8.0138339e-39
0.68611717 0.48093769 2.3148994 7.553932e-39
0.6837709 0.48372966 2.3075945 5.3423271e-39
0.68574315 0.48202044 2.3120778 6.6352197e-39
0.68383044 0.48482907 2.3047385 4.2384977e-39
0.71706605 0.44711575 2.4034424 5.898019e-39
0.71622998 0.44911209 2.3982368 9.7709669e-39
0.71197659 0.45351946 2.3866942 9.1259577e-39
0.71072608 0.45552114 2.3814659 1.1614507e-38
0.7071892 0.45959809 2.3707969 8.3883772e-39
0.70529181 0.46230787 2.3637149 1.1151358e-38
0.7024011 0.4656612 2.3549399 6.5397745e-39
0.69976795 0.46834826 2.3479018 9.5793492e-39
0.69761211 0.47170916 2.3391223 6.1656053e-39
0.69279236 0.47718841 2.3247821 6.257801e-39
0.68797213 0.48265991 2.3104622 5.7103739e-39
0.68800193 0.48320964 2.3090341 5.7114599e-39
0.68803167 0.48375943 2.307606 5.4345227e-39
0.69011897 0.48274165 2.3102944 6.6352267e-39
0.68809122 0.48485887 2.30475 4.0541064e-39
0.72665805 0.441304 2.418746 2.8519507e-39
0.72150666 0.44714671 2.4034543 3.8711599e-39
0.72033215 0.44942069 2.3975203 9.7702523e-39
0.71638572 0.45355025 2.3867059 9.7709613e-39
0.71473241 0.45564556 2.3812261 1.2442114e-38
0.71156877 0.45962861 2.3708088 8.2021867e-39
0.71159935 0.46019357 2.3693411 7.4667698e-39
0.70675099 0.46569157 2.3549516 7.0958265e-39
0.70678139 0.46625283 2.3534937 6.1709933e-39
0.70193237 0.47173944 2.3391337 6.4421852e-39
0.69888484 0.47590807 2.3282366 8.6527181e-39
0.69688547 0.478708 2.3209183 8.3743208e-39
0.69359618 0.48175889 2.312921 8.8378311e-39
0.69650716 0.47979298 2.3180907 7.7361582e-39
0.69232237 0.48433894 2.3061893 4.6994758e-39
0.73109877 0.44075829 2.4202569 2.8533758e-39
0.72543156 0.44680789 2.4044166 5.0646472e-39
0.72594714 0.44717783 2.4034662 3.0413992e-39
0.72184265 0.45282331 2.3887088 7.0980195e-39
0.72079462 0.45358101 2.3867178 9.5865701e-39
0.72082537 0.45414987 2.3852401 9.6769664e-39
0.71848601 0.45729655 2.3770134 1.1060247e-38
0.7110703 0.46516076 2.356421 7.4667698e-39
0.71420479 0.46260393 2.3631315 1.0505621e-38
0.7111311 0.46628326 2.3535054 6.3557433e-39
0.70714539 0.47016385 2.3433371 9.4849955e-39
0.70137346 0.47724837 2.3248053 6.4396517e-39
0.69649386 0.48271945 2.3104851 5.1492688e-39
0.69655341 0.48381895 2.3076289 5.3408795e-39
0.69658315 0.48436871 2.3062007 4.6072802e-39
0.73032564 0.44606301 2.4064546 3.6795786e-39
0.73035663 0.44663593 2.4049664 3.4065692e-39
0.72951722 0.44810814 2.4011228 6.4486732e-39
0.72517294 0.45304298 2.3882074 3.7767992e-39
0.72520369 0.45361182 2.3867297 7.8362628e-39
0.72523451 0.45418075 2.385252 8.1132154e-39
0.71948195 0.46009862 2.3697522 1.078438e-38
0.71545053 0.46575233 2.354975 6.2657253e-39
0.7105425 0.4712424 2.340605 6.1706402e-39
0.71057266 0.47179967 2.3391571 4.7826723e-39
0.70566398 0.47727823 2.3248169 5.6091904e-39
0.70347947 0.48029462 2.3169324 7.5456503e-39
0.70078468 0.48329887 2.3090684 6.0708944e-39
0.70554394 0.47928929 2.3195879 9.7605104e-39
0.70084417 0.48439851 2.3062122 5.2483322e-39
0.73998028 0.43966681 2.4232786 7.4592266e-39
0.73573714 0.44524503 2.4086931 6.4440013e-39
0.72952032 0.45193607 2.3911748 4.2366886e-39
0.72955114 0.45250487 2.3896971 3.867197e-39
0.72958195 0.45307374 2.3882194 3.0392342e-39
0.72793412 0.45412049 2.3854647 1.023156e-38
0.72467631 0.4591552 2.3723121 7.7444329e-39
0.72549278 0.46006641 2.3699613 1.1982195e-38
0.71984035 0.46610242 2.3541567 9.5836806e-39
0.71486264 0.47127256 2.3406167 6.2631946e-39
0.71369785 0.47260773 2.3371224 8.3764956e-39
0.7099545 0.47730833 2.3248284 5.1482122e-39
0.70800108 0.47919476 2.319885 8.6516461e-39
0.70504552 0.48332867 2.3090799 6.7162638e-39
0.70507526 0.48387846 2.3076518 6.257801e-39
0.70510501 0.48442817 2.3062239 5.2483322e-39
0.70513481 0.48497793 2.3047957 4.7888002e-39
0.74448913 0.43901673 2.4250619 9.9459765e-39
0.7391755 0.44555202 2.4079669 7.1815551e-39
0.73920649 0.44612509 2.4064784 5.3405292e-39
0.73787272 0.44792062 2.4017844 6.4493879e-39
0.73396003 0.45253569 2.3897088 4.2359865e-39
0.73520094 0.45253685 2.3897316 6.4465194e-39
0.7323103 0.45459777 2.3843155 6.7252699e-39
0.72967964 0.45853776 2.3740213 9.8635269e-39
0.7290861 0.45975095 2.3708558 7.8345e-39
0.72411954 0.46525192 2.3564563 7.4664195e-39
0.72414994 0.46581313 2.3549984 6.1720877e-39
0.71918261 0.47130281 2.3406281 6.2624855e-39
0.71921277 0.47186014 2.3391802 6.0734083e-39
0.71424484 0.47733831 2.3248398 6.5326082e-39
0.7092765 0.48280871 2.3105195 7.272697e-39
0.7113952 0.4813273 2.3144138 8.6516686e-39
0.71079516 0.48195764 2.312763 8.0091858e-39
0.71356606 0.48107561 2.3151128 7.1779608e-39
0.70939559 0.48500773 2.3048072 4.4203708e-39
0.70497495 0.49451849 2.2799981 1.2903857e-39
0.75144333 0.43531439 2.4348288 9.7608425e-39
0.74455053 0.44529223 2.4087541 8.5648483e-39
0.7436471 0.44615614 2.4064903 5.3405292e-39
0.73878306 0.45152381 2.3924391 7.1855194e-39
0.73836917 0.45256656 2.3897207 4.4200177e-39
0.73337388 0.45808646 2.3752711 4.6029628e-39
0.73340452 0.45865148 2.3738034 5.0646836e-39
0.73343509 0.45921654 2.3723354 4.6108927e-39
0.72843903 0.46472111 2.3579257 7.7423043e-39
0.72924262 0.46519437 2.3567126 1.0138296e-38
0.73043865 0.46447477 2.3586078 8.4766086e-39
0.72369957 0.47116229 2.3410873 8.4744576e-39
0.72353303 0.4718903 2.3391919 6.257801e-39
0.7194528 0.47601432 2.3283892 9.7587112e-39
0.7185654 0.47792181 2.3234134 6.7195232e-39
0.71958047 0.47702807 2.3257573 8.2832238e-39
0.713597 0.48393792 2.3076749 4.687995e-39
0.71581537 0.48298144 2.3102069 7.3641569e-39
0.75337625 0.43945709 2.4241028 9.763746e-39
0.74805653 0.44561416 2.4079907 6.3557559e-39
0.75036603 0.44443867 2.4110937 6.9078493e-39
0.74274731 0.45202842 2.3912103 4.8813559e-39
0.74145991 0.4539738 2.3861277 6.2639429e-39
0.73775321 0.4581171 2.3752828 5.7039167e-39
0.74073178 0.4558363 2.3812723 9.306728e-39
0.73433948 0.46257296 2.3636315 1.0139005e-38
0.73553735 0.46129063 2.3669889 1.0598896e-38
0.73281908 0.46531266 2.3564796 7.651517e-39
0.73284942 0.46587393 2.3550217 6.3568293e-39
0.72782296 0.47136313 2.3406515 5.9866021e-39
0.72785312 0.47192037 2.3392036 4.4189316e-39
0.72282594 0.47739822 2.324863 4.6029474e-39
0.72329187 0.47805545 2.3231647 7.9183929e-39
0.72288585 0.47850537 2.3219869 3.6791932e-39
0.72270834 0.47905922 2.3205438 6.1652354e-39
0.75786811 0.43979177 2.4233265 7.4592266e-39
0.75115335 0.44763556 2.4028018 8.659209e-39
0.75252807 0.44621804 2.4065144 5.0643011e-39
0.74715638 0.45205918 2.3912222 4.8813559e-39
0.74350113 0.45595255 2.3810277 7.2755739e-39
0.7421326 0.45814759 2.3752947 5.7039167e-39
0.74216324 0.4587127 2.3738267 7.6497135e-39
0.73713857 0.46478185 2.357949 7.466767e-39
0.73716897 0.46534312 2.3564913 7.466767e-39
0.73728114 0.466272 2.3540795 8.5695301e-39
0.7360509 0.46828583 2.3488202 8.1063841e-39
0.73019153 0.47375685 2.3344798 6.9993289e-39
0.73367918 0.47136188 2.3407767 6.7216532e-39
0.72714645 0.47798172 2.3234365 4.1419706e-39
0.72504938 0.48048416 2.3168893 5.7993424e-39
0.72211879 0.48399749 2.3076978 3.218215e-39
0.72466475 0.48156926 2.3140614 6.3532336e-39
0.72371596 0.48402995 2.3076465 6.6326974e-39
0.75693756 0.44567624 2.4080145 6.723814e-39
0.75153464 0.45152119 2.3927116 4.9717467e-39
0.75286824 0.45146483 2.3928859 6.7241713e-39
0.74648148 0.45761329 2.3767741 4.7873554e-39
0.75023967 0.45480651 2.3841467 6.998973e-39
0.74299777 0.46262288 2.3636823 1.1059169e-38
0.74464512 0.46101019 2.3679078 1.0599984e-38
0.74080098 0.46527621 2.3567407 1.0507421e-38
0.74425173 0.46211818 2.36502 1.0321952e-38
0.74154907 0.46593466 2.3550451 5.805822e-39
0.73646319 0.47142348 2.3406746 5.8033052e-39
0.73672652 0.47291267 2.3368099 7.9230802e-39
0.73140699 0.47745815 2.3248861 5.3434229e-39
0.72775805 0.48205185 2.3128715 8.1042485e-39
0.72634989 0.48347759 2.3091371 5.2497783e-39
0.7271691 0.48304975 2.310266 7.2759116e-39
0.72640938 0.48457703 2.3062811 4.6051124e-39
0.72643918 0.48512679 2.304853 4.1441342e-39
0.72646892 0.48567653 2.3034248 3.959743e-39
0.76681197 0.43985423 2.4233506 7.460286e-39
0.75158983 0.45665237 2.3793776 6.9085682e-39
0.74583793 0.46484277 2.3579724 7.7440672e-39
0.74586827 0.46540385 2.3565147 7.3745742e-39
0.74075305 0.47089621 2.3421342 5.805822e-39
0.74023759 0.47230023 2.3384748 8.4758953e-39
0.74081343 0.47201106 2.3392384 5.8033052e-39
0.73705041 0.47691834 2.3264065 7.0965678e-39
0.73058087 0.48295757 2.3105767 6.3547008e-39
0.73356253 0.48096862 2.3158076 6.9121695e-39
0.73064041 0.48405698 2.3077207 5.1582861e-39
0.73116857 0.48402873 2.3078053 6.3557433e-39
0.73069996 0.48515654 2.3048644 4.2366886e-39
0.77073777 0.44209257 2.4176154 9.4893227e-39
0.75333977 0.46150476 2.3668036 1.1797446e-38
0.75107187 0.4640761 2.3600738 1.1704179e-38
0.75134897 0.46390402 2.3605268 1.1610533e-38
0.74507332 0.4709264 2.3421459 5.3444921e-39
0.74527699 0.47077581 2.3425415 7.3716931e-39
0.73995805 0.4769645 2.3263471 5.161156e-39
0.73998797 0.47751811 2.324909 5.4352262e-39
0.73484182 0.48298734 2.3105881 4.9767718e-39
0.73564374 0.48311162 2.3102818 7.1894739e-39
0.73490137 0.48408678 2.3077321 4.0544567e-39
0.73504883 0.4841086 2.3076785 6.1749618e-39
0.73496091 0.48518631 2.3048759 3.3183392e-39
0.70673668 0.52301419 2.2059786 2.1190365e-39
0.75450718 0.46434221 2.3594537 8.940102e-39
0.7558853 0.46606493 2.3550053 9.9524505e-39
0.74939334 0.47095656 2.3421574 5.3444921e-39
0.74817747 0.47301388 2.3367856 7.3727833e-39
0.74424845 0.47699454 2.3263586 4.7001793e-39
0.74256182 0.47884962 2.3215022 7.7397666e-39
0.73910266 0.48301709 2.3105996 4.5154335e-39
0.73914129 0.48422506 2.307461 7.0979999e-39
0.73428142 0.48871771 2.2956841 3.9622611e-39
0.73431098 0.4892638 2.2942655 3.133948e-39
0.73434055 0.48980999 2.2928467 3.0417523e-39
0.73620623 0.48884538 2.2953923 5.8954967e-39
0.71539193 0.51882213 2.2170537 2.6722089e-39
0.76029724 0.46372622 2.3611753 1.3180032e-38
0.75368339 0.47042942 2.343617 8.2025342e-39
0.75371355 0.47098678 2.342169 5.2512301e-39
0.75374371 0.47154406 2.3407211 3.9626521e-39
0.75280422 0.47257194 2.3380303 7.0032988e-39
0.74856895 0.47757807 2.3249321 5.2526776e-39
0.74518007 0.48134932 2.3150604 9.3081923e-39
0.74025112 0.48724079 2.2996466 9.0312327e-39
0.73854417 0.4892934 2.2942767 6.4526375e-39
0.73964989 0.48823214 2.2970579 7.8330468e-39
0.73860329 0.49038568 2.2914393 5.90017e-39
0.73863286 0.4909319 2.2900205 6.0831137e-39
0.73866242 0.49147803 2.2886016 6.0834696e-39
0.75453115 0.47205234 2.3394167 1.0414149e-38
0.75672978 0.47310352 2.3367307 8.3840682e-39
0.75806385 0.47157428 2.3407328 4.3314346e-39
0.75262529 0.47738221 2.3255255 8.0174521e-39
0.75285941 0.47760788 2.3249438 5.8054927e-39
0.75319844 0.47908309 2.3211172 1.0045044e-38
0.74765426 0.4836264 2.3091943 7.6501087e-39
0.74274766 0.48877683 2.295707 7.7426575e-39
0.74277723 0.48932293 2.2942882 7.2823982e-39
0.74750215 0.48632613 2.3021748 1.0875494e-38
0.74283636 0.49041522 2.2914507 6.3611481e-39
0.74289548 0.49150762 2.2886131 6.2678609e-39
0.76757908 0.4657957 2.3559489 1.0692192e-38
0.76191288 0.47082505 2.3427603 1.1059897e-38
0.76497263 0.46901435 2.3475296 1.078331e-38
0.75708997 0.47653088 2.3278313 8.0188842e-39
0.7593233 0.47505814 2.3317051 1.1245361e-38
0.7469511 0.48826024 2.297137 8.5709706e-39
0.75019705 0.48532224 2.3048401 1.2349556e-38
0.74701023 0.48935246 2.2942996 7.6490101e-39
0.74703979 0.48989865 2.2928808 7.096195e-39
0.74706936 0.49044487 2.2914619 7.0936755e-39
0.74709892 0.49099097 2.2900434 6.450104e-39
0.74242783 0.50100291 2.2639265 4.2387961e-39
0.76664376 0.47051993 2.3436518 7.6504618e-39
0.76667398 0.47107732 2.3422039 8.1114386e-39
0.76114786 0.47746846 2.325479 1.1797459e-38
0.7515012 0.48732805 2.2996545 1.1888574e-38
0.75121391 0.48883599 2.2957296 7.9256012e-39
0.75124347 0.48938218 2.2943108 7.6490101e-39
0.75127304 0.48992819 2.2928922 7.096195e-39
0.75576949 0.48692188 2.3007991 9.5818701e-39
0.75133216 0.49102062 2.2900546 6.450104e-39
0.73664397 0.5136975 2.2308147 4.6076011e-39
0.77360415 0.46951526 2.3464079 1.1060253e-38
0.76567101 0.47659069 2.3278544 8.2936788e-39
0.76789415 0.47555557 2.330591 1.1059185e-38
0.76130319 0.48233554 2.3128335 1.0690038e-38
0.75650901 0.48802033 2.2979598 1.1243568e-38
0.75544691 0.48886549 2.2957411 8.1092694e-39
0.75822842 0.4864127 2.3021736 1.1796733e-38
0.75550604 0.48995778 2.2929037 7.3713372e-39
0.75528389 0.48999906 2.2927918 9.7666271e-39
0.75556517 0.49105015 2.290066 6.3582615e-39
0.74389434 0.51232988 2.23452 2.4881988e-39
0.77883393 0.46630332 2.3548641 1.1151015e-38
0.77528399 0.47058022 2.3436751 8.0195933e-39
0.77321321 0.47432023 2.3339121 1.1613062e-38
0.76996154 0.47662073 2.3278658 8.3858745e-39
0.76466793 0.48319566 2.3106682 7.9252509e-39
0.76469773 0.4837454 2.3092403 7.8334042e-39
0.75968009 0.48889512 2.2957525 8.0170723e-39
0.75970966 0.48944128 2.2943337 7.6482912e-39
0.75973922 0.48998737 2.2929149 7.3713372e-39
0.76029289 0.49069777 2.2910802 9.6744301e-39
0.7849555 0.46455491 2.3595357 8.6635222e-39
0.78198624 0.46840614 2.3494649 1.2072602e-38
0.7850163 0.46567726 2.3566198 8.4791295e-39
0.78504664 0.46623856 2.3551619 8.3869339e-39
0.77966452 0.47172526 2.3407907 8.2943823e-39
0.77969468 0.47228256 2.3393428 8.2943823e-39
0.77863324 0.47437894 2.3338728 1.0600355e-38
0.76892883 0.48322541 2.3106797 7.9259571e-39
0.76895863 0.48377514 2.3092518 7.8337601e-39
0.76766169 0.48607993 2.3032348 1.1242842e-38
0.76901811 0.48487458 2.3063955 7.6486443e-39
0.76704329 0.48707303 2.3006411 1.0321236e-38
0.76356113 0.49866062 2.2704542 3.4991207e-39
0.81150043 0.43958965 2.4249697 8.1099714e-39
0.79468513 0.45851466 2.3754358 9.0323033e-39
0.79115736 0.4630889 2.3634748 1.1522303e-38
0.78933549 0.46514648 2.3580894 8.5713265e-39
0.79075384 0.46419698 2.3605866 1.1336118e-38
0.78939623 0.46626893 2.3551736 8.4791295e-39
0.78711259 0.4682349 2.3500168 1.133504e-38
0.78049213 0.47607991 2.3294909 1.1427953e-38
0.77860236 0.47778779 2.3250129 7.5586151e-39
0.77273142 0.48352799 2.3099728 1.1335759e-38
0.77321935 0.48380491 2.3092632 7.7415645e-39
0.77324909 0.48435467 2.3078351 7.9252298e-39
0.77327883 0.48490438 2.306407 7.4642531e-39
0.77330863 0.4854542 2.3049788 7.2798576e-39
0.8179124 0.43797487 2.4292998 1.1149901e-38
0.79906464 0.45854533 2.3754478 9.9503079e-39
0.79365498 0.46461561 2.3595591 9.4896857e-39
0.79172236 0.46747127 2.3520975 1.2257355e-38
0.79371572 0.46573812 2.3566432 8.93903e-39
0.79374611 0.46629936 2.3551853 8.93903e-39
0.78833497 0.472343 2.339366 7.9256012e-39
0.782893 0.47781783 2.3250244 7.9248767e-39
0.78292298 0.47837138 2.3235865 7.6497191e-39
0.78465682 0.47798079 2.3246374 1.0137558e-38
0.77751011 0.48438439 2.3078465 7.4642503e-39
0.77612364 0.4864898 2.3023462 9.8595388e-39
0.77756965 0.48548391 2.3049903 7.0947419e-39
0.82044452 0.43965214 2.4249938 8.0156122e-39
0.80347461 0.45914102 2.3739915 9.5808051e-39
0.8054322 0.45852736 2.375627 1.0042093e-38
0.80353576 0.46027106 2.3710561 8.8468372e-39
0.80175894 0.46257079 2.3650422 9.3999858e-39
0.79809582 0.46632969 2.3551972 8.6624417e-39
0.78721339 0.4784013 2.3235979 7.6497191e-39
0.78417236 0.48142105 2.3156867 1.0598186e-38
0.78180069 0.48496392 2.3064299 7.2791388e-39
0.78183049 0.48551372 2.3050017 7.0947419e-39
0.8234092 0.44231051 2.4181468 1.1333209e-38
0.81332237 0.45309013 2.3899221 8.1077854e-39
0.80788457 0.45973653 2.3725357 6.4446487e-39
0.80791515 0.46030164 2.3710678 5.3419319e-39
0.80152547 0.46689719 2.3537936 8.6602543e-39
0.80244565 0.46636006 2.3552089 4.69368e-39
0.79725033 0.47132364 2.342201 8.7538919e-39
0.79119933 0.47724268 2.3266921 1.050418e-38
0.79150397 0.47843131 2.3236096 7.6461234e-39
0.79153395 0.47898492 2.3221714 7.2794919e-39
0.7850005 0.48634231 2.3029144 1.068641e-38
0.82351393 0.44556856 2.4096818 8.4765861e-39
0.82354498 0.44614139 2.4081936 8.4765861e-39
0.81537044 0.45570901 2.3831587 1.133213e-38
0.81773138 0.45312083 2.3899341 7.9233941e-39
0.8177622 0.45368969 2.3884563 7.7390001e-39
0.81224054 0.45947406 2.3733087 8.6570047e-39
0.81229454 0.4603323 2.3710794 4.3281401e-39
0.82275939 0.45165998 2.3938355 1.1977146e-38
0.82214028 0.45315164 2.389946 8.0156066e-39
0.81667382 0.46036279 2.3710914 7.183325e-39
0.83836365 0.44035411 2.423543 8.4765707e-39
0.83245695 0.44677636 2.4067292 8.5684258e-39
0.82658017 0.45375139 2.3884799 8.1060029e-39
0.82101989 0.45937225 2.3737562 1.1332127e-38
0.82102275 0.45982832 2.372571 7.5528348e-39
0.81849676 0.46211839 2.3665669 9.9466813e-39
0.84283561 0.44038537 2.4235549 8.2921767e-39
0.83092761 0.45264444 2.3914473 8.382594e-39
0.82629788 0.45689929 2.3802931 1.1515802e-38
0.82846069 0.45619211 2.3821759 1.0133938e-38
0.82537144 0.45929393 2.3740504 7.646101e-39
0.82540208 0.45985895 2.3725827 7.3684407e-39
0.83530581 0.45210633 2.3929369 8.2921963e-39
0.83533663 0.45267519 2.3914592 8.4751484e-39
0.82975096 0.45932454 2.3740623 7.7382966e-39
0.82909328 0.46051422 2.3709567 1.0685328e-38
0.8397457 0.45270595 2.3914711 8.8435708e-39
0.83977646 0.45327494 2.3899932 8.198902e-39
0.83224845 0.46114981 2.3693705 9.9491897e-39
0.83413029 0.45935512 2.374074 7.6450318e-39
0.83416086 0.45992008 2.3726063 7.1844096e-39
0.84415448 0.45273677 2.3914828 8.4751484e-39
0.83847898 0.45882067 2.3755536 7.646101e-39
0.83850956 0.45938578 2.3740857 7.5528348e-39
0.83520639 0.46304649 2.3645031 1.0593128e-38
0.83869308 0.46277595 2.365279 6.907094e-39
0.77431202 0.52834022 2.1935453 6.258873e-39
0.84288913 0.45941624 2.3740976 7.4620699e-39
0.83760983 0.46524563 2.3588381 1.013431e-38
0.83717811 0.46602416 2.3568056 9.9499155e-39
0.8372134 0.46604189 2.3567603 7.4606391e-39
0.83606642 0.46835923 2.350714 1.1054823e-38
0.84723777 0.45888186 2.3755772 7.3731098e-39
0.84150225 0.46494994 2.3596876 7.6457507e-39
0.83951873 0.46737024 2.3533561 1.1147381e-38
0.84156299 0.46607232 2.3567719 7.5528348e-39
0.84668452 0.46322909 2.3642678 1.1791667e-38
0.84585208 0.46498036 2.3596992 8.3822493e-39
0.84588248 0.46554148 2.3582413 7.6457731e-39
0.84591281 0.46610275 2.3567836 7.2791388e-39
0.84559608 0.46932665 2.3483984 1.2438493e-38
0.85026258 0.46613306 2.3567953 7.2791388e-39
0.84443629 0.47162053 2.3424129 7.6457507e-39
0.84446645 0.47217789 2.340965 7.8283441e-39
0.84449661 0.47273532 2.3395169 7.366647e-39
0.84878647 0.47220814 2.3409765 7.2798422e-39
1.0366127 0.37146091 2.6067176 8.3785919e-39
1.0414234 0.37149456 2.6067305 8.4711379e-39
1.0496156 0.36707059 2.6183984 8.560814e-39
1.0462344 0.37152818 2.6067433 8.4711379e-39
1.0544636 0.36710444 2.6184115 8.4686169e-39
1.0510452 0.37156177 2.6067564 8.6537313e-39
1.0640916 0.36592123 2.6216872 8.5615356e-39
1.0606334 0.37100831 2.6083946 1.0496926e-38
1.060667 0.37162897 2.6067822 9.0207187e-39
1.0654776 0.37166262 2.6067951 9.0207187e-39
1.0786014 0.3653973 2.6233511 8.8373967e-39
1.0833815 0.36418024 2.6266139 9.0239459e-39
1.0834154 0.3648057 2.624989 9.1143423e-39
1.0882634 0.36483955 2.6250019 9.1143423e-39
1.0930773 0.36424798 2.6266398 9.2065379e-39
1.1021609 0.3620384 2.6325715 8.926721e-39
1.0978912 0.36365634 2.6282778 9.2072582e-39
1.0979251 0.36428174 2.626653 9.1150612e-39
1.0979589 0.36490732 2.6250281 8.9306713e-39
1.1070133 0.361442 2.6342225 9.0192768e-39
1.1070476 0.3620725 2.6325848 8.926721e-39
1.1070817 0.362703 2.6309469 9.2036681e-39
1.1027393 0.36369026 2.6282907 9.2994538e-39
1.1027732 0.36431575 2.6266658 9.2994538e-39
1.111832 0.36021513 2.6375115 9.2047372e-39
1.1118662 0.36084569 2.6358736 9.1114724e-39
1.1119003 0.36147615 2.6342356 9.0192768e-39
1.1119344 0.36210659 2.6325979 9.0192768e-39
1.1119686 0.36273715 2.63096 9.1114724e-39
1.054625 0.41373786 2.4972217 2.6632294e-39
1.0634459 0.4120273 2.5018511 3.6780904e-39
1.0842941 0.39784235 2.5391502 2.8508506e-39
1.0882444 0.4026303 2.5267894 5.0577864e-39
1.0778321 0.41449776 2.4957306 4.5978733e-39
1.0700766 0.42126143 2.4779911 2.9412554e-39
1.0746782 0.42129365 2.4780035 2.4802773e-39
1.1744921 0.35430548 2.6541758 9.3891313e-39
1.1751211 0.35624552 2.649147 1.0031628e-38
1.1843054 0.35373896 2.6558526 9.2972832e-39
1.1843399 0.35437417 2.6542022 9.3891313e-39
1.1891947 0.35313815 2.657516 9.8468725e-39
1.1892636 0.35440865 2.6542153 9.2969357e-39
1.1940844 0.35253724 2.6591794 9.3891313e-39
1.1941187 0.35317257 2.6575291 9.2965854e-39
1.1941532 0.35380775 2.655879 9.2965854e-39
1.1941875 0.35444304 2.6542287 9.1129144e-39
1.199008 0.35257161 2.6591928 9.2969357e-39
1.1990424 0.3532069 2.6575425 9.204031e-39
1.1990768 0.35384223 2.6558921 9.2965854e-39
1.1991112 0.35447747 2.6542418 9.0207187e-39
1.2040007 0.35387659 2.6559055 9.0210747e-39
1.3132199 0.34772742 2.6741624 9.5720862e-39
1.3369337 0.34470472 2.6825123 1.1230174e-38
0.79726487 0.4361558 2.4335971 1.5940834e-38
0.98470783 0.35806662 2.6404457 8.4689897e-39
0.98474193 0.35869712 2.6388078 8.4682666e-39
0.90909505 0.36733952 2.6147709 7.5499229e-39
0.95733672 0.36329979 2.6262751 8.1956454e-39
0.50858617 0.45173818 2.3870842 1.1061334e-38
0.52004319 0.44729909 2.3988595 8.2961774e-39
0.54500175 0.44447133 2.4067287 8.296176e-39
0.55253232 0.4452785 2.4047878 6.2685938e-39
0.55978066 0.44053626 2.4172633 9.309986e-39
0.55462486 0.44775322 2.3984001 9.4936542e-39
0.5720703 0.43625116 2.4286556 8.5713307e-39
0.56845099 0.44131449 2.4154215 7.92632e-39
0.58016855 0.43750906 2.4255555 9.2138233e-39
0.57897466 0.43961307 2.4200625 5.805466e-39
0.58344674 0.43906346 2.4215841 5.5292365e-39
0.59023243 0.43550506 2.4309733 8.1074729e-39
0.58652598 0.44150406 2.4153056 8.1978693e-39
0.58380497 0.44492024 2.4063706 6.079539e-39
0.59242207 0.43854541 2.4231176 6.4486718e-39
0.59107238 0.4418928 2.4143901 7.7390547e-39
0.58827668 0.44495156 2.4063826 5.9873434e-39
0.59584266 0.43994769 2.4195445 8.6581131e-39
0.59274882 0.44498265 2.4063947 5.9880468e-39
0.6056903 0.4320412 2.4402974 8.5680769e-39
0.60146052 0.43918929 2.4216325 5.7107242e-39
0.61208934 0.43074453 2.4438007 8.5677322e-39
0.61048782 0.43307933 2.4376996 6.9075074e-39
0.60313869 0.44232917 2.4135075 7.8308902e-39
0.61046743 0.43925226 2.4216566 6.1720877e-39
0.6195296 0.43255731 2.4392445 6.7263307e-39
0.61493933 0.43870264 2.4231782 5.8980162e-39
0.6255722 0.43025535 2.445353 7.186597e-39
0.63756764 0.42680854 2.4545608 5.8951477e-39
0.6376099 0.43079558 2.4442 8.1985825e-39
0.51964551 0.48007977 2.3136592 8.4239197e-40
0.5397256 0.4510313 2.3895702 6.9132457e-39
0.52424228 0.47785527 2.3195362 8.6712349e-42
0.53670055 0.4643929 2.3547823 2.7626487e-39
0.5293988 0.47554889 2.3256378 3.8034183e-40
0.52942902 0.47610614 2.3241899 1.026765e-39
0.5291279 0.47797012 2.3193395 8.4491291e-40
0.5257926 0.4821088 2.3085144 1.1553706e-41
0.52506912 0.48460656 2.3020079 1.4863208e-39
0.52221894 0.48831671 2.2923064 7.5091661e-40
0.52221495 0.48919547 2.2900224 5.7957704e-42
0.51880759 0.49485579 2.2752411 4.3426239e-42
0.51537013 0.49995911 2.2619066 6.1348847e-42
0.51539952 0.50050181 2.2604971 3.643376e-42
0.54860657 0.45109332 2.3895941 6.8206998e-39
0.53888071 0.46725491 2.3473899 1.8461224e-39
0.5337491 0.47613639 2.3242016 7.5053826e-40
0.53270042 0.47821489 2.3187778 1.7636252e-39
0.52866155 0.48361966 2.3046477 1.5792381e-39
0.52791601 0.48392645 2.3038347 8.4311644e-40
0.52641624 0.48812574 2.2928901 1.0830636e-41
0.52644598 0.48867559 2.2914619 9.0313686e-42
0.5250321 0.49203512 2.2827013 1.9342823e-40
0.52301103 0.49433923 2.2766712 2.9231086e-42
0.52030039 0.49856561 2.265631 2.8381339e-40
0.51957536 0.49998844 2.2619181 5.774751e-42
0.51987123 0.49956074 2.2630358 3.745839e-40
0.54803902 0.46071467 2.364578 6.8199669e-39
0.54121542 0.4701829 2.3398292 1.480916e-39
0.53803909 0.47560906 2.3256612 1.3731324e-41
0.53806931 0.47616661 2.324213 1.3715909e-41
0.53437364 0.48216864 2.3085375 1.1553706e-41
0.5330869 0.48534396 2.3002586 9.3675121e-40
0.52944237 0.48986247 2.2884398 7.4983761e-40
0.52863669 0.49145606 2.2842815 2.8993145e-40
0.52721465 0.49382257 2.2781014 6.8803755e-42
0.52478307 0.49716219 2.2693717 9.7544386e-42
0.52375138 0.49947527 2.2633388 3.9824902e-42
0.52445084 0.49822408 2.2666051 9.0215595e-42
0.52457952 0.50007027 2.2618098 4.6819764e-40
0.55514348 0.45523971 2.3789546 1.0876954e-38
0.55023837 0.46347111 2.3574603 7.9237963e-39
0.54611468 0.46955171 2.3415718 1.4852432e-39
0.53863412 0.48164508 2.3099871 1.1562114e-41
0.5386641 0.48219863 2.3085489 1.191384e-41
0.53493798 0.48818535 2.292913 1.04677e-41
0.53144765 0.49385229 2.2781126 7.2405092e-42
0.52795666 0.49950469 2.26335 5.7831588e-42
0.52446479 0.50514299 2.2486243 5.774751e-42
0.52449399 0.50568193 2.2472243 5.0558849e-42
0.52621794 0.50466472 2.2499037 7.2264962e-42
0.52455235 0.50675994 2.2444239 2.9034904e-42
0.55337596 0.46489725 2.3538191 6.7288559e-39
0.54292452 0.48167506 2.3099985 9.7600438e-42
0.53083998 0.50083876 2.259943 3.7996208e-40
0.5305056 0.50189584 2.257189 9.0257634e-42
0.52809292 0.50665885 2.2447605 2.8381198e-40
0.52870059 0.50625008 2.2458353 1.1042232e-42
0.56466687 0.45398983 2.3824012 8.018887e-39
0.56419504 0.45460996 2.38078 1.078476e-38
0.55856562 0.46364319 2.3571866 5.9905706e-39
0.55478299 0.46967912 2.3414214 6.5115257e-40
0.5472151 0.4817051 2.31001 9.0411777e-42
0.54724509 0.48225856 2.3085721 7.2405092e-42
0.53281993 0.50520122 2.248647 3.9824902e-42
0.52927178 0.51082474 2.2339585 7.4408948e-43
0.53290749 0.50681823 2.2444465 1.8230893e-42
0.56294495 0.46367389 2.3571982 5.4373968e-39
0.56148612 0.46588644 2.3514175 3.780032e-39
0.55531955 0.47572982 2.3257074 3.799887e-40
0.53318042 0.51091909 2.2337947 9.9779457e-41
0.53352129 0.51006812 2.2360134 6.8635599e-42
0.53347945 0.51192462 2.2311878 2.5419554e-42
0.53350842 0.51245993 2.2297971 1.4629556e-42
0.57381588 0.45326298 2.3844812 7.3724372e-39
0.56729376 0.46313938 2.3586779 6.5448331e-39
0.56732434 0.46370438 2.3572102 5.9905706e-39
0.56263775 0.4716624 2.3364305 4.7020108e-39
0.53757131 0.51088279 2.2339807 3.9824902e-42
0.53760034 0.51141804 2.23259 2.9034904e-42
0.53875786 0.51153225 2.2323174 5.4258277e-42
0.57944065 0.45115206 2.3900843 7.1869754e-39
0.56783229 0.46977019 2.3414567 3.6856826e-39
0.56395984 0.4757902 2.3257308 1.2068403e-39
0.56399 0.47634754 2.3242829 1.9269255e-40
0.56011665 0.48234856 2.3086066 6.5202418e-42
0.53811765 0.51705205 2.2179589 1.8104776e-42
0.53814644 0.51758391 2.2165773 1.4503439e-42
0.57066095 0.47224709 2.3350785 4.7009219e-39
0.54283857 0.51567799 2.2216282 6.5078823e-40
0.54226828 0.5176127 2.2165885 1.4503439e-42
0.54229707 0.51814449 2.2152069 3.8395578e-43
0.54636157 0.51710969 2.2179811 7.314778e-43
0.54639035 0.51764148 2.2165995 5.6051939e-45
0.54641914 0.51817334 2.2152181 9.8090893e-45
0.57695037 0.47643811 2.3243177 6.8411391e-42
0.57298809 0.48243845 2.3086412 1.0470502e-41
0.55045474 0.51660663 2.2193737 0
0.55425733 0.51260483 2.2298529 8.4077908e-45
0.59379107 0.45720279 2.3746583 8.292953e-39
0.58127058 0.47646832 2.3243291 6.504309e-40
0.55840713 0.5126338 2.2298641 4.2038954e-45
0.56130403 0.51498955 2.2238023 3.6055409e-42
0.56255686 0.51266289 2.2298751 4.2038954e-45
0.58991075 0.47652873 2.3243525 5.6077162e-40
0.56667757 0.51215643 2.2312772 4.2038954e-45
0.5655542 0.51484627 2.2242634 3.967076e-42
0.5690043 0.51428425 2.225796 9.5802572e-41
0.57085639 0.51272082 2.2298975 2.8025969e-45
0.57494819 0.51167899 2.2326903 2.8025969e-45
0.57451153 0.51260078 2.2302856 3.6069422e-42
0.57500613 0.51274979 2.2299087 5.6051939e-45
0.61954671 0.44965225 2.3948178 8.3833409e-39
0.57909805 0.51170796 2.2327015 2.8025969e-45
0.57663637 0.5148707 2.2244308 3.6069422e-42
0.60293168 0.48098755 2.313036 1.4744266e-39
0.58327675 0.51227242 2.2313218 2.8025969e-45
0.58272088 0.51338381 2.2284217 3.6083435e-42
0.58739746 0.51176596 2.2327237 5.6051939e-45
0.58742642 0.51230133 2.231333 2.8025969e-45
0.63288295 0.44996396 2.3942857 6.0697775e-39
0.59276408 0.51102084 2.2347722 3.9642734e-42
0.59091198 0.513834 2.2274225 3.6013371e-42
0.63729239 0.44942206 2.395786 5.9743575e-39
0.59569699 0.51182389 2.2327461 5.6051939e-45
0.59442461 0.51339442 2.2286382 9.579977e-41
0.59910232 0.51428682 2.2264163 3.9614708e-42
0.59588307 0.51851887 2.2153509 8.4077908e-45
0.60000503 0.51854759 2.2153621 7.0064923e-45
0.65254521 0.44600621 2.4049811 1.050457e-38
0.60519689 0.51740569 2.2184379 5.7677445e-42
0.60822028 0.51807344 2.2167656 7.0064923e-45
0.60059184 0.52914995 2.1878204 9.9385692e-41
0.61345977 0.51759595 2.2181158 6.122273e-42
0.61646426 0.51813096 2.2167878 7.0064923e-45
0.61258435 0.523413 2.2029798 2.8025969e-45
0.61668032 0.52344161 2.2029908 2.9427268e-44
0.62278491 0.51995528 2.2121787 3.6139487e-42
0.6207763 0.52347028 2.2030017 3.0828566e-44
0.68647271 0.44217688 2.4156401 9.4029047e-39
0.69054735 0.44922134 2.3974175 7.3753001e-39
0.69985735 0.44169357 2.4171751 1.0047194e-38
0.6972518 0.44553575 2.4071355 1.1801432e-38
0.69936627 0.44813749 2.400418 9.2181589e-39
0.69939727 0.44871047 2.3989296 9.1263108e-39
0.70880139 0.44175604 2.4171991 9.5844177e-39
0.71771419 0.44124153 2.4187219 2.9466798e-39
0.72411865 0.43980217 2.4225962 5.9876965e-39
0.73180896 0.43545327 2.4340587 3.037767e-39
0.73840523 0.43313444 2.4402223 8.1060128e-39
0.74631006 0.43594754 2.4330764 8.198228e-39
0.71797693 0.48616666 2.3019738 3.3183392e-39
0.73160404 0.48508683 2.3050642 6.2642764e-39
0.72599256 0.49193555 2.2871487 3.1299627e-39
0.69826263 0.52643394 2.1969147 1.200704e-39
0.73499066 0.48573604 2.3034477 3.2243457e-39
0.73869199 0.49202409 2.287183 6.083464e-39
0.74907905 0.49095196 2.2901859 9.3060091e-39
0.75559473 0.49159628 2.2886472 6.4493781e-39
0.76383877 0.48816979 2.297724 8.7535444e-39
0.75982791 0.49162585 2.2886586 6.4493781e-39
0.76980323 0.48469216 2.3068862 9.3974788e-39
0.7691074 0.4865239 2.3021114 6.3586118e-39
0.77333838 0.48600399 2.3035507 7.0014729e-39
0.77336812 0.48655367 2.3021228 6.3586118e-39
0.79377651 0.4668605 2.3537276 8.8468344e-39
0.77740824 0.48577961 2.3042185 1.0964789e-38
0.79812622 0.46689087 2.3537393 8.2936606e-39
0.79815662 0.46745208 2.3522813 7.9256012e-39
0.79536605 0.46984136 2.3460138 1.0136849e-38
0.78727335 0.47950852 2.3207219 7.4642503e-39
0.78186023 0.48606339 2.3035738 6.8174319e-39
0.82977617 0.43576872 2.4352808 1.0874376e-38
0.8141771 0.45222804 2.3921802 1.1239909e-38
0.813384 0.45422778 2.3869667 7.27658e-39
0.80250645 0.46748257 2.352293 5.9894537e-39
0.79469448 0.47790489 2.3250442 1.1332493e-38
0.78956902 0.48280677 2.3121979 9.3978208e-39
0.78436625 0.48733529 2.3003206 9.85845e-39
0.78683096 0.48602119 2.303787 9.0286795e-39
0.81779295 0.45425859 2.3869786 7.0918286e-39
0.81377256 0.4601604 2.3715568 6.4468277e-39
0.81235576 0.46146223 2.368144 2.6653818e-39
0.81238633 0.46202731 2.3666761 2.6700453e-39
0.80875689 0.46628553 2.3555341 8.9361097e-39
0.80688655 0.46807414 2.3508468 5.8951057e-39
0.80420798 0.47070688 2.3439488 1.0225796e-38
0.80138594 0.47410572 2.335057 7.0025449e-39
0.79588437 0.48012194 2.3193071 7.2751759e-39
0.83979732 0.43446508 2.4388773 8.4765679e-39
0.83232135 0.44283029 2.4169817 1.1333563e-38
0.8294071 0.44623783 2.4080656 1.0963703e-38
0.82298535 0.45274895 2.39101 1.1055533e-38
0.82220185 0.45428947 2.3869903 7.8304923e-39
0.81677598 0.45906129 2.3744757 1.0039586e-38
0.81670439 0.46092778 2.3696237 6.2649616e-39
0.81673503 0.46149287 2.3681557 5.9876545e-39
0.81676561 0.4620578 2.366688 5.7114277e-39
0.83839488 0.44093108 2.422044 8.1103245e-39
0.83248794 0.4473494 2.4052408 8.2000034e-39
0.83251894 0.44792229 2.4037526 8.0156066e-39
0.8210839 0.46095833 2.3696353 6.5419086e-39
0.82254064 0.46101415 2.3695209 8.844277e-39
0.82114512 0.4620885 2.3666997 6.1720471e-39
0.84286684 0.44096237 2.4220562 8.2925522e-39
0.82553798 0.45991552 2.3724387 9.7630033e-39
0.82546324 0.46098903 2.369647 6.5404751e-39
0.82303184 0.46389708 2.3620389 9.672607e-39
0.82552445 0.46211916 2.3667114 6.1720471e-39
0.82555503 0.46268409 2.3652437 5.9883579e-39
0.84995425 0.4379741 2.4299698 1.1607272e-38
0.83736628 0.45021734 2.3978891 1.0871145e-38
0.82981217 0.46045452 2.3711267 6.9978603e-39
0.82653099 0.46326971 2.3637421 9.8569968e-39
0.82987332 0.46158466 2.368191 6.356444e-39
0.8299039 0.46214965 2.3667233 6.2642427e-39
0.82758528 0.46604949 2.35654 9.304179e-39
0.8341915 0.46048522 2.3711383 6.5401248e-39
0.83422208 0.46105021 2.3696706 6.5415583e-39
0.83386642 0.46155554 2.3683498 9.4878528e-39
0.83106285 0.46505663 2.3591926 9.6722511e-39
0.83431387 0.46274528 2.3652673 6.7227028e-39
0.83857071 0.46051571 2.3711503 6.6323204e-39
0.83453679 0.46406448 2.3618436 1.0041752e-38
0.83863193 0.46164587 2.3682146 7.1833306e-39
0.83866251 0.46221083 2.3667469 6.6326735e-39
0.83964014 0.46351257 2.3633842 9.4856962e-39
0.83561188 0.46721646 2.3536744 9.5800484e-39
0.8392455 0.4652999 2.358731 1.0315811e-38
0.83908063 0.46622577 2.3563213 1.0315814e-38
0.83733493 0.46828675 2.3509288 6.9982106e-39
0.83736527 0.46884802 2.3494709 6.7216336e-39
0.84159338 0.46663356 2.355314 7.8286944e-39
0.84162378 0.46719483 2.3538561 7.9183719e-39
0.84165418 0.46775597 2.3523982 7.3673561e-39
0.84168458 0.46831718 2.3509405 6.9982106e-39
0.84171492 0.46887833 2.3494825 6.9056647e-39
0.83795732 0.47327173 2.3379865 9.9470373e-39
0.84594321 0.46666393 2.3553257 7.6457507e-39
0.84290224 0.47059047 2.345058 1.2435959e-38
0.84600401 0.46778646 2.3524098 7.366647e-39
0.84396952 0.47000206 2.3466094 1.1329606e-38
0.84606475 0.46890876 2.3494942 7.1804537e-39
0.84452683 0.47329271 2.338069 7.3655666e-39
0.84455699 0.47385013 2.336621 7.0882581e-39
0.8478961 0.47232732 2.3406482 1.0131429e-38
0.84881663 0.47276548 2.3395286 7.7393532e-39
0.85473371 0.46840835 2.3509755 7.1858263e-39
0.8509804 0.47210246 2.3412967 1.1699105e-38
0.53084469 0.45096928 2.3895464 6.9132457e-39
0.53417182 0.45211905 2.3866277 9.3096104e-39
0.54416615 0.45106238 2.3895822 6.8206998e-39
1.0365791 0.37084025 2.60833 8.5633335e-39
1.0413898 0.37087384 2.6083429 8.7459269e-39
1.0510116 0.3709411 2.6083686 8.6530152e-39
1.0558225 0.37097463 2.6083817 9.0214376e-39
1.065444 0.37104195 2.6084075 9.1136332e-39
1.1892291 0.35377336 2.6558657 9.2972832e-39
1.2039319 0.35260606 2.6592059 9.2040184e-39
1.2039664 0.35324132 2.6575556 9.3880495e-39
1.2038975 0.3519707 2.6608562 9.0210747e-39
1.2100595 0.35220096 2.6603863 1.1602904e-38
1.208787 0.35136986 2.6625197 8.8363247e-39
1.214417 0.35163063 2.6619594 1.17855e-38
1.2186 0.35080332 2.6641965 8.7437647e-39
1.2144064 0.3549287 2.653388 1.17855e-38
1.2777878 0.34196183 2.6884079 2.7582935e-39
1.2813394 0.34532407 2.679744 5.3379536e-39
1.2802888 0.34501368 2.6805286 5.5212701e-39
1.2993757 0.34959659 2.6690161 8.927793e-39
1.2819037 0.34403771 2.6830988 5.6134601e-39
1.2827851 0.34263673 2.686758 2.5742638e-39
1.2828197 0.34327704 2.6850946 2.6653818e-39
1.2909666 0.34474418 2.6814516 5.9786511e-39
1.2903774 0.34568939 2.6789827 6.1601711e-39
1.289811 0.3469694 2.6756444 5.8853821e-39
1.2955891 0.35181645 2.6631682 8.0083647e-39
1.2137105 0.35140422 2.662533 8.7437647e-39
1.2343099 0.35162959 2.6623766 1.0034878e-38
1.2436601 0.34847414 2.6707721 9.6675357e-39
1.2482195 0.34559563 2.6783481 6.4406844e-39
1.2482542 0.34623581 2.6766849 6.4406844e-39
1.2442029 0.35083848 2.6646388 8.4704344e-39
1.247995 0.34790576 2.6723397 8.4700939e-39
1.2485142 0.3498044 2.6674161 7.4577328e-39
1.2533211 0.34819147 2.6717081 3.9514417e-39
1.2535701 0.34816834 2.6717734 7.4573713e-39
1.2582144 0.34694555 2.6750481 4.0450666e-39
1.2551312 0.3504734 2.6658154 6.6276233e-39
1.2543696 0.35107976 2.6642237 6.5343556e-39
1.2536308 0.35215154 2.6614227 5.9847776e-39
1.2532386 0.35422048 2.6560378 2.9416057e-39
1.2532729 0.35485578 2.6543875 2.5731876e-39
1.2678623 0.34189245 2.6883812 3.9528724e-39
1.2679663 0.34381333 2.6833913 2.7575844e-39
1.2680357 0.345094 2.6800647 2.6660992e-39
1.2680702 0.34573418 2.6784015 2.6660992e-39
1.2581624 0.35425487 2.6560509 2.6653818e-39
1.262791 0.35245752 2.6608186 4.9706285e-39
1.2729982 0.3451286 2.680078 2.6653818e-39
1.2730676 0.34640926 2.6767514 2.5731876e-39
1.2731023 0.34704944 2.6750882 2.6653818e-39
1.273137 0.34768981 2.673425 2.5742638e-39
1.2778225 0.34260207 2.6867447 2.8508464e-39
1.2779264 0.34452295 2.6817548 2.6653818e-39
1.2727619 0.35118172 2.6643419 2.5731876e-39
1.2728652 0.35308757 2.6593912 2.6653818e-39
1.2776858 0.35121614 2.6643553 2.5731876e-39
1.2777201 0.35185137 2.6627049 2.6653818e-39
1.2777545 0.35248664 2.6610548 2.5731876e-39
1.2778233 0.35375726 2.6577542 2.5742638e-39
1.2876706 0.35382608 2.6577806 3.3982721e-39
1.2855979 0.34334472 2.6849768 7.4562965e-39
1.2896215 0.34499821 2.6807635 7.5459754e-39
1.2925602 0.35322517 2.6594441 4.3191382e-39
1.2728596 0.34256744 2.6867313 2.7586522e-39
1.2728943 0.34320772 2.6850679 2.6653818e-39
1.272929 0.34384799 2.6834047 2.6653818e-39
1.2778918 0.34388268 2.683418 2.6653818e-39
1.2779611 0.34516329 2.6800914 2.6653818e-39
1.2779958 0.34580356 2.6784282 2.115445e-39
1.2780651 0.34708411 2.6751015 2.6653818e-39
1.2781345 0.34836474 2.6717749 2.5742638e-39
1.277617 0.3499456 2.6676557 2.6653818e-39
1.2776513 0.35058078 2.6660056 2.5731876e-39
1.2826095 0.35125053 2.6643686 3.3060779e-39
1.2826782 0.35252112 2.661068 3.3989896e-39
1.2827127 0.35315639 2.6594176 3.3982721e-39
1.2827815 0.35442686 2.6561172 3.3064366e-39
1.2877051 0.35446131 2.6561303 3.4911838e-39
1.2581103 0.34502462 2.680038 4.2301767e-39
1.258145 0.34566489 2.6783748 4.0461428e-39
1.2628996 0.34185779 2.6883678 4.3216507e-39
1.262969 0.3431384 2.6850414 4.0443576e-39
1.2630383 0.34441897 2.6817148 3.0348776e-39
1.2631077 0.34569958 2.6783881 2.9426819e-39
1.2631423 0.34633994 2.6767247 3.1259942e-39
1.2631769 0.34698015 2.6750615 2.9416057e-39
1.2681049 0.3463746 2.676738 2.6653818e-39
1.2728307 0.35245225 2.6610415 2.6653818e-39
1.2728995 0.35372284 2.6577411 2.5742638e-39
1.2729683 0.35499334 2.6544404 3.3064366e-39
1.2730371 0.35626397 2.6511397 2.7586522e-39
0.53120965 0.49873492 2.2654183 6.5692732e-40
0.53627926 0.49793574 2.267601 1.0117375e-41
0.53510231 0.50078642 2.2601681 1.4856034e-39
0.53273237 0.50358421 2.2528474 1.0110368e-41
0.53203338 0.50510883 2.2488706 8.4093883e-40
0.54048449 0.4979651 2.2676125 1.0477509e-41
0.53812891 0.5019511 2.2572043 3.8357883e-40
0.53690982 0.50361347 2.2528586 1.0110368e-41
0.53333449 0.50924748 2.2381423 5.0797069e-42
0.54018617 0.50467706 2.2501628 1.2097424e-39
0.54108751 0.50364262 2.2528698 1.0830636e-41
0.53624177 0.51011497 2.2359483 8.395109e-40
0.53748435 0.50927657 2.2381532 5.4398406e-42
0.53751338 0.50981182 2.2367625 3.2832423e-42
0.55034089 0.49532953 2.2746673 5.6364148e-40
0.5488658 0.49748132 2.2690444 9.7600438e-42
0.54368389 0.50411278 2.2517021 1.2090193e-39
0.54638511 0.50238782 2.2562413 6.5907831e-40
0.54526508 0.50367188 2.2528811 1.119077e-41
0.54160517 0.50877005 2.2395554 6.8607573e-42
0.54341972 0.50759023 2.2426591 7.4803274e-40
0.53797364 0.51439291 2.2248666 3.9824902e-42
0.53803128 0.51545668 2.2221034 3.9824902e-42
0.55343002 0.49599019 2.2730148 4.7325352e-40
0.55307096 0.49751061 2.2690558 1.0120178e-41
0.54866076 0.50329572 2.2539294 1.4881285e-39
0.54941326 0.50316203 2.2542925 1.0830636e-41
0.54521549 0.50894403 2.2391784 1.2093752e-39
0.54575479 0.50879896 2.2395666 7.5796234e-42
0.54578382 0.5093345 2.2381756 5.7831588e-42
0.54209548 0.51442182 2.2248776 3.9824902e-42
0.54212433 0.51495349 2.2234962 3.9824902e-42
0.54215312 0.51548541 2.2221146 3.9824902e-42
0.56224322 0.49075791 2.2867963 9.3278413e-40
0.55724704 0.49699745 2.2704766 1.0120178e-41
0.55543 0.49962312 2.2636149 1.3934148e-39
0.55356175 0.50265229 2.2557037 1.0480311e-41
0.55359089 0.50319117 2.2543037 9.7600438e-42
0.54990464 0.50882804 2.2395775 8.2942856e-42
0.55058181 0.5088433 2.2395518 2.8489519e-40
0.54586619 0.51528543 2.2227116 5.6039187e-40
0.5462752 0.51551425 2.2221255 2.5419554e-42
0.56411755 0.4935455 2.2795908 1.2111787e-39
0.56148171 0.49756941 2.2690783 1.1567719e-41
0.56001407 0.49924764 2.2646861 1.9954911e-40
0.5560748 0.50561351 2.2480602 1.024628e-39
0.55402541 0.50832158 2.2409797 7.2335027e-42
0.5528996 0.50989062 2.2368786 8.3949969e-40
0.55408341 0.50939244 2.238198 3.9824902e-42
0.55033958 0.51447928 2.2248998 4.6929486e-42
0.55036837 0.51501119 2.2235181 3.6223565e-42
0.55039716 0.51554292 2.2221367 1.4629556e-42
0.56317103 0.50019872 2.2622802 1.3022925e-39
0.56194597 0.50324959 2.2543261 9.0131517e-42
0.55817521 0.50835055 2.2409909 8.2942856e-42
0.55820423 0.50888604 2.2395999 5.7719484e-42
0.55629051 0.5126 2.2299078 4.7071857e-40
0.55436975 0.51469129 2.2244329 7.4406006e-40
0.55604905 0.51319492 2.2283568 6.8565534e-42
0.55391806 0.51566213 2.2219005 2.8128404e-40
0.57088238 0.49676922 2.271354 1.3962888e-39
0.56989241 0.49762815 2.2691009 1.0830636e-41
0.56525487 0.50380129 2.2529612 6.5872238e-40
0.56229597 0.50784415 2.2423928 9.0131517e-42
0.56206298 0.50791466 2.2422047 8.4201923e-40
0.55852604 0.51347333 2.227685 6.1334834e-42
0.55855483 0.51400512 2.2263033 4.6929486e-42
0.55858362 0.51453692 2.2249219 3.9726811e-42
0.55861241 0.51506883 2.2235403 2.16921e-42
0.5586412 0.51560056 2.2221589 1.4503439e-42
0.61060536 0.44453076 2.4079416 5.5292365e-39
0.57652116 0.4938792 2.2789822 1.5770689e-39
0.57409757 0.49765748 2.2691123 9.7600438e-42
0.57027179 0.50276893 2.2557487 7.9509675e-42
0.56644565 0.50787306 2.242404 8.6544193e-42
0.56647462 0.50840861 2.2410131 7.5754195e-42
0.56264788 0.51350212 2.2276959 3.9824902e-42
0.56246448 0.51466584 2.2246678 4.6639697e-40
0.56457245 0.51292014 2.2292485 7.9313493e-42
0.56200737 0.51563567 2.2221379 3.7419714e-40
0.6150775 0.44456184 2.4079537 5.805822e-39
0.59812862 0.46717685 2.3488278 5.2537468e-39
0.58259344 0.49196395 2.284086 1.0374093e-40
0.57827359 0.49714431 2.2705331 8.3111012e-42
0.57681221 0.50010353 2.2628119 9.3602954e-40
0.57444948 0.5027982 2.25576 7.9509675e-42
0.57047492 0.50792742 2.2423468 4.7396538e-40
0.57062453 0.50843751 2.2410243 6.8537508e-42
0.56789714 0.51120633 2.2337718 5.6255827e-40
0.56679875 0.51406264 2.2263258 1.0958154e-42
0.56682754 0.51459444 2.2249441 2.5293437e-42
0.56685632 0.51512635 2.2235625 1.4503439e-42
0.61518294 0.45098567 2.3912616 5.6217908e-39
0.60174143 0.46868783 2.3449762 7.3735274e-39
0.58338004 0.49564746 2.2745297 8.3807738e-40
0.58247888 0.49717373 2.2705443 6.887382e-42
0.57859772 0.50228828 2.2571714 9.0411777e-42
0.57471627 0.50739574 2.2438171 5.8097834e-42
0.57474524 0.50793117 2.2424262 5.0797069e-42
0.57086307 0.51302785 2.2290998 5.0628914e-42
0.57055676 0.51464993 2.2248778 6.5187424e-40
0.57271802 0.51302654 2.2291417 5.7775536e-42
0.57009429 0.5156185 2.2223511 5.5786673e-40
0.57097822 0.5151552 2.2235737 1.4503439e-42
0.59237981 0.491175 2.2863405 4.69669e-40
0.58668429 0.49720305 2.2705557 7.2475157e-42
0.58420908 0.50098246 2.2606821 2.9102167e-40
0.57821226 0.50867301 2.2405705 1.2983423e-39
0.57890636 0.50783694 2.2427578 6.5620565e-40
0.5771035 0.51023883 2.2364781 8.3040947e-42
0.57501394 0.51358849 2.2277293 3.6223565e-42
0.57504272 0.51412028 2.2263477 2.16921e-42
0.57507151 0.51465213 2.2249663 9.8090893e-45
0.57510036 0.51518393 2.2235847 3.7134409e-43
0.57428831 0.5171414 2.2184806 9.5805375e-41
0.61117786 0.46726799 2.3488629 4.8831664e-39
0.6097793 0.46970084 2.3425112 7.5571844e-39
0.5883289 0.49991494 2.2635422 1.021754e-39
0.58695292 0.50234669 2.2571938 8.3096999e-42
0.58698207 0.50288564 2.2557936 7.9509675e-42
0.58304489 0.50798911 2.2424486 7.5740182e-42
0.57910717 0.51308542 2.2291219 4.3426239e-42
0.57913595 0.51361728 2.2277403 3.9726811e-42
0.5781787 0.51561087 2.2225394 7.4189365e-40
0.58090419 0.51379961 2.2273033 2.9006878e-42
0.57771134 0.5165782 2.2200155 3.61535e-42
0.59509486 0.49726191 2.2705781 1.8427075e-42
0.59085172 0.50375366 2.2536185 1.4881173e-39
0.58870286 0.50600791 2.2477152 9.3206667e-40
0.58719456 0.50801808 2.2424598 7.9341519e-42
0.58601999 0.509673 2.2381341 4.7180458e-40
0.58531171 0.51100624 2.2346547 6.5006236e-42
0.58328664 0.51417786 2.2263699 1.4503439e-42
0.58331543 0.51470971 2.2249885 1.5414283e-44
0.61942846 0.46831459 2.3463149 6.8199809e-39
0.59751946 0.49872935 2.2668149 1.9340021e-40
0.59946918 0.49609083 2.2737126 1.1532686e-41
0.59530801 0.50240505 2.2572162 1.0815222e-41
0.59533715 0.50294405 2.255816 1.0049692e-40
0.59134442 0.5080471 2.2424707 6.1432925e-42
0.59137338 0.50858253 2.24108 3.9824902e-42
0.58737999 0.51367486 2.2277625 2.183223e-42
0.58740878 0.51420665 2.2263811 1.0902102e-42
0.58743757 0.5147385 2.2249994 5.6051939e-45
0.63503933 0.45289505 2.3867133 9.2970015e-39
0.62630594 0.46361619 2.3586686 8.7528409e-39
0.60347617 0.49677798 2.2720103 4.3202032e-42
0.60350555 0.49732059 2.2706008 1.0441075e-41
0.59792948 0.50473446 2.2512171 1.4866712e-39
0.600779 0.5022155 2.257823 7.5055227e-40
0.59480458 0.50917625 2.2396085 5.6436595e-40
0.59552306 0.50861144 2.2410913 3.6223565e-42
0.59602422 0.5086059 2.241116 4.3454265e-42
0.62631297 0.47073144 2.3401773 6.6348708e-39
0.6052509 0.49933589 2.2653997 1.0217414e-39
0.60626924 0.49832767 2.2680411 5.6545196e-40
0.60366309 0.50246346 2.2572386 1.156912e-41
0.59961498 0.50756961 2.2438841 1.1552305e-41
0.59964395 0.50810504 2.2424932 6.8635599e-42
0.59931242 0.50990266 2.2378147 2.8345325e-40
0.59970194 0.50917584 2.2397115 7.4128689e-43
0.5988273 0.51087612 2.2352748 9.6529846e-41
0.61596179 0.49171275 2.2854342 4.7237771e-42
0.6118868 0.49683678 2.272033 5.0797069e-42
0.61191618 0.49737933 2.2706234 1.0477509e-41
0.60784066 0.50249261 2.2572498 1.156912e-41
0.60272771 0.50895214 2.240356 1.3022939e-39
0.60379368 0.50813407 2.2425044 6.1432925e-42
0.60460573 0.50833929 2.2419877 5.7859614e-42
0.60385168 0.50920498 2.2397225 1.6815582e-44
0.64889717 0.44981048 2.3950186 1.1149563e-38
0.64159024 0.46083412 2.3662171 6.4392986e-39
0.63600206 0.46934208 2.3439901 7.5546705e-39
0.61738688 0.49496379 2.2770152 3.7818383e-40
0.61609203 0.49686617 2.2720442 5.0628914e-42
0.61269611 0.50055236 2.2623935 2.2249649e-39
0.61201805 0.50252181 2.257261 1.1908234e-41
0.61164999 0.5026859 2.2568269 2.006197e-40
0.60693818 0.51012653 2.2373917 9.3844958e-42
0.60797226 0.5086984 2.2411246 2.5293437e-42
0.60800129 0.50923389 2.2397337 5.6051939e-45
0.62032688 0.49743807 2.2706461 9.3872984e-42
0.61595291 0.50322366 2.2555192 1.4873984e-39
0.61622488 0.5030899 2.2558722 1.0470502e-41
0.61038321 0.50993735 2.2379553 8.384277e-40
