# .PCD v0.7 - Point Cloud Data file format
VERSION 0.7
FIELDS x y z rgb
SIZE 4 4 4 4
TYPE F F F F
COUNT 1 1 1 1
WIDTH 1046
HEIGHT 1
VIEWPOINT 0 0 0 1 0 0 0
POINTS 1046
DATA ascii
-1.9298126 1.1096491 0.81816632 6.4486144e-39
-1.9321511 1.1201029 0.8227061 6.2649518e-39
-1.9285421 1.1233608 0.82567596 5.157891e-39
-1.9232699 1.1296533 0.8308031 5.157884e-39
-1.9176852 1.1321418 0.83408529 6.539022e-39
-1.9135535 1.1385657 0.83887118 6.4479095e-39
-1.9113398 1.1450205 0.84298569 6.8145256e-39
-1.909126 1.151476 0.84710044 6.1716786e-39
-1.9114226 1.1620395 0.85171175 6.07912e-39
-1.9092034 1.1685148 0.8558386 5.8961679e-39
-1.9011433 1.1767789 0.86297947 4.8809426e-39
-1.9017178 1.1876793 0.86838156 6.0787613e-39
-1.899496 1.1941595 0.87251186 6.1705912e-39
-1.9025501 1.2074286 0.87824374 5.8961679e-39
-1.9003185 1.2139382 0.8823927 5.8036121e-39
-1.9088287 1.2287747 0.88697535 4.4210364e-39
-1.9021513 1.229387 0.8896839 5.3422836e-39
-1.899226 1.2480265 0.90032208 3.8678724e-39
-1.902771 1.259573 0.90499181 5.8018255e-39
-1.8957553 1.2609525 0.9082163 6.5422576e-39
-1.8896149 1.26334 0.91164553 5.8922162e-39
-1.8910091 1.273472 0.91635853 5.6167125e-39
-1.8967739 1.2880073 0.92177004 5.7099788e-39
-1.8972157 1.2973113 0.92639858 5.06641e-39
-1.8833318 1.3357283 0.95113987 5.4333877e-39
-1.8822768 1.3435738 0.95555449 5.7081781e-39
-1.8826489 1.3529636 0.96025187 4.7876735e-39
-1.8937849 1.3736933 0.96692538 3.4079817e-39
-1.9112121 1.052596 0.79548103 5.5252246e-39
-1.9077905 1.0592673 0.80013978 6.6326525e-39
-1.9098998 1.0692869 0.80453837 6.7241265e-39
-1.9023442 1.0726318 0.80896753 7.0925461e-39
-1.9079185 1.0856875 0.81368643 6.7244866e-39
-1.9036205 1.0887122 0.81678319 5.5266525e-39
-1.904507 1.0958369 0.82013083 6.1731121e-39
-1.9088964 1.1072036 0.82440549 7.1869053e-39
-1.901253 1.1183238 0.83286643 6.6319379e-39
-1.8990602 1.1247283 0.83694732 6.4479179e-39
-1.8949494 1.1310972 0.84169739 6.7234146e-39
-1.8927577 1.137502 0.84577811 6.8152515e-39
-1.9012691 1.153654 0.85103709 6.6308631e-39
-1.8990631 1.1601014 0.85514504 6.9067241e-39
-1.8940738 1.1639786 0.85892808 6.1727562e-39
-1.8927125 1.17296 0.86403674 6.6308518e-39
-1.8911738 1.1793685 0.86788535 5.0638961e-39
-1.8994727 1.1954199 0.87316865 5.8911442e-39
-1.8844739 1.1882886 0.8748759 7.0936349e-39
-1.8845676 1.1964258 0.87902892 5.7114165e-39
-1.8850912 1.2054938 0.88350654 6.1716716e-39
-1.8909743 1.2197025 0.88870782 6.4468193e-39
-1.8887503 1.2262027 0.89284921 5.8947386e-39
-1.8909458 1.2369927 0.89761353 5.711062e-39
-1.8838397 1.2407171 0.90207672 4.6050773e-39
-1.8803204 1.2474338 0.90679389 5.8943798e-39
-1.8798712 1.2573327 0.91204756 6.9996512e-39
-1.8809539 1.2674346 0.91685665 5.6177915e-39
-1.8815141 1.2770433 0.92159939 7.0007344e-39
-1.8830752 1.2876927 0.92651868 6.7237565e-39
-1.8805621 1.2942697 0.93080318 6.9063597e-39
-1.8690107 1.3250307 0.9507696 5.6163552e-39
-1.8746872 1.3398601 0.95636433 6.1680828e-39
-1.8724335 1.3464739 0.96057481 5.5266749e-39
-1.8702163 1.354107 0.96529663 6.4482613e-39
-1.8676873 1.360729 0.96960998 6.0791186e-39
-1.9050806 1.0431988 0.79284412 6.6294141e-39
-1.9012276 1.0552994 0.80045074 5.4351925e-39
-1.8991904 1.0615184 0.80438048 5.6177803e-39
-1.8888706 1.0584315 0.80649143 7.7397245e-39
-1.8877089 1.0655204 0.81055504 6.7255782e-39
-1.8890413 1.0748496 0.81487697 6.9085233e-39
-1.893203 1.0866295 0.81944579 5.6192237e-39
-1.8971349 1.1067232 0.82837415 6.632312e-39
-1.8896794 1.1103867 0.83293134 5.4334059e-39
-1.8919458 1.1205199 0.83733219 5.3419319e-39
-1.8776438 1.1184486 0.84139329 7.5542571e-39
-1.8796406 1.1291425 0.84617925 6.3564314e-39
-1.880922 1.1386573 0.85061502 6.7234062e-39
-1.8821952 1.1481988 0.85506749 6.9985624e-39
-1.8862737 1.1603665 0.85986561 6.3549894e-39
-1.8856734 1.1722798 0.86620986 6.721258e-39
-1.8819238 1.1780438 0.87051952 4.9731382e-39
-1.8798627 1.1843685 0.8745122 4.8816544e-39
-1.8783896 1.1944466 0.8802253 4.4196043e-39
-1.8761714 1.2006997 0.88423741 5.988009e-39
-1.8739685 1.207148 0.88834441 6.538659e-39
-1.8826994 1.2241077 0.89394039 5.5263078e-39
-1.8776368 1.2278731 0.89769226 5.8954574e-39
-1.8767633 1.2374704 0.90294296 5.0656968e-39
-1.8589272 1.2285283 0.90473574 4.8816544e-39
-1.8568679 1.2348536 0.90872818 4.4217595e-39
-1.865845 1.2576361 0.9172315 4.9742172e-39
-1.866322 1.2678143 0.92229688 5.710699e-39
-1.8641008 1.2743205 0.92644036 5.8958007e-39
-1.8698705 1.2889154 0.93188083 5.8025345e-39
-1.8612849 1.2909632 0.93601191 5.6177873e-39
-1.8538736 1.3311771 0.9593578 5.4337576e-39
-1.8570324 1.3434064 0.96451718 6.6322938e-39
-1.8886423 1.0325624 0.79326415 7.000719e-39
-1.8889266 1.0409083 0.79745609 7.2762297e-39
-1.8864199 1.0495137 0.80278188 5.7107018e-39
-1.8843989 1.0556941 0.80668604 5.5277357e-39
-1.8774847 1.0595723 0.81115967 8.0159513e-39
-1.8777262 1.0683483 0.81558824 7.2769471e-39
-1.8833145 1.0814159 0.82030815 6.8177753e-39
-1.8811514 1.0877395 0.82433671 6.8177753e-39
-1.8832259 1.097827 0.82878286 6.9996512e-39
-1.8817208 1.1064345 0.8337509 7.0911167e-39
-1.8769724 1.1104692 0.83752871 6.6315791e-39
-1.8719704 1.1140772 0.8411777 5.3422822e-39
-1.8664542 1.1311517 0.85193956 6.9060066e-39
-1.871017 1.1437104 0.85676515 6.9985596e-39
-1.8757657 1.1564667 0.86162591 6.723409e-39
-1.8746318 1.164953 0.86639833 7.7371994e-39
-1.8721848 1.1713715 0.87057757 7.6457254e-39
-1.8722796 1.1807066 0.8753463 5.9887292e-39
-1.8672901 1.1842086 0.87893653 7.1840424e-39
-1.8567443 1.1858869 0.88358021 5.9894425e-39
-1.8654565 1.2025092 0.889009 5.15897e-39
-1.8658853 1.2119105 0.89369214 5.2507985e-39
-1.8672831 1.2215576 0.89815426 5.3426438e-39
-1.8528104 1.2164594 0.90071917 7.3695001e-39
-1.8523961 1.2208024 0.90310204 3.9611372e-39
-1.8627784 1.2381799 0.90832084 5.2508083e-39
-1.8557826 1.2412218 0.91239339 3.6856364e-39
-1.85031 1.2470797 0.91736871 5.3422738e-39
-1.8488091 1.25415 0.92154437 6.2635057e-39
-1.8533912 1.2674642 0.92675179 5.9876404e-39
-1.8487512 1.2714669 0.93047422 5.8043338e-39
-1.8469652 1.2803652 0.93569243 5.8954462e-39
-1.8387821 1.321655 0.95986831 7.0007302e-39
-1.8743432 1.0406997 0.80257618 8.2911005e-39
-1.8706803 1.0463434 0.80679268 7.2758653e-39
-1.8690319 1.0535967 0.81111532 5.8947259e-39
-1.8659133 1.0695297 0.82043028 6.9095897e-39
-1.8672674 1.0788779 0.82475442 7.0014336e-39
-1.8693459 1.0889244 0.82917815 6.9092422e-39
-1.8654103 1.0936837 0.83303738 8.565165e-39
-1.86581 1.1025288 0.83744478 7.9223179e-39
-1.8554156 1.0981367 0.83891082 6.1687989e-39
-1.8622003 1.111046 0.8431204 6.6330155e-39
-1.8658695 1.1226597 0.84778005 6.1731289e-39
-1.8561375 1.1252069 0.85257906 7.0904133e-39
-1.8581607 1.135388 0.85709184 7.1829578e-39
-1.8601742 1.1456064 0.86162728 6.8163305e-39
-1.8636911 1.1668321 0.87128687 5.5277511e-39
-1.8596665 1.1719165 0.87534523 5.4352093e-39
-1.8589258 1.1793777 0.87944913 5.4355457e-39
-1.8453114 1.1859417 0.8877064 6.1720345e-39
-1.847849 1.1932127 0.89053762 4.329561e-39
-1.844678 1.1973125 0.89378345 5.4359044e-39
-1.8426886 1.2035831 0.89772284 5.5277441e-39
-1.8411884 1.2127256 0.902964 5.5270238e-39
-1.84962 1.2293091 0.90847355 5.3422794e-39
-1.8468186 1.2356058 0.91271734 5.4348198e-39
-1.8355669 1.2439722 0.92105472 5.6188635e-39
-1.8378876 1.2557347 0.9262746 6.1716674e-39
-1.838114 1.2646271 0.93076837 5.9883551e-39
-1.8335959 1.2682086 0.93423039 7.5553305e-39
-1.8392017 1.2823197 0.93948078 6.0798403e-39
-1.8301286 1.2816613 0.94239432 5.711785e-39
-1.8579714 1.038684 0.80740762 7.3677022e-39
-1.8558505 1.0449026 0.81136715 7.2758653e-39
-1.8628778 1.0590949 0.81614983 7.0007162e-39
-1.8497505 1.0572324 0.81989712 8.2911005e-39
-1.8506633 1.0649548 0.82354301 7.1847459e-39
-1.8552543 1.0747651 0.82694453 5.62029e-39
-1.855057 1.0817475 0.83060753 7.0925503e-39
-1.8538851 1.088851 0.83468217 7.1854634e-39
-1.846334 1.091936 0.83897597 7.3684197e-39
-1.8476934 1.101351 0.84333253 7.0003658e-39
-1.8497534 1.1114538 0.84779179 6.5419114e-39
-1.8460317 1.1245557 0.85586661 6.0798487e-39
-1.8487062 1.1382003 0.86192769 6.0802032e-39
-1.8432647 1.1414409 0.86554539 6.9078171e-39
-1.8426932 1.1484785 0.86937106 5.988002e-39
-1.8407267 1.1547016 0.87327754 6.2631525e-39
-1.839807 1.1627208 0.87773305 5.7117766e-39
-1.8421144 1.1730121 0.88220042 5.7117752e-39
-1.8300912 1.1679969 0.88392979 5.5255833e-39
-1.8297228 1.1778443 0.88912815 5.8032492e-39
-1.8290215 1.1852796 0.89320493 5.7121297e-39
-1.8331659 1.197467 0.89798951 5.4366205e-39
-1.8256797 1.1987845 0.90135068 6.0802074e-39
-1.8230641 1.203898 0.90491909 5.7121283e-39
-1.828932 1.2186916 0.91042656 5.6195782e-39
-1.8337435 1.2317542 0.91542238 5.3433598e-39
-1.8336577 1.2398261 0.91960585 3.9600695e-39
-1.8205554 1.2374604 0.92308539 5.0656883e-39
-1.8283359 1.2580009 0.9308641 6.4471823e-39
-1.8263752 1.267257 0.93632895 7.6460856e-39
-1.8219546 1.2707804 0.93972629 6.9077905e-39
-1.8197755 1.2771986 0.94380939 6.1723904e-39
-1.8538266 1.0102068 0.79424244 7.3695043e-39
-1.85233 1.0194753 0.79954743 7.4627705e-39
-1.846059 1.0370791 0.81085187 7.4599049e-39
-1.8439497 1.0432708 0.81479365 7.1847515e-39
-1.835214 1.0419718 0.81725657 6.3546237e-39
-1.8343033 1.0516927 0.82258421 5.8958063e-39
-1.8370934 1.0610117 0.82637846 7.0021623e-39
-1.8389086 1.0707225 0.83072376 7.2773003e-39
-1.8355987 1.0754678 0.83435166 8.0173806e-39
-1.8333207 1.0809559 0.8379916 7.3698602e-39
-1.8355435 1.0914149 0.84257579 6.8156102e-39
-1.8346655 1.0985126 0.84654206 6.2653189e-39
-1.8377839 1.1092967 0.85097247 5.8965378e-39
-1.8236233 1.1362001 0.86988944 6.8155934e-39
-1.8264402 1.1468796 0.87437427 6.4471865e-39
-1.8284711 1.1576573 0.87919116 6.2627924e-39
-1.8263863 1.1668422 0.88466382 5.9872803e-39
-1.8196248 1.1769878 0.89230716 4.4221196e-39
-1.8139428 1.1802248 0.89600927 5.8961679e-39
-1.8161682 1.1904947 0.90049517 5.8947315e-39
-1.8122125 1.1971726 0.90534878 6.3556943e-39
-1.8151683 1.208269 0.90999824 6.4471795e-39
-1.8112004 1.2132823 0.91399962 5.8032548e-39
-1.8159988 1.226319 0.9189868 5.5281168e-39
-1.82198 1.2422101 0.92501849 7.4631349e-39
-1.8051728 1.2340746 0.92685741 5.2511712e-39
-1.8088449 1.2461187 0.93173766 5.6170755e-39
-1.8010064 1.2531478 0.93816352 7.0929062e-39
-1.7988507 1.2594926 0.9422006 6.8177542e-39
-1.7961051 1.2651964 0.94611925 6.9103184e-39
-1.7979541 1.2757612 0.95089185 6.5400968e-39
-1.8317404 0.99463433 0.79414761 7.6460842e-39
-1.8369234 1.0069433 0.79862243 7.4624146e-39
-1.8348323 1.0130794 0.80252886 7.6453681e-39
-1.8275505 1.01633 0.80681133 8.1963839e-39
-1.825869 1.0215815 0.81011599 6.9982008e-39
-1.8290265 1.0381612 0.81751388 7.6464387e-39
-1.8325192 1.0483302 0.82149374 8.7524317e-39
-1.8223211 1.0566161 0.82941204 7.8286706e-39
-1.8214356 1.0636762 0.83336192 6.7248495e-39
-1.8211418 1.0734886 0.8385154 6.6340902e-39
-1.8188471 1.0791219 0.84223622 6.725567e-39
-1.8190866 1.0879565 0.84669542 6.2653133e-39
-1.823055 1.0994607 0.85119164 6.4489759e-39
-1.8291515 1.1137059 0.85633522 6.5397436e-39
-1.8129172 1.1078016 0.85911667 5.8961609e-39
-1.8134749 1.1156617 0.86296076 4.7908965e-39
-1.8091937 1.1184548 0.86593223 6.9106897e-39
-1.811007 1.1280835 0.87023604 8.5669699e-39
-1.8082649 1.1334412 0.87397552 6.5393905e-39
-1.8122842 1.1459974 0.87899446 6.7227014e-39
-1.8122967 1.1540231 0.88311911 6.4475424e-39
-1.8144903 1.1649233 0.8879407 6.1709583e-39
-1.8105992 1.1703309 0.8921175 6.4500731e-39
-1.804824 1.1737592 0.89595151 5.8958176e-39
-1.8035377 1.1926546 0.90613395 6.8166864e-39
-1.8015927 1.198844 0.9100154 6.6312274e-39
-1.7982806 1.2062778 0.91502714 6.1731191e-39
-1.8040074 1.2202059 0.92014009 5.8979713e-39
-1.8033429 1.2277184 0.92424315 5.9883789e-39
-1.7971482 1.2324643 0.92890537 6.817764e-39
-1.7984434 1.2423081 0.93350542 6.816678e-39
-1.783534 1.2390311 0.93716377 7.3705805e-39
-1.7866796 1.2508268 0.94210488 6.9110443e-39
-1.7866813 1.2593883 0.946509 7.0032301e-39
-1.7845368 1.2657073 0.95052874 7.0017868e-39
-1.8215531 0.97854698 0.78952253 7.6464429e-39
-1.8184327 0.98513657 0.79403126 6.172766e-39
-1.8219918 0.99577963 0.79823124 6.4482613e-39
-1.8200493 1.0017605 0.80200452 6.7226859e-39
-1.8202124 1.0073606 0.80482715 8.8438945e-39
-1.8171538 1.0125732 0.80860531 8.1067022e-39
-1.8181475 1.0372454 0.82094234 7.8308412e-39
-1.8196063 1.046507 0.82518423 7.5549689e-39
-1.8112594 1.04869 0.82929945 5.526305e-39
-1.8125155 1.0592573 0.8342858 7.0014364e-39
-1.8089358 1.0652753 0.83866519 7.0936293e-39
-1.8051556 1.070296 0.84260315 7.0014336e-39
-1.8043357 1.0773251 0.84651333 6.9092422e-39
-1.8094852 1.0923494 0.85239726 6.9088849e-39
-1.8115968 1.1021481 0.85668135 6.9996414e-39
-1.8043538 1.1055163 0.86101061 6.8166878e-39
-1.7968919 1.1076686 0.86479259 6.6326553e-39
-1.8052955 1.1234441 0.86989641 5.6174272e-39
-1.7951543 1.1247348 0.87419552 6.9096122e-39
-1.8005555 1.1378303 0.87899697 6.9996526e-39
-1.7985276 1.1446865 0.88325113 6.6323134e-39
-1.7989023 1.152935 0.88736045 6.6326665e-39
-1.8034277 1.1662068 0.89256638 6.8159774e-39
-1.7991905 1.1725172 0.89733189 6.7252223e-39
-1.7972603 1.1786764 0.90119243 7.0929132e-39
-1.7894572 1.1840695 0.90676409 7.5546116e-39
-1.784754 1.1887071 0.91083598 7.0943495e-39
-1.7874038 1.199458 0.91541725 6.6348063e-39
-1.788528 1.2087088 0.9197737 6.6340959e-39
-1.7895749 1.2179104 0.92413241 6.5415373e-39
-1.7871211 1.2261335 0.92924249 7.3712952e-39
-1.7849905 1.2324228 0.93324202 7.6457282e-39
-1.7747456 1.2405788 0.94111031 8.4765847e-39
-1.7723588 1.2468393 0.94518667 8.6613305e-39
-1.7768831 1.2563953 0.94848126 5.8972637e-39
-1.7781346 1.2651472 0.95253539 7.1861962e-39
-1.7524259 1.2464707 0.95214206 8.1063715e-39
-1.8183212 0.97892088 0.79087347 7.738291e-39
-1.8212881 0.99259853 0.79684675 8.7546037e-39
-1.8045908 0.98734242 0.80012774 6.4500605e-39
-1.8059437 0.99661869 0.80441523 8.382573e-39
-1.8025781 1.0026444 0.8087219 9.39852e-39
-1.8032371 1.0115647 0.81307477 8.2918025e-39
-1.8063865 1.0218459 0.81723547 7.3705707e-39
-1.8065879 1.0304542 0.82159197 7.0025112e-39
-1.8097293 1.0409069 0.82584357 7.0017966e-39
-1.8076925 1.0489417 0.83070749 7.4609769e-39
-1.8011733 1.0505651 0.83387935 5.6203027e-39
-1.7935504 1.07284 0.84807175 7.3698756e-39
-1.7939078 1.0816318 0.852467 7.4616999e-39
-1.799584 1.0947139 0.85716271 7.1847613e-39
-1.7951782 1.1006913 0.8618173 7.1858319e-39
-1.7932739 1.106755 0.86561936 7.2780233e-39
-1.7938671 1.115176 0.86973923 7.1858291e-39
-1.7811971 1.1136305 0.87348568 9.3978138e-39
-1.7830213 1.1248943 0.87862676 7.187271e-39
-1.779081 1.1297481 0.88253629 7.0932817e-39
-1.7830296 1.1409826 0.8869009 7.3723854e-39
-1.781011 1.1421413 0.88822049 6.7255614e-39
-1.7831619 1.1513036 0.89216334 6.9088835e-39
-1.7819861 1.160538 0.89733577 6.8184843e-39
-1.7798774 1.1664346 0.90112525 6.8181256e-39
-1.776536 1.1740918 0.90626246 5.6184978e-39
-1.773067 1.1801783 0.91063726 8.0152282e-39
-1.7715311 1.1867152 0.91455084 6.9096051e-39
-1.777041 1.2003558 0.91959375 6.6344546e-39
-1.7817874 1.2141278 0.92497778 6.3589453e-39
-1.7763774 1.2163069 0.92803818 7.4635076e-39
-1.7734846 1.2216406 0.93181908 7.4638523e-39
-1.7713706 1.2278967 0.93579537 8.013436e-39
-1.7694188 1.2326276 0.93892902 6.1738282e-39
-1.7655116 1.2367923 0.94247216 5.622832e-39
-1.7634598 1.2451829 0.94752443 7.6475261e-39
-1.7664999 1.2557888 0.95189112 9.2141302e-39
-1.7641135 1.2620499 0.95596772 7.552832e-39
-1.8044704 0.96513861 0.78874761 6.5415499e-39
-1.8046281 0.97242981 0.7924422 8.2003496e-39
-1.8065361 0.98184198 0.79660046 7.9244843e-39
-1.8002867 0.98584521 0.80090028 8.6605948e-39
-1.7953758 0.99015409 0.80487734 7.55352e-39
-1.7933276 0.99596578 0.80860174 5.9872761e-39
-1.7849681 1.0064567 0.81699532 7.7390015e-39
-1.788401 1.0326892 0.82926095 8.2007055e-39
-1.7785494 1.0291829 0.83098823 6.262798e-39
-1.7874279 1.0443892 0.83562928 7.7375679e-39
-1.7894994 1.0539478 0.83980429 7.553897e-39
-1.788644 1.0607589 0.84361506 7.829402e-39
-1.7780415 1.0596308 0.84683508 8.7513569e-39
-1.7800642 1.0716729 0.85230553 7.3705805e-39
-1.7810994 1.0812107 0.85684139 7.4620488e-39
-1.7790405 1.088501 0.86133015 7.4627705e-39
-1.7763258 1.0944563 0.86536705 7.4616985e-39
-1.778865 1.1033344 0.86902457 8.1070707e-39
-1.7708648 1.101202 0.87079495 5.8951015e-39
-1.7683252 1.1067315 0.87455028 7.0010833e-39
-1.7679853 1.11696 0.87993437 5.7132017e-39
-1.7697459 1.1263623 0.88414061 7.5542473e-39
-1.7720886 1.136513 0.88852304 7.0025252e-39
-1.7712982 1.1436377 0.89247203 7.0943579e-39
-1.7651592 1.1479232 0.89687729 7.2780289e-39
-1.7649682 1.1556687 0.90093064 7.2776702e-39
-1.7649235 1.1635811 0.90501738 7.0936307e-39
-1.7576406 1.1821901 0.91720176 8.3822185e-39
-1.7582208 1.1908956 0.92147273 6.7273677e-39
-1.7602587 1.1990415 0.92493308 5.6203013e-39
-1.750005 1.1956444 0.92686081 9.3978138e-39
-1.7535049 1.2078595 0.93189073 9.1223073e-39
-1.7597156 1.2218047 0.93683892 8.1985391e-39
-1.7576127 1.2280284 0.94079471 8.0152268e-39
-1.7487487 1.2392573 0.94974905 8.2003356e-39
-1.7941371 0.95893502 0.78925985 8.7531562e-39
-1.7904401 0.97183222 0.79722029 8.0159513e-39
-1.7853848 0.97634757 0.80135548 8.015594e-39
-1.7872983 0.98549277 0.8053748 8.0148709e-39
-1.7835553 0.99040323 0.80924273 8.1063449e-39
-1.784858 0.99908525 0.8132425 8.0145108e-39
-1.7707844 0.99613553 0.8167696 8.2932683e-39
-1.7748219 1.0061064 0.82045192 8.0159499e-39
-1.7715492 1.0087845 0.82300299 6.4493332e-39
-1.7710626 1.0323443 0.83529854 7.8304824e-39
-1.7720544 1.0408697 0.839329 7.64681e-39
-1.7598993 1.0543131 0.85060227 7.5556976e-39
-1.7648073 1.0672622 0.85550511 7.9226795e-39
-1.7648344 1.0749967 0.8594746 7.4638593e-39
-1.7595741 1.0800624 0.86396629 7.7382938e-39
-1.7630554 1.0910971 0.86839551 7.8301251e-39
-1.7639171 1.0985266 0.8719089 6.2635183e-39
-1.7643402 1.1049153 0.87504411 7.3705791e-39
-1.753137 1.1109205 0.88214958 7.7389959e-39
-1.7556393 1.1211739 0.88652766 7.370942e-39
-1.7576889 1.1310028 0.89084989 7.5531781e-39
-1.757035 1.1382121 0.89479333 7.553897e-39
-1.7502925 1.1426313 0.89948374 7.7372036e-39
-1.7533208 1.1535666 0.90402424 7.4638537e-39
-1.7514439 1.1596055 0.90780389 7.5542571e-39
-1.7535728 1.1696705 0.91221899 7.186192e-39
-1.7474234 1.1736848 0.91648859 6.0798417e-39
-1.749036 1.1836592 0.92104203 6.4504207e-39
-1.7404169 1.1796408 0.92206413 8.2932613e-39
-1.7462187 1.1915962 0.92613518 5.7132186e-39
-1.7438198 1.2006265 0.93164116 7.5564123e-39
-1.7410253 1.2062567 0.93553936 8.3850841e-39
-1.7410153 1.2146004 0.93983555 8.5680405e-39
-1.7463348 1.2286162 0.94513959 8.2925312e-39
-1.7774856 0.94484663 0.7879805 8.2921725e-39
-1.7803729 0.95772982 0.79357374 8.1996223e-39
-1.7785321 0.96359658 0.7972517 8.1081441e-39
-1.7740232 0.9743526 0.8044017 8.3840093e-39
-1.7713916 0.98016936 0.80833763 8.1996181e-39
-1.7695526 0.98603833 0.81201625 8.3832933e-39
-1.7713965 0.99364364 0.8152681 6.1731191e-39
-1.7632196 0.99928415 0.82110089 8.0163156e-39
-1.7598079 1.029386 0.83781075 6.5415443e-39
-1.758444 1.0372036 0.84232152 8.2907361e-39
-1.7608017 1.0469918 0.8465122 7.923041e-39
-1.7515689 1.0480576 0.85037005 6.2660308e-39
-1.7487288 1.0551523 0.85503817 9.028304e-39
-1.7528822 1.0683243 0.86032599 7.9237543e-39
-1.7480381 1.075115 0.865556 8.2932613e-39
-1.7459872 1.080183 0.86889875 7.4620545e-39
-1.7440852 1.0861062 0.87262779 7.1858305e-39
-1.75016 1.100551 0.877882 7.7389987e-39
-1.7401977 1.1092781 0.8859427 6.173475e-39
-1.7394961 1.1169754 0.89015418 7.9219592e-39
-1.7428235 1.1289051 0.89509922 8.1070623e-39
-1.7372003 1.133621 0.89954102 7.6471688e-39
-1.7353449 1.1395996 0.90328193 7.2805457e-39
-1.7410158 1.1548617 0.90910119 7.8304824e-39
-1.7382625 1.1607983 0.91314244 7.6478905e-39
-1.73531 1.1771089 0.92259222 6.1731177e-39
-1.73535 1.1847557 0.92651188 5.8976084e-39
-1.7322886 1.1928786 0.93178827 7.925192e-39
-1.7285943 1.1972212 0.93534666 8.8446344e-39
-1.7284114 1.2053337 0.93958586 8.8442714e-39
-1.7314899 1.2197531 0.94590098 1.0135016e-38
-1.767014 0.94665366 0.79266363 8.4758462e-39
-1.764383 0.95240945 0.79656816 8.5673272e-39
-1.7697289 0.96441352 0.80082762 8.4762064e-39
-1.7594235 0.96492767 0.80478621 8.7513569e-39
-1.7561653 0.96833491 0.80770695 7.0007232e-39
-1.7576582 0.97410464 0.81014013 9.0301018e-39
-1.7591079 0.98191625 0.8136394 8.4758561e-39
-1.7583807 0.98940438 0.8177526 8.2918207e-39
-1.7539663 1.0036656 0.82667202 8.292534e-39
-1.7487854 1.0241386 0.83906204 6.9092394e-39
-1.7482967 1.0287187 0.8415935 8.2921725e-39
-1.7512364 1.0409029 0.8468082 6.357502e-39
-1.7496029 1.0439343 0.84895349 8.9368258e-39
-1.7417827 1.0616014 0.86084598 8.3840079e-39
-1.7425675 1.0705985 0.86519343 8.9375405e-39
-1.7416635 1.0791304 0.86990702 7.9233941e-39
-1.7409521 1.0861328 0.8737644 7.8311999e-39
-1.7389395 1.0926921 0.87786055 7.7397231e-39
-1.7382271 1.0997146 0.88172889 7.8315586e-39
-1.738068 1.1087104 0.88641393 8.2014272e-39
-1.734254 1.1149004 0.89096564 6.7259299e-39
-1.738569 1.1266199 0.89544857 6.3578621e-39
-1.7259156 1.126848 0.90010148 1.0229372e-38
-1.7241344 1.1331694 0.903992 8.2010586e-39
-1.731832 1.149541 0.90965569 8.937909e-39
-1.7311946 1.1568271 0.91363275 8.2003412e-39
-1.7303778 1.1647761 0.91801506 7.8322789e-39
-1.7261921 1.1700779 0.92224324 8.2010586e-39
-1.7295855 1.1824031 0.92736775 8.017389e-39
-1.7234368 1.1851714 0.930996 8.8467938e-39
-1.7212962 1.1935408 0.93606919 9.030462e-39
-1.7211056 1.2016243 0.94029641 9.1212199e-39
-1.7231408 1.2139286 0.94589722 1.0503431e-38
-1.758886 0.93267643 0.78838629 8.476212e-39
-1.753544 0.93725806 0.79265815 7.0014519e-39
-1.7547705 0.94630533 0.79687321 7.0028756e-39
-1.7538848 0.9540869 0.80119407 8.6613179e-39
-1.746729 0.96704203 0.81042415 8.7531492e-39
-1.7460948 0.98194891 0.81832075 8.6602431e-39
-1.7432493 0.99561256 0.82637042 6.8181228e-39
-1.7429768 1.0035986 0.83057678 6.6351706e-39
-1.736445 1.0265579 0.84473002 8.6598816e-39
-1.7369781 1.034586 0.84866929 8.4765651e-39
-1.7369963 1.0421799 0.8525697 8.0170219e-39
-1.7377964 1.0505092 0.85656816 8.3843723e-39
-1.7338847 1.0573565 0.86149293 8.1074197e-39
-1.7382704 1.0688583 0.86583847 6.7259243e-39
-1.7252166 1.0679562 0.87005347 8.6613179e-39
-1.7245392 1.0749315 0.87388498 8.6598788e-39
-1.7255131 1.0835248 0.87795675 8.4780014e-39
-1.72562 1.0920963 0.88232851 8.4772826e-39
-1.7270105 1.1011775 0.88650209 8.2932571e-39
-1.722612 1.108646 0.8919211 8.2925354e-39
-1.7219237 1.1156957 0.89579475 8.4769266e-39
-1.7234619 1.12668 0.90089446 9.1215856e-39
-1.7174066 1.1304421 0.90500057 8.2925424e-39
-1.7167087 1.1375207 0.90889233 8.4776483e-39
-1.7128325 1.1422428 0.91271126 8.4769295e-39
-1.714913 1.1521791 0.91707754 8.2939703e-39
-1.7122917 1.1581539 0.92109096 8.9393467e-39
-1.7145388 1.1683911 0.92555237 8.6624081e-39
-1.7083075 1.168002 0.92758566 6.6358923e-39
-1.7189771 1.1866583 0.9333595 6.910317e-39
-1.7020252 1.1775233 0.93473613 1.0690701e-38
-1.7083448 1.1926819 0.94026971 1.0321562e-38
-1.7060368 1.1987234 0.94420528 1.0872956e-38
-1.7403853 0.92281872 0.78994608 7.0932859e-39
-1.7447878 0.93447465 0.79436475 9.3970823e-39
-1.7435517 0.94251466 0.79894441 7.2783835e-39
-1.7388101 0.95483196 0.80698097 9.4903611e-39
-1.7306916 0.96356928 0.81438607 8.5691279e-39
-1.7339618 0.9738102 0.81848276 8.6609592e-39
-1.7240343 1.0328636 0.85242301 8.7542338e-39
-1.7274194 1.0444387 0.85716462 8.5705586e-39
-1.725149 1.0596802 0.86581987 8.6616766e-39
-1.7120872 1.0644115 0.87293595 9.307416e-39
-1.7145669 1.0718973 0.87589842 7.095074e-39
-1.7159826 1.0791833 0.87913936 1.1242435e-38
-1.7145863 1.0859563 0.88312459 8.8449875e-39
-1.7138363 1.0937629 0.88740969 8.6620284e-39
-1.7099015 1.1000137 0.89203602 8.7531492e-39
-1.710382 1.1081727 0.8960613 8.8457106e-39
-1.7124404 1.1188705 0.90082723 6.8199234e-39
-1.7073283 1.1213807 0.90395123 9.4010452e-39
-1.7072172 1.130254 0.9085561 1.1058771e-38
-1.699043 1.1289436 0.91081196 8.845712e-39
-1.6983784 1.1360052 0.91468322 8.754231e-39
-1.7015671 1.1479496 0.91968554 8.5701999e-39
-1.7005057 1.1528039 0.92256325 7.0950726e-39
-1.6972052 1.1588039 0.92683321 8.387252e-39
-1.6953818 1.164731 0.93053603 8.7545925e-39
-1.6913964 1.1776654 0.9386192 1.1703055e-38
-1.7352289 0.90279388 0.78149211 6.5404611e-39
-1.7343535 0.92779094 0.79466629 8.753152e-39
-1.7329724 0.93507457 0.79890871 9.0293816e-39
-1.7309328 0.94207799 0.80324286 7.4620671e-39
-1.7280889 0.94760448 0.80710542 7.187634e-39
-1.7126899 1.0259062 0.85290986 9.1226646e-39
-1.7104101 1.0392708 0.8606028 1.0044258e-38
-1.7110276 1.0515504 0.86669898 9.1219401e-39
-1.7118474 1.0610672 0.87130123 7.4638593e-39
-1.6998 1.058081 0.87408346 9.7691102e-39
-1.6995683 1.0675251 0.87902528 9.1226562e-39
-1.7005805 1.0761088 0.88307858 9.12158e-39
-1.6999469 1.0830855 0.886895 9.0304578e-39
-1.6992524 1.0892781 0.89032996 9.3077691e-39
-1.6958565 1.0943795 0.89417183 9.0308235e-39
-1.7007422 1.1069366 0.89888078 9.2152106e-39
-1.6952469 1.1094565 0.90214705 7.2808974e-39
-1.6986362 1.1202964 0.90650904 7.3716553e-39
-1.6943207 1.1265078 0.91125149 8.6609522e-39
-1.6893032 1.1256164 0.91259152 9.5857937e-39
-1.6891586 1.133121 0.9165042 9.2148462e-39
-1.6885154 1.1401975 0.92037553 8.5709215e-39
-1.6881703 1.149116 0.92508757 9.2163008e-39
-1.6849692 1.1546837 0.92909944 9.4006836e-39
-1.6846982 1.1622127 0.93307006 9.1248044e-39
-1.6856099 1.1705637 0.93703967 7.3727315e-39
-1.7221084 0.89503878 0.78220528 6.72666e-39
-1.722407 0.90609848 0.78778821 7.4652901e-39
-1.7204721 0.91834533 0.79478258 9.1222947e-39
-1.7201672 0.92732525 0.79951191 9.3992403e-39
-1.7193707 0.94183397 0.80726182 9.3974494e-39
-1.7213142 0.95081896 0.81118762 9.5822036e-39
-1.7148134 0.95404077 0.81517553 1.0321205e-38
-1.7098577 0.9545455 0.81721151 7.5564123e-39
-1.7128299 0.96330768 0.82065398 9.5839931e-39
-1.6965172 1.038203 0.86503339 9.765862e-39
-1.6943692 1.0565944 0.8752653 7.6478862e-39
-1.6802111 1.0566843 0.88038641 9.3077663e-39
-1.6810348 1.0650077 0.88437337 9.3992445e-39
-1.6787602 1.0711356 0.88834149 9.0304634e-39
-1.6763754 1.0773247 0.89238036 9.8616562e-39
-1.6834084 1.0933247 0.89809102 1.0504517e-38
-1.6801084 1.0977141 0.90153223 9.2166455e-39
-1.6838119 1.1091272 0.90607643 9.2159252e-39
-1.6750274 1.1218172 0.91575408 1.0505232e-38
-1.6748068 1.1291823 0.91962236 9.4917932e-39
-1.6767911 1.1398926 0.92442125 9.1251673e-39
-1.6738446 1.1462657 0.92875618 9.2162966e-39
-1.6719513 1.1529784 0.93288851 9.12481e-39
-1.6697884 1.1584527 0.9364801 9.4914331e-39
-1.7187363 0.8955912 0.78369826 8.4783588e-39
-1.7190222 0.90274423 0.78727597 9.6751111e-39
-1.7068933 0.89978498 0.79010099 9.2155707e-39
-1.7088761 0.91233259 0.79584587 9.5832742e-39
-1.7113962 0.92844015 0.80322945 1.2532454e-38
-1.7049508 0.92950881 0.80608952 1.03194e-38
-1.7110866 0.94296581 0.81081355 1.0043894e-38
-1.7043195 0.94283301 0.81317085 7.9248305e-39
-1.6903286 0.96851802 0.83140028 1.0414481e-38
-1.6933887 1.0001979 0.84660196 8.0166576e-39
-1.6840202 1.0374192 0.86910969 9.3999676e-39
-1.6833109 1.0441958 0.8728503 9.8602212e-39
-1.6806403 1.0498854 0.87673461 9.7680228e-39
-1.6689092 1.0569003 0.88454872 9.4917974e-39
-1.6733139 1.0696392 0.88952363 9.6761915e-39
-1.6703942 1.076947 0.89433008 9.9535001e-39
-1.6668786 1.0822933 0.8983407 9.5836343e-39
-1.6676881 1.0906782 0.90236443 9.5839931e-39
-1.6697761 1.1003994 0.90661722 9.5836371e-39
-1.6666315 1.1055249 0.9103815 1.0506308e-38
-1.6610494 1.1098411 0.91460294 7.8333551e-39
-1.6603765 1.117811 0.91894442 7.7411665e-39
-1.663342 1.1290549 0.92366642 9.3092125e-39
-1.6589191 1.1347623 0.92818797 9.2166553e-39
-1.6571399 1.1405816 0.93181962 9.1248128e-39
-1.6539737 1.1471704 0.93634439 1.2071835e-38
-1.7046665 0.89018732 0.78596151 7.647882e-39
-1.695986 0.90146405 0.79487449 9.9524169e-39
-1.6967121 0.90921581 0.7986024 1.0319764e-38
-1.6980364 0.91754115 0.8024109 1.0320475e-38
-1.6919624 0.92059326 0.80615842 8.2928955e-39
-1.6934862 0.93199134 0.81147635 1.1241721e-38
-1.6802859 0.98431915 0.8431294 1.0044251e-38
-1.6803132 0.99160802 0.84686959 8.3847268e-39
-1.6718547 1.0367777 0.87314028 9.7694633e-39
-1.6712024 1.0444887 0.87734121 9.76802e-39
-1.6705104 1.0512681 0.88107723 9.5843434e-39
-1.6627303 1.0646856 0.89076895 8.1088644e-39
-1.6627899 1.0719312 0.8944754 7.8329978e-39
-1.6573578 1.0766535 0.89885193 9.7672997e-39
-1.658492 1.0853578 0.90292352 9.859131e-39
-1.6579165 1.0923202 0.90671182 9.6751097e-39
-1.660001 1.1020451 0.91096795 9.7680214e-39
-1.656764 1.107129 0.91474372 1.0322276e-38
-1.6579363 1.1161848 0.91898257 1.2255531e-38
-1.6516452 1.1153439 0.92080492 7.8330006e-39
-1.655713 1.1269035 0.92529404 7.833711e-39
-1.6477755 1.1287248 0.92907637 9.5839903e-39
-1.6466199 1.1361196 0.93329501 9.1233793e-39
-1.651521 1.1475093 0.9373979 1.2162958e-38
-1.6984187 0.88823932 0.78719878 8.0170303e-39
-1.6944704 0.8898682 0.78945202 9.7683843e-39
-1.6887144 0.89761096 0.79549861 8.2021418e-39
-1.6888158 0.90450954 0.79901165 8.8460735e-39
-1.6834216 0.9038859 0.80062425 1.2810131e-38
-1.6842995 0.91246372 0.80472261 1.0782538e-38
-1.684154 0.91940016 0.80834353 1.0321195e-38
-1.6839125 0.92635423 0.81200767 1.0505944e-38
-1.6813121 0.93190897 0.81579769 1.0413035e-38
-1.6652815 0.98342532 0.84804785 1.0228283e-38
-1.6575495 1.0192603 0.86925572 1.0136448e-38
-1.6568383 1.0250056 0.87246639 1.0598509e-38
-1.661927 1.0344136 0.87548262 8.3861673e-39
-1.6587782 1.0376277 0.87826478 9.9516994e-39
-1.6561954 1.0424225 0.88165748 9.6772663e-39
-1.6556567 1.0493098 0.88539398 9.492159e-39
-1.6531453 1.0567142 0.89010364 1.0689271e-38
-1.6536317 1.0647206 0.89404839 9.9516994e-39
-1.6430794 1.0636216 0.89726537 1.0597776e-38
-1.6442572 1.0715365 0.90091532 9.9516882e-39
-1.6474389 1.0826317 0.90548301 1.0964405e-38
-1.6453249 1.0885832 0.90930271 9.9513295e-39
-1.6474454 1.0983095 0.91354662 9.7683857e-39
-1.6466672 1.1032584 0.91637158 8.3854457e-39
-1.6433139 1.1080925 0.92006069 9.5847161e-39
-1.6469736 1.1222955 0.92605603 9.215212e-39
-1.6310846 1.1119139 0.92641026 1.0045336e-38
-1.6353986 1.1249877 0.9315902 1.2348782e-38
-1.6331906 1.1307715 0.93535715 1.253102e-38
-1.6818532 0.88793105 0.79297793 1.2626452e-38
-1.6825039 0.89600229 0.79689723 1.2810488e-38
-1.6804456 0.90158755 0.80050856 8.4798007e-39
-1.6756864 0.90592223 0.80444467 1.0874369e-38
-1.673696 0.91317177 0.80888784 1.1060201e-38
-1.6713433 0.91843086 0.81243676 1.0782176e-38
-1.66954 0.92481202 0.81636614 1.0781452e-38
-1.6689061 0.93137485 0.81996983 1.0505593e-38
-1.6689655 0.93930757 0.82402974 1.0965487e-38
-1.662685 0.94569021 0.82956469 9.2152162e-39
-1.6592525 0.96611047 0.8413009 1.0505591e-38
-1.6537017 0.97615951 0.84846044 1.0229718e-38
-1.6454945 1.0274669 0.87779891 1.0044973e-38
-1.6439238 1.0341214 0.88178569 9.7694619e-39
-1.6463035 1.0438857 0.88595605 9.9531315e-39
-1.6453949 1.0500787 0.88946795 1.0691059e-38
-1.6423999 1.0549946 0.89307052 1.0044968e-38
-1.6317664 1.0629805 0.90099072 1.0597081e-38
-1.6313034 1.0745091 0.90708792 9.7669466e-39
-1.6336364 1.0844066 0.91134357 9.6758314e-39
-1.632987 1.0912333 0.91508859 9.7687431e-39
-1.6269847 1.0928584 0.91807628 1.0414478e-38
-1.6267588 1.1001518 0.92190939 1.0414838e-38
-1.631494 1.1138625 0.927266 8.1099448e-39
-1.6356184 1.1248788 0.93145525 9.4914471e-39
-1.6229107 1.12265 0.93486363 1.2532458e-38
-1.6657189 0.90003222 0.80498719 9.3067027e-39
-1.6658702 0.906937 0.80848527 8.7553226e-39
-1.6605406 0.919312 0.81676233 1.1150233e-38
-1.6569968 0.92342097 0.82014656 1.1428264e-38
-1.6646676 0.93304825 0.82235003 1.0780014e-38
-1.6583462 0.93370587 0.82495421 1.0782905e-38
-1.6571652 0.94205528 0.82967323 1.1979649e-38
-1.6556596 0.955814 0.83729142 1.0690343e-38
-1.649443 0.96772629 0.84564835 1.1796317e-38
-1.6420497 0.98966843 0.85958725 1.0967645e-38
-1.6332084 1.015906 0.8762551 1.0229718e-38
-1.6352526 1.0252609 0.88033521 9.9534889e-39
-1.6326016 1.0308317 0.88415152 1.0320838e-38
-1.6346288 1.0402291 0.88825971 1.0137167e-38
-1.633836 1.0493476 0.89323503 1.2533906e-38
-1.6299267 1.0528036 0.89641428 1.0045326e-38
-1.6289476 1.0595014 0.90021116 8.0180981e-39
-1.6274323 1.0650764 0.90362251 8.1092273e-39
-1.619343 1.0632639 0.9055897 1.2900525e-38
-1.6183301 1.0692583 0.9090367 1.0136445e-38
-1.6191854 1.0775906 0.91301686 1.0045333e-38
-1.6226412 1.0895587 0.91793561 1.133463e-38
-1.6186631 1.0929331 0.92109764 1.0228998e-38
-1.6189436 1.1027474 0.92604631 1.2166195e-38
-1.6222254 1.1143266 0.93082714 1.2534248e-38
-1.6560445 0.8866002 0.80154455 1.0598512e-38
-1.6545998 0.89304644 0.80537879 1.0782906e-38
-1.6509143 0.89595658 0.80819696 1.1430057e-38
-1.6570135 0.90705562 0.81172091 1.0783252e-38
-1.6457278 0.91107851 0.81783599 1.2348063e-38
-1.6443855 0.91737854 0.82155842 1.1058043e-38
-1.6453506 0.92533058 0.82530361 1.0783974e-38
-1.641924 0.94963324 0.83903509 8.5723537e-39
-1.643818 0.95959264 0.84348005 8.9386251e-39
-1.6256907 1.0351636 0.88885731 1.0597419e-38
-1.625275 1.040614 0.89181042 8.3868778e-39
-1.6197419 1.0403726 0.89366961 1.0599939e-38
-1.6145562 1.0434233 0.89709795 1.0321906e-38
-1.6141806 1.0504134 0.90082884 1.0412668e-38
-1.6167884 1.0604894 0.90507799 8.4776413e-39
-1.6077124 1.0696994 0.91306961 1.041268e-38
-1.607107 1.0764784 0.91677427 1.0413392e-38
-1.6082971 1.0861267 0.92131156 1.0321557e-38
-1.6104496 1.0958902 0.92556304 9.9534917e-39
-1.6084468 1.1052479 0.93109518 1.2809402e-38
-1.6113193 1.1164013 0.93580383 1.0507393e-38
-1.6457262 0.87794369 0.80078948 1.1613026e-38
-1.6385641 0.88612503 0.80756599 1.0875081e-38
-1.6407551 0.89506471 0.81137973 1.1243154e-38
-1.6431313 0.9030568 0.81463963 1.0688544e-38
-1.6332092 0.90757537 0.820521 1.2533174e-38
-1.6305481 0.91214865 0.82382774 1.133463e-38
-1.6183789 0.96688414 0.85635006 1.0874013e-38
-1.6191733 0.97480863 0.86014217 1.0965844e-38
-1.6115066 0.97600931 0.86350805 1.0598144e-38
-1.6135507 0.99323016 0.87163502 1.0689976e-38
-1.6090739 1.0246094 0.88938379 1.0965124e-38
-1.6086826 1.031487 0.89306235 1.078145e-38
-1.6017836 1.0343339 0.89700007 1.0597781e-38
-1.60638 1.0463928 0.90155655 1.0321192e-38
-1.6046835 1.0520009 0.90504974 1.0320475e-38
-1.6068991 1.0616978 0.90924454 9.9534945e-39
-1.5968915 1.0727893 0.91853803 8.5709187e-39
-1.6005559 1.0837634 0.92287034 8.4787175e-39
-1.5969847 1.0894006 0.92705083 1.0966569e-38
-1.598227 1.0971352 0.93058479 1.2533183e-38
-1.5960686 1.1028019 0.93427384 8.2947256e-39
-1.6265502 0.88012093 0.80878329 1.0967282e-38
-1.6272552 0.88768321 0.81242114 1.1151317e-38
-1.620488 0.91417217 0.82847476 1.1428978e-38
-1.6208669 0.9215219 0.83212024 1.1242434e-38
-1.6068381 0.96566319 0.85985851 1.1149515e-38
-1.6023561 0.96992582 0.86365837 1.1427201e-38
-1.6033835 0.97897142 0.86794364 1.078182e-38
-1.6032068 1.0286722 0.89357698 1.0320119e-38
-1.5939894 1.0284411 0.89676201 1.0595987e-38
-1.5950559 1.0377533 0.90117073 1.0320832e-38
-1.5946709 1.0446783 0.90487152 1.0413029e-38
-1.5975575 1.0552422 0.90927172 1.0507034e-38
-1.5977113 1.0598321 0.91157788 8.2028523e-39
-1.596038 1.0641298 0.91438878 1.0229e-38
-1.5947058 1.0718082 0.91881675 1.1426824e-38
-1.5888125 1.0729696 0.92152667 1.0137163e-38
-1.5908229 1.092056 0.93062556 1.2533184e-38
-1.6180496 0.87500191 0.80919671 1.1428983e-38
-1.6165278 0.88217312 0.8134315 1.1151679e-38
-1.6148777 0.88760877 0.81681955 1.1427544e-38
-1.6171426 0.89660484 0.82063603 1.1335707e-38
-1.6194961 0.90649343 0.82487988 1.1610844e-38
-1.6169807 0.91252166 0.82888287 1.0967286e-38
-1.6128159 0.91572529 0.83202398 1.087473e-38
-1.5971874 0.97093767 0.86603153 9.3988745e-39
-1.5946264 0.99065143 0.87709183 1.1058399e-38
-1.5903841 1.0177433 0.89255071 1.0780741e-38
-1.5863907 1.0301098 0.90034443 1.2811206e-38
-1.5868644 1.0358853 0.90314591 8.845342e-39
-1.586828 1.0422776 0.90644765 1.1518658e-38
-1.5873467 1.0580915 0.91439766 1.0413387e-38
-1.5863808 1.0637947 0.91767806 1.1059838e-38
-1.5851997 1.0915676 0.93238997 1.2441346e-38
-1.6069769 0.87600464 0.81368136 1.271865e-38
-1.6069191 0.88981885 0.8208093 1.1703415e-38
-1.6046389 0.89543259 0.82451475 1.1887806e-38
-1.6000149 0.90923423 0.83327293 9.9534875e-39
-1.5926728 0.9609651 0.86251903 9.4903443e-39
-1.5817038 0.9744764 0.8734023 1.087329e-38
-1.5822968 0.98926544 0.88079828 1.0873289e-38
-1.5805095 1.0227146 0.8986479 9.0300976e-39
-1.5867302 1.0575724 0.91435152 1.1241714e-38
-1.5846201 1.0632936 0.91805142 1.1150234e-38
-1.6041576 0.88037968 0.81694305 9.4928778e-39
-1.5974287 0.87900883 0.81864971 1.170449e-38
-1.595248 0.88433564 0.82217187 1.3177822e-38
-1.5941031 0.89050782 0.82575786 1.1980359e-38
-1.5973973 0.9004581 0.82969594 1.1705563e-38
-1.5932056 0.90576816 0.83393043 1.1796325e-38
-1.5915709 0.91118735 0.83730459 1.1888521e-38
-1.5866739 0.93426269 0.85093164 1.1425374e-38
-1.5850689 0.9384287 0.85365027 1.1702688e-38
-1.5851011 0.94634676 0.85771233 1.1150236e-38
-1.5864288 0.95625561 0.86233437 1.1334261e-38
-1.5844094 0.95969361 0.86482704 1.1611218e-38
-1.5814714 0.96398497 0.86808801 9.2152049e-39
-1.5789739 0.98747385 0.88106763 1.1886716e-38
-1.5767028 1.0178015 0.89748472 1.161193e-38
-1.5800017 1.0297881 0.90246904 1.0135365e-38
-1.5802431 1.0370055 0.90609562 9.67583e-39
-1.5882993 0.88097286 0.82293254 1.2071476e-38
-1.5869744 0.88741004 0.82671922 1.1796692e-38
-1.5841042 0.89163285 0.82992065 1.1796325e-38
-1.5799923 0.89416641 0.83269799 1.2349505e-38
-1.5810914 0.90170014 0.83617997 1.1979282e-38
-1.582095 0.91038841 0.84029019 1.1610858e-38
-1.5833234 0.91751784 0.84351772 9.9513281e-39
-1.5838449 0.92471671 0.84703451 9.7676543e-39
-1.5779952 0.92829305 0.85097128 1.1703053e-38
-1.5736724 0.93008363 0.85344207 1.2164396e-38
-1.580761 0.9425621 0.85732102 1.2716485e-38
-1.5791179 0.9480263 0.86072117 1.1519378e-38
-1.5767593 0.96228015 0.86889982 1.2071828e-38
-1.5772026 0.9707616 0.87310439 1.1980347e-38
-1.5731596 0.97322434 0.87582082 1.022899e-38
-1.5729195 0.88155347 0.82874423 1.170449e-38
-1.57498 0.89072853 0.83272588 1.3177466e-38
-1.5673132 0.88542241 0.83274412 1.0688893e-38
-2.1191561 1.2683921 0.83196586 5.8958176e-39
-2.1411207 1.4237481 0.90401995 2.7683996e-39
-2.0914793 1.2541218 0.83454484 5.5288245e-39
-2.1075053 1.2809011 0.8425777 5.4369862e-39
-2.095433 1.20581 0.8082723 5.528114e-39
-2.0906537 1.3094167 0.86328876 5.7096326e-39
-2.1077716 1.4238167 0.91600913 1.9386264e-39
-2.0534487 1.1658833 0.80278015 6.4482599e-39
-2.0652428 1.2044415 0.81838989 6.0794801e-39
-2.0148673 1.2935271 0.88227963 5.3390508e-39
-2.0192864 1.306684 0.88746446 4.4206749e-39
-2.0302923 1.4617932 0.96331972 2.1219372e-39
-2.020149 1.4619541 0.96703827 1.385454e-39
-1.9216065 1.2253896 0.88065356 5.8025275e-39
-1.8995131 1.0998282 0.82397437 5.988016e-39
-1.9140451 1.3334852 0.93897676 5.1560917e-39
-1.9170806 1.3455319 0.94408643 5.2479342e-39
-1.9127575 1.3591117 0.95262265 3.6841972e-39
-1.8589113 1.0025053 0.78845757 6.1741869e-39
-1.8790216 1.1713529 0.86811733 5.4341107e-39
-1.8356572 1.1278841 0.86129767 5.8961693e-39
-1.8348196 1.1352036 0.8653636 6.8170396e-39
-1.7514046 0.91905367 0.78405923 8.014508e-39
-1.7644154 1.0359858 0.83955473 8.5691195e-39
-1.7467432 0.95849383 0.80602133 8.4765497e-39
-1.7446109 0.97220594 0.81384021 9.8566199e-39
-1.749931 1.0934577 0.87431455 8.0163114e-39
-1.5783691 1.0418713 0.90927064 1.1332467e-38
-1.7791594 0.93711859 0.78340459 4.974922e-39
-2.1462741 1.326547 0.85216486 8.2046964e-39
-2.1494927 1.3695461 0.8731333 9.0323033e-39
-2.1439068 1.4152726 0.89866078 4.1462936e-39
-2.1443131 1.2717962 0.82469964 9.125215e-39
-2.1395733 1.2753186 0.82821077 7.741926e-39
-2.1483927 1.2998 0.8376447 8.2965277e-39
-2.1468315 1.3197213 0.8484534 8.5720426e-39
-2.149473 1.3700705 0.87340993 6.6366518e-39
-2.152658 1.4059883 0.89074731 5.1615245e-39
-2.148098 1.4112169 0.89507186 5.4381184e-39
-2.1452215 1.2608857 0.81876093 9.6801964e-39
-2.1422284 1.2671144 0.8230384 8.5734817e-39
-2.1436386 1.2775705 0.82791221 8.9411852e-39
-2.1481524 1.2943232 0.83491319 9.6783929e-39
-2.1446605 1.3001567 0.8391661 8.2047048e-39
-2.1426105 1.3087796 0.84433699 9.6783943e-39
-2.1396861 1.3144771 0.84831661 8.3880059e-39
-2.1404841 1.3271923 0.8545723 8.2954529e-39
-2.1490669 1.437609 0.90830261 3.2304484e-39
-2.1369586 1.2460634 0.81409687 7.2820226e-39
-2.1384149 1.2674131 0.82455891 8.2972522e-39
-2.1413932 1.452439 0.91868299 3.5988778e-39
-2.1359718 1.4509881 0.91987985 2.2126937e-39
-2.123847 1.4583555 0.92801642 1.6591584e-39
-2.116348 1.4456255 0.924155 1.1085028e-39
-2.1131837 1.4536302 0.9294076 1.6591598e-39
-2.1049697 1.4568253 0.9339956 1.5648034e-39
-2.0954094 1.4570463 0.93753636 1.7509981e-39
-2.0712628 1.4673748 0.95150536 2.2155776e-39
-2.0498149 1.4460148 0.94820416 7.3756504e-40
-2.0272417 1.4468546 0.9567275 1.2928954e-39
-2.0140681 1.4412731 0.95857799 9.2123183e-40
-2.1354916 1.4742844 0.93203747 1.7531491e-39
-2.1357601 1.4575472 0.92333037 1.3825827e-39
-2.0757005 1.4516995 0.94185013 1.4754818e-39
-2.1544247 1.4494653 0.91248196 3.4137676e-39
-2.1492119 1.3088084 0.84198564 8.9411796e-39
-2.1493282 1.3125477 0.84386772 8.5724013e-39
-1.9498564 1.4542577 0.98827505 3.8700641e-39
-1.954391 1.3675007 0.94201493 2.6722187e-39
-1.9451947 1.333164 0.92764592 4.5118055e-39
-1.9475505 1.3446029 0.93268651 4.2359375e-39
-1.9460822 1.3503319 0.93616021 3.0377642e-39
-1.9498193 1.3675861 0.94369763 3.2232191e-39
-1.9446192 1.3735086 0.94860864 1.4754804e-39
-1.9510106 1.3892323 0.9544071 1.2914577e-39
-1.949585 1.2065179 0.86091572 5.709983e-39
-1.9545965 1.2198055 0.86595541 5.8943672e-39
-1.9543394 1.2653865 0.88949794 5.249002e-39
-1.9409845 1.4047889 0.96600443 2.7838476e-40
-1.9461268 1.4200847 0.97203064 1.7524386e-39
-1.9509794 1.1172738 0.81450164 7.462416e-39
-1.9546745 1.1274067 0.81839019 5.7092669e-39
-1.9472752 1.1401699 0.82760906 4.514318e-39
-1.9494414 1.1619014 0.83801275 5.9872901e-39
-1.9445729 1.1740645 0.84601575 5.8943798e-39
-1.9451914 1.1832315 0.85051024 6.1702338e-39
-1.9422358 1.1915342 0.85584116 6.0787613e-39
-1.943333 1.4247278 0.97542077 8.3047813e-40
-1.9427459 1.084963 0.80082983 6.6319379e-39
-1.942439 1.0946428 0.80591989 6.7237776e-39
-1.9448042 1.1050532 0.81042796 6.6315917e-39
-1.9422262 1.1117649 0.81480515 4.9745717e-39
-1.9440432 1.1212322 0.8190245 6.4482711e-39
-1.9500753 1.1349477 0.82391864 6.1723988e-39
-1.9422262 1.1382098 0.82841039 6.1716814e-39
-1.94559 1.1480237 0.83225369 6.2635099e-39
-1.9554409 1.0834014 0.79547584 5.160042e-39
-1.950078 1.436666 0.97914505 1.1077867e-39
-1.9383262 1.428061 0.97893047 1.5687648e-39
-2.055284 1.459691 0.95327985 2.0279493e-39
-2.1388607 1.4617914 0.92440248 2.0275794e-39
-2.138201 1.4642097 0.925883 2.121217e-39
-2.1228092 1.4689083 0.93381763 2.3052495e-39
-2.1176388 1.4658357 0.9340902 1.8428266e-39
-2.1123812 1.4676858 0.93692654 1.6609591e-39
-2.1084113 1.4679961 0.93850911 1.5680516e-39
-2.0923145 1.4619257 0.94115597 1.660243e-39
-2.0703285 1.4595264 0.94780254 2.1215785e-39
-2.0364759 1.4476388 0.95382106 1.5694767e-39
-2.0709369 1.4614707 0.94858474 1.8446399e-39
-2.0452375 1.4578526 0.95593524 3.5956268e-39
-2.0245087 1.444785 0.95664245 2.3978165e-39
-2.0451117 1.4590895 0.95661664 2.3052495e-39
-2.0187554 1.4517412 0.96228343 1.6616793e-39
-2.0027459 1.4543402 0.96935922 3.413762e-39
-2.0674984 1.4549403 0.94645751 1.0130729e-39
-2.0593278 1.4561825 0.95002532 6.4824768e-40
-2.0569386 1.4604034 0.95305324 1.9379159e-39
-2.0385401 1.4617443 0.96033818 2.7669549e-39
-2.0123112 1.4537916 0.96564817 2.9516951e-39
-2.001735 1.4550335 0.97007835 2.585809e-39
-2.0495489 1.4554991 0.95317894 1.2014215e-39
-2.0336707 1.4484181 0.95522761 7.4044471e-40
-2.0329831 1.4580247 0.9604165 1.7542337e-39
-2.0200288 1.4564153 0.96423179 2.0297472e-39
-1.9872229 1.4511774 0.97329611 2.3985241e-39
-1.9756962 1.4511664 0.97742236 2.0279521e-39
-1.962805 1.4468048 0.97979915 1.9361082e-39
-2.0269663 1.4582233 0.96267521 1.3847337e-39
-2.0037179 1.456184 0.96995932 2.5803986e-39
-1.9878764 1.4532506 0.97412848 2.4892792e-39
-1.9999499 1.4510081 0.96864724 1.9371858e-39
-1.9953852 1.453388 0.97150773 1.291822e-39
-1.9800659 1.4520333 0.97630203 2.4896379e-39
-1.9833111 1.4420829 0.9700194 2.3077718e-39
-1.9697348 1.4404331 0.97403723 1.4776482e-39
-1.9605137 1.450931 0.98274344 2.9520538e-39
-2.1302638 1.4743667 0.9339537 1.6602276e-39
-2.0916703 1.4662702 0.94362217 1.5673257e-39
-2.0733745 1.4589738 0.94642627 1.2925297e-39
-1.9953148 1.4500519 0.96981668 2.5818266e-39
-2.1496735 1.4642659 0.92179978 1.9368369e-39
-1.9486356 1.4447237 0.98380762 3.2279359e-39
-1.8754474 1.0246594 0.79392809 7.551739e-39
-1.8768395 1.0338773 0.7981714 7.5517432e-39
-1.8661876 1.019717 0.79470432 8.7506353e-39
-1.8638083 1.0259435 0.79876071 8.475849e-39
-1.8676537 1.0373669 0.80325943 6.9099653e-39
-1.8492717 1.0242635 0.80310696 8.1077966e-39
-1.8406694 1.024419 0.80627048 7.368784e-39
-1.8275867 1.0289316 0.8132816 7.4617083e-39
-1.815078 1.0186715 0.81248677 7.9223235e-39
-1.816299 1.027653 0.81666982 7.921962e-39
-1.790459 1.0189002 0.82142907 7.831567e-39
-1.7925493 1.0283711 0.82555228 7.6464499e-39
-1.7712293 1.0151939 0.82641524 7.6478876e-39
-1.7718052 1.0254228 0.83147126 8.0148737e-39
-1.7641946 1.0131037 0.82786137 5.6224635e-39
-1.7637205 1.0187953 0.83095944 8.3869002e-39
-1.761832 1.0244397 0.83454031 8.2921739e-39
-1.7543944 1.0122676 0.83094412 8.4762078e-39
-1.7489275 1.0170079 0.83534259 8.5687607e-39
-1.72954 1.0059289 0.83659202 6.634456e-39
-1.7203246 1.0219047 0.84811437 8.7538709e-39
-1.7200911 1.0066456 0.84034771 1.0320836e-38
-1.7103183 1.0080332 0.84456456 9.1237366e-39
-1.709254 1.0152303 0.84864879 9.2148574e-39
-1.6972086 1.0118561 0.85123062 9.7669494e-39
-1.6959305 1.0175351 0.85461038 7.9241214e-39
-1.6881409 1.0044607 0.85067618 8.1081427e-39
-1.6852376 1.0099609 0.85454655 8.1088602e-39
-1.673895 1.014238 0.86081278 9.8609373e-39
-1.6662322 1.0019088 0.85721642 8.3858114e-39
-1.6686357 1.0112582 0.86116493 8.3854499e-39
-1.6549083 1.0124218 0.8666842 8.3858086e-39
-1.6467656 1.0124061 0.86959493 1.2902677e-38
-1.6426985 0.99755484 0.86341214 8.6627528e-39
-1.631772 1.0081176 0.87276286 1.2810127e-38
-1.6182348 1.0050849 0.876055 1.0689616e-38
-1.597132 1.0071681 0.88469106 8.754224e-39
-1.5955834 0.99880743 0.88094497 1.0965487e-38
-1.5925109 1.0039074 0.88467002 1.1519015e-38
-1.5909295 1.0110754 0.88892466 1.0505228e-38
-1.5786042 0.99426532 0.88469422 1.1609772e-38
-1.5811467 1.0021909 0.88786042 1.0964397e-38
-1.7641594 1.0086005 0.82555729 8.1074281e-39
-2.1281731 1.3471532 0.86925459 7.3749343e-39
-2.1256831 1.3543285 0.87383866 7.2816639e-39
-2.1059241 1.3439652 0.87558961 6.5408212e-39
-2.0906918 1.352569 0.88547605 4.7880267e-39
-2.0495465 1.34505 0.89635623 4.7872994e-39
-2.0308542 1.3405254 0.90072864 4.512516e-39
-1.855689 1.2946447 0.93991184 4.2380857e-39
-1.8483882 1.2905691 0.94043213 5.5288189e-39
-1.8437637 1.2945656 0.9441458 5.6210145e-39
-1.8322309 1.2925838 0.9472602 6.1720345e-39
-1.8129588 1.2910126 0.9533599 5.0653254e-39
-1.8175964 1.2836169 0.94789255 6.1727478e-39
-1.8154172 1.2900352 0.95197594 6.2631441e-39
-1.8017595 1.2894087 0.95654911 8.0148653e-39
-1.7894026 1.279441 0.95585018 8.4754917e-39
-2.1472452 1.3475816 0.86263853 6.8206843e-39
-2.1436548 1.347901 0.86408991 8.2032545e-39
-2.1453485 1.3588812 0.86913186 7.8355509e-39
-1.6336361 0.87317187 0.80266809 9.2166623e-39
-1.6066313 0.86742401 0.8093909 1.1798494e-38
-2.1264486 1.3362038 0.86423945 7.2816597e-39
-2.1217129 1.3197377 0.85746557 5.6217516e-39
-2.1114237 1.3296101 0.86623281 6.9092534e-39
-2.108674 1.3367876 0.870911 6.6326553e-39
-2.1081316 1.3189352 0.86192095 5.8011108e-39
-2.1037362 1.3260182 0.86714047 5.5256057e-39
-2.1012764 1.3331199 0.87167579 5.2486545e-39
-2.069206 1.3179977 0.87539142 5.3408445e-39
-2.0581567 1.3262718 0.88360894 4.603641e-39
-2.0463102 1.3235573 0.88645875 4.7876679e-39
-2.0289202 1.3111457 0.8863067 4.7880183e-39
-2.0316133 1.3228405 0.89135808 5.0631772e-39
-2.0136659 1.3189312 0.89578009 4.5128747e-39
-1.9930881 1.3161428 0.90172166 2.85624e-39
-1.9692644 1.3049657 0.90451086 4.5125104e-39
