# .PCD v0.7 - Point Cloud Data file format
VERSION 0.7
FIELDS x y z rgb
SIZE 4 4 4 4
TYPE F F F F
COUNT 1 1 1 1
WIDTH 1055
HEIGHT 1
VIEWPOINT 0 0 0 1 0 0 0
POINTS 1055
DATA ascii
2.4347458 0.89264458 -1.1467505 2.2958155e-38
2.4341006 0.89990556 -1.141202 2.2958514e-38
2.4334555 0.9071666 -1.1356534 2.3050349e-38
2.4343801 0.91561323 -1.1347369 2.3509886e-38
2.4348466 0.92369097 -1.1324803 2.3050708e-38
2.4362669 0.93586653 -1.1314496 2.3509886e-38
2.4350383 0.9394393 -1.1257063 2.3509886e-38
2.4346683 0.94683051 -1.1210059 2.3509886e-38
2.4377408 0.99291348 -1.1094886 2.3509886e-38
2.4435139 1.0116096 -1.1197821 2.2589737e-38
2.444885 1.0228056 -1.1190498 1.7890701e-38
2.4443099 1.0304278 -1.1135632 1.5684497e-38
2.4077415 0.57416981 -1.2072672 2.3509886e-38
2.4193113 0.60561758 -1.2307307 2.3509886e-38
2.4317114 0.76092833 -1.198676 2.3509886e-38
2.4419851 0.78289658 -1.2223129 2.3509886e-38
2.4422255 0.80817449 -1.2112168 2.3509886e-38
2.441628 0.83296907 -1.197578 2.3509886e-38
2.4373391 0.84595805 -1.1772869 2.3509886e-38
2.4380615 0.86211175 -1.1720773 2.3509886e-38
2.437449 0.86921418 -1.1667101 2.3509886e-38
2.4402189 0.8824544 -1.1696417 2.157378e-38
2.434767 0.89732462 -1.1446195 2.3509886e-38
2.4343996 0.90466273 -1.1399528 2.3509886e-38
2.4366722 0.918208 -1.1410959 2.3509886e-38
2.4383686 0.92758101 -1.142296 2.3509886e-38
2.4404879 0.94186074 -1.1425864 2.3509886e-38
2.4376283 0.94236344 -1.1328949 2.3509886e-38
2.4404368 0.97098261 -1.1287187 2.3509886e-38
2.4469428 0.99888676 -1.1371056 2.3509886e-38
2.4462264 1.006584 -1.131116 2.2774484e-38
2.446954 1.0166018 -1.1288097 2.2590096e-38
2.4472308 1.0254585 -1.125559 1.549688e-38
2.4466553 1.0330812 -1.1200703 1.4761837e-38
2.4198172 0.45598075 -1.3027911 2.3509886e-38
2.4199326 0.47131714 -1.2959586 2.3509886e-38
2.4172115 0.52787012 -1.2603592 2.3509886e-38
2.4391093 0.7951982 -1.2070172 2.3509886e-38
2.4470341 0.82308102 -1.2201056 2.3509886e-38
2.4413803 0.81950867 -1.2030903 2.3509886e-38
2.4410129 0.82684678 -1.1984236 2.3509886e-38
2.4406452 0.83418483 -1.1937569 2.3509886e-38
2.4402781 0.84152287 -1.18909 2.3509886e-38
2.4399104 0.84886104 -1.1844234 2.3509886e-38
2.439543 0.85619909 -1.1797566 2.3509886e-38
2.4391756 0.86353719 -1.17509 2.3509886e-38
2.4384408 0.87821341 -1.1657563 2.3509886e-38
2.4399734 0.88960904 -1.1654644 2.3509886e-38
2.4394102 0.89705712 -1.1600989 2.3509886e-38
2.4387467 0.90362573 -1.154815 2.268229e-38
2.4380977 0.91090018 -1.1492469 2.2773767e-38
2.4405885 0.93789625 -1.1447836 2.3509886e-38
2.4452724 0.95742607 -1.1510847 2.3509886e-38
2.4516704 1.0152521 -1.1450394 2.2405349e-38
2.4531825 1.0261489 -1.1449128 2.3509886e-38
2.4503367 1.0301846 -1.1336057 1.1446033e-38
2.4245758 0.46042728 -1.3164347 2.3509886e-38
2.4261801 0.48582575 -1.3097922 2.3509886e-38
2.4198859 0.51625055 -1.2746677 2.3509886e-38
2.4402673 0.79301703 -1.2118726 2.3509886e-38
2.4399028 0.80030185 -1.2072395 2.3509886e-38
2.4424233 0.81139767 -1.2103549 2.3509886e-38
2.441812 0.81847304 -1.2050056 2.3509886e-38
2.4441912 0.83005667 -1.2074238 2.3509886e-38
2.4435761 0.83715671 -1.2020494 2.3509886e-38
2.4428492 0.84442604 -1.196227 2.3509886e-38
2.4424818 0.85176414 -1.1915601 2.3509886e-38
2.4421144 0.85910225 -1.1868935 2.3509886e-38
2.441747 0.86644036 -1.1822265 2.3509886e-38
2.4406445 0.88845462 -1.1682264 2.3509886e-38
2.4442031 0.91237569 -1.1687411 2.3509886e-38
2.4544756 1.0277685 -1.1484272 2.1394799e-38
2.454777 1.0352578 -1.1459008 1.3745907e-38
2.4287758 0.46585351 -1.3277695 2.3509886e-38
2.4282417 0.47289625 -1.3226906 2.3509886e-38
2.4224951 0.48782995 -1.2966651 2.3509886e-38
2.4275532 0.54150367 -1.2881417 2.3509886e-38
2.4307835 0.64006519 -1.2524598 2.3509886e-38
2.4450157 0.76688737 -1.239864 2.3509886e-38
2.4439144 0.77404416 -1.2328565 2.3509886e-38
2.4437935 0.78098458 -1.2291915 2.3509886e-38
2.4431849 0.78861415 -1.2235905 2.3509886e-38
2.4478855 0.80304646 -1.2323443 2.3509886e-38
2.4472692 0.81014562 -1.2269673 2.3509886e-38
2.4468904 0.81797677 -1.2220306 2.3509886e-38
2.4461555 0.83265293 -1.212697 2.3509886e-38
2.4457881 0.83999097 -1.2080303 2.3509886e-38
2.4454205 0.84732908 -1.2033637 2.3509886e-38
2.4450531 0.85466719 -1.1986969 2.3509886e-38
2.4446857 0.86200529 -1.1940302 2.3509886e-38
2.4534936 0.88481218 -1.2124262 2.3509886e-38
2.4550104 0.89543217 -1.2124454 2.2404263e-38
2.447989 0.89939702 -1.1873637 2.3509886e-38
2.4476187 0.90678823 -1.1826633 2.3509886e-38
2.4468784 0.92157066 -1.1732622 2.3509886e-38
2.4496422 0.95173478 -1.1682111 2.3326215e-38
2.4513674 0.96310741 -1.1685659 2.3509886e-38
2.4504509 0.96915579 -1.1626906 2.3509886e-38
2.4535444 0.9821645 -1.1667998 2.3509886e-38
2.4565516 1.0136449 -1.1619352 2.3142544e-38
2.4599147 1.0352283 -1.1629032 2.2589378e-38
2.4333253 0.47846863 -1.3368779 2.3509886e-38
2.4316771 0.48435432 -1.3286604 2.3509886e-38
2.4313276 0.49133798 -1.324219 2.3509886e-38
2.4370136 0.51332188 -1.3326795 2.3509886e-38
2.4364698 0.52046204 -1.3275226 2.3509886e-38
2.439487 0.53167129 -1.3322262 2.3509886e-38
2.4491992 0.74938732 -1.2619287 2.3509886e-38
2.4492805 0.77260655 -1.2512751 2.3509886e-38
2.4486644 0.77967936 -1.2459108 2.3509886e-38
2.4501965 0.80620366 -1.238501 2.3509886e-38
2.4490669 0.81217152 -1.2319577 2.3509886e-38
2.4494617 0.82087982 -1.2291675 2.3509886e-38
2.4487269 0.83555603 -1.2198339 2.3509886e-38
2.4483595 0.84289408 -1.2151672 2.3509886e-38
2.4527996 0.85797364 -1.2227557 2.3509886e-38
2.4524295 0.86536491 -1.2180551 2.3509886e-38
2.4520595 0.87275606 -1.2133546 2.3509886e-38
2.4553382 0.88691205 -1.2175372 2.3509886e-38
2.4569681 0.89765126 -1.217875 2.1020969e-38
2.4555459 0.90357083 -1.2103877 2.3509886e-38
2.4505789 0.9023211 -1.1945523 2.3509886e-38
2.4490418 0.90843439 -1.1865937 2.2682649e-38
2.4498389 0.91710353 -1.185151 2.3509886e-38
2.4591491 0.9909569 -1.181197 2.3509886e-38
2.4598572 1.0009074 -1.178857 2.3509886e-38
2.4591854 1.0083874 -1.1731179 2.3509886e-38
2.4601343 1.0173985 -1.1720161 2.3509886e-38
2.4595532 1.0250582 -1.1664917 2.3509886e-38
2.4625442 1.040646 -1.1690488 1.7247103e-38
2.437901 0.49118611 -1.3460256 2.3509886e-38
2.4373593 0.4982942 -1.340892 2.3509886e-38
2.4374647 0.5129838 -1.3343298 2.3509886e-38
2.4433298 0.52822757 -1.3465525 2.3509886e-38
2.4435167 0.53624779 -1.3433979 2.3509886e-38
2.4429696 0.54344684 -1.3382027 2.3509886e-38
2.4403555 0.55361265 -1.3247772 2.3509886e-38
2.4407218 0.64466316 -1.2831584 2.3509886e-38
2.4527678 0.80910665 -1.2456375 2.3509886e-38
2.4524004 0.81644475 -1.2409708 2.3509886e-38
2.4564998 0.83872402 -1.244046 2.3509886e-38
2.4553895 0.86089778 -1.2299442 2.3509886e-38
2.4584377 0.8745954 -1.2335795 2.3509886e-38
2.4615939 0.88751531 -1.2379386 2.3509886e-38
2.4571724 0.88900024 -1.2226192 2.3509886e-38
2.4571495 0.89689952 -1.2188281 2.0005011e-38
2.4583027 0.9158231 -1.2137402 2.2590813e-38
2.4599974 0.92686212 -1.2141516 2.3509886e-38
2.4594214 0.93444204 -1.2086806 2.3509886e-38
2.4621658 0.96715349 -1.2023683 2.240499e-38
2.4599698 0.97604936 -1.1909219 2.2683366e-38
2.4593291 0.98333073 -1.1853787 2.3509886e-38
2.4640627 1.0159307 -1.185696 2.3509886e-38
2.4638593 1.0215511 -1.1823798 2.3509886e-38
2.469677 1.0524826 -1.1870661 1.5401775e-38
2.4357786 0.47319761 -1.3474699 2.3509886e-38
2.4419577 0.51114762 -1.3500507 2.3509886e-38
2.4449718 0.52227443 -1.3547826 2.3509886e-38
2.447377 0.53280222 -1.3577831 2.3509886e-38
2.4433317 0.54381275 -1.339228 2.3509886e-38
2.4579482 0.76087677 -1.2854528 2.3509886e-38
2.4559047 0.81319141 -1.2540882 2.3509886e-38
2.45909 0.84164804 -1.2512342 2.3509886e-38
2.4583495 0.85643059 -1.2418331 2.3509886e-38
2.4564991 0.89338678 -1.2183303 2.3509886e-38
2.4561291 0.900778 -1.2136296 2.3509886e-38
2.4608562 0.91672188 -1.2217605 2.3509886e-38
2.4777772 1.064207 -1.2083355 1.6236945e-38
2.474076 1.0632861 -1.1965307 1.1528125e-38
2.4894259 1.1979707 -1.1839304 5.7295493e-39
2.4887419 1.2056539 -1.178055 6.4606109e-39
2.4468405 0.48551831 -1.3782516 2.3509886e-38
2.450139 0.52808774 -1.3691334 2.3509886e-38
2.4495885 0.5353002 -1.3639207 2.3509886e-38
2.4490383 0.54251248 -1.358708 2.3509886e-38
2.446342 0.54788554 -1.3472662 2.3509886e-38
2.4500046 0.56472915 -1.3514534 2.3509886e-38
2.4471478 0.62178022 -1.3151711 2.3509886e-38
2.4613664 0.83715779 -1.260874 2.3509886e-38
2.4613097 0.8519634 -1.2537221 2.3509886e-38
2.4657638 0.90965998 -1.2413094 2.037451e-38
2.4619946 0.92681259 -1.220778 2.2681931e-38
2.4627199 0.93456286 -1.2195311 2.3509886e-38
2.4865596 1.0851915 -1.2275034 6.1090475e-39
2.4858868 1.0927554 -1.2217209 2.1612366e-40
2.4927301 1.1763513 -1.205026 1.8904092e-38
2.4938476 1.2051787 -1.195161 2.17625e-38
2.4904785 1.2113751 -1.1811055 2.1574514e-38
2.449034 0.4879896 -1.3843416 2.3509886e-38
2.4553399 0.533939 -1.3835779 2.3509886e-38
2.4546313 0.54392385 -1.3765389 2.3509886e-38
2.4496467 0.62460148 -1.3221068 2.3509886e-38
2.476675 0.9974044 -1.236114 2.2775202e-38
2.4788427 1.0098267 -1.2374381 2.2132353e-38
2.4842384 1.0290626 -1.2462312 2.3509886e-38
2.4776719 1.024562 -1.226635 2.3509886e-38
2.4844248 1.0540701 -1.2350843 2.2867037e-38
2.4837563 1.0615749 -1.2293433 2.2958873e-38
2.4910724 1.108032 -1.231681 2.3234379e-38
2.4946399 1.178534 -1.2103132 2.2130918e-38
2.4928901 1.1887527 -1.1997226 2.3509886e-38
2.4930897 1.1974115 -1.1963086 2.1578829e-38
2.4921038 1.2044564 -1.1897355 2.3509886e-38
2.4956143 1.2201124 -1.1939777 1.9000968e-38
2.4512258 0.49045917 -1.3904275 2.3509886e-38
2.4506783 0.49762011 -1.3852485 2.3509886e-38
2.4553595 0.56324035 -1.3698602 2.3509886e-38
2.4550025 0.57037181 -1.3653249 2.3509886e-38
2.4542882 0.58463454 -1.3562543 2.3509886e-38
2.4554088 0.66210395 -1.323518 2.3509886e-38
2.455049 0.66928554 -1.3189509 2.3509886e-38
2.4802446 0.92312849 -1.2828555 2.2589006e-38
2.4819567 0.94209534 -1.279595 2.3509886e-38
2.4789977 0.94279903 -1.2694795 2.3509886e-38
2.4783719 0.94934368 -1.2643317 2.2682649e-38
2.4775357 0.97260338 -1.2506264 2.3326215e-38
2.4791987 0.9839862 -1.2507701 2.3142544e-38
2.4820392 0.99711466 -1.2539873 2.2958873e-38
2.4878371 1.0161436 -1.2642074 2.3509886e-38
2.4822335 1.0145198 -1.2464424 2.3142544e-38
2.4823573 1.0234847 -1.2426347 2.3234379e-38
2.4854684 1.0367551 -1.24668 2.3509886e-38
2.4850845 1.0444269 -1.2418008 2.3509886e-38
2.4892833 1.061663 -1.2475777 2.2407501e-38
2.4886091 1.0691987 -1.2418032 2.2499695e-38
2.4941931 1.1033221 -1.2442161 2.3509886e-38
2.493803 1.1111151 -1.2392602 2.3509886e-38
2.4939289 1.1312608 -1.2301999 2.157847e-38
2.4960492 1.1481105 -1.2292848 2.1395158e-38
2.4977565 1.1603947 -1.2291522 2.1670306e-38
2.4968214 1.1683033 -1.2223395 2.3509886e-38
2.5016561 1.1950837 -1.2257295 2.3509886e-38
2.5021069 1.204096 -1.2229801 2.0933469e-38
2.5014124 1.211839 -1.2170414 2.0657246e-38
2.5013459 1.2208931 -1.2125624 2.1024229e-38
2.5006485 1.2286421 -1.2066115 1.8079743e-38
2.450881 0.48918247 -1.3898875 2.3509886e-38
2.4547956 0.51773089 -1.3894024 2.3509886e-38
2.4590039 0.64340043 -1.3442044 2.3509886e-38
2.4572058 0.67930835 -1.3213681 2.3509886e-38
2.477181 0.81152886 -1.3252202 2.3509886e-38
2.4801335 0.87226659 -1.3064141 2.3142544e-38
2.47649 0.89022422 -1.2859186 2.341805e-38
2.4783492 0.89963108 -1.2876416 2.3509886e-38
2.4827821 0.92311108 -1.2912545 2.3509886e-38
2.4824035 0.93067068 -1.2864469 2.3509886e-38
2.4820251 0.93823028 -1.2816393 2.3509886e-38
2.4836953 0.94838327 -1.2823856 2.3509886e-38
2.4830353 0.95577502 -1.2767268 2.3509886e-38
2.4823754 0.96316671 -1.271068 2.3142544e-38
2.4823601 0.97128797 -1.2671969 2.2867037e-38
2.4845731 0.98364294 -1.2687025 2.2958873e-38
2.4914365 1.0032203 -1.2821881 2.3509886e-38
2.4922073 1.0224915 -1.2756712 2.2958873e-38
2.4939559 1.0522195 -1.2674688 2.3509886e-38
2.4877727 1.047462 -1.249262 2.3509886e-38
2.4967306 1.0739487 -1.2664237 2.2315307e-38
2.4960492 1.0815433 -1.2605975 2.2315665e-38
2.497314 1.0986123 -1.2567512 2.3509886e-38
2.498863 1.1117449 -1.2556949 2.2590454e-38
2.4977303 1.1271653 -1.2446969 2.249826e-38
2.4957533 1.1297837 -1.2369272 2.3509886e-38
2.495363 1.1375766 -1.2319713 2.3509886e-38
2.4949729 1.1453694 -1.2270153 2.3509886e-38
2.4995728 1.1714096 -1.2299759 2.3509886e-38
2.5071707 1.2039675 -1.2397839 2.1025664e-38
2.4786327 0.82751757 -1.3225005 2.3234379e-38
2.47996 0.84654456 -1.3179393 2.3234379e-38
2.4829972 0.89268994 -1.3062752 2.3142544e-38
2.4917083 0.91278887 -1.3256247 2.3509886e-38
2.4898725 0.94982839 -1.3021312 2.3509886e-38
2.4950433 0.97018749 -1.3096522 2.3509886e-38
2.4900804 0.96662706 -1.2949175 2.2958873e-38
2.499841 0.99035096 -1.3160309 2.3509886e-38
2.4932218 0.99713832 -1.2909521 2.3234379e-38
2.4983835 1.0500675 -1.2831213 2.2867037e-38
2.498491 1.0587406 -1.2793976 2.3509886e-38
2.5054128 1.1184688 -1.2741891 2.2405707e-38
2.5087876 1.1696899 -1.2612545 2.3509886e-38
2.5080073 1.1772279 -1.255129 2.1577753e-38
2.521529 1.2661542 -1.2580086 1.8171561e-38
2.4730532 0.57592183 -1.4223998 2.3509886e-38
2.4857488 0.74706578 -1.3838733 2.3509886e-38
2.4877348 0.81705928 -1.3575162 2.3509886e-38
2.4838703 0.86014926 -1.3244692 2.2958873e-38
2.4892156 0.90641379 -1.3203815 2.3509886e-38
2.4888372 0.91397327 -1.3155739 2.3509886e-38
2.4955635 0.95763189 -1.3172781 2.2958873e-38
2.4948938 0.9651019 -1.3115506 2.2775202e-38
2.5052099 1.0788252 -1.2921668 2.249826e-38
2.5033927 1.0822215 -1.2845604 2.2406783e-38
2.5035558 1.0891926 -1.2818209 2.3509886e-38
2.5021524 1.0938314 -1.2749983 2.1762859e-38
2.5119569 1.1649069 -1.2739843 2.3509886e-38
2.5115607 1.1728208 -1.2689514 2.3509886e-38
2.473386 0.51547372 -1.4519348 2.3509886e-38
2.4723074 0.53701848 -1.4382331 2.3509886e-38
2.4715881 0.55138171 -1.4290987 2.3509886e-38
2.4759507 0.57154948 -1.4340371 2.3509886e-38
2.4751256 0.58825666 -1.4234504 2.3509886e-38
2.4854631 0.81074095 -1.3529775 2.3509886e-38
2.4888673 0.8560124 -1.3429377 2.3509886e-38
2.5026844 0.91933197 -1.3588399 2.3509886e-38
2.5020845 0.92715734 -1.3531756 2.3509886e-38
2.4958549 0.94040775 -1.3263434 2.3050708e-38
2.4953046 0.9479233 -1.3209891 2.2958873e-38
2.4986498 0.9616729 -1.3255825 2.3142544e-38
2.5108542 1.0905654 -1.3053074 2.1761424e-38
2.5102446 1.1076158 -1.2952715 2.2406066e-38
2.5151265 1.1601237 -1.2867141 2.3509886e-38
2.5252523 1.2675884 -1.2696459 1.9553062e-38
2.4755428 0.52549648 -1.4543523 2.3509886e-38
2.4744642 0.54704124 -1.4406506 2.3509886e-38
2.4741046 0.55422288 -1.4360833 2.3509886e-38
2.4774959 0.56774259 -1.440937 2.3142544e-38
2.4785056 0.57603908 -1.4403737 2.3509886e-38
2.4807677 0.6108765 -1.4314661 2.3509886e-38
2.4931643 0.76454681 -1.4001707 2.3509886e-38
2.4946065 0.77500474 -1.4000201 2.3509886e-38
2.4940197 0.78264779 -1.394485 2.3509886e-38
2.4954586 0.79316974 -1.3942933 2.3509886e-38
2.4948707 0.800834 -1.3887442 2.3509886e-38
2.4918783 0.85466141 -1.3535292 2.2958873e-38
2.5014303 0.94170874 -1.3441676 2.2958873e-38
2.4986408 0.9436357 -1.3340378 2.3509886e-38
2.4982598 0.95125133 -1.3291945 2.3509886e-38
2.5063469 1.0230565 -1.3221593 2.3509886e-38
2.5068707 1.0310166 -1.3201473 2.2682649e-38
2.5089042 1.0476325 -1.3190541 2.2682649e-38
2.5119088 1.061281 -1.3225703 2.17625e-38
2.5190434 1.1488618 -1.3049632 2.1117499e-38
2.522543 1.1920147 -1.2962369 2.3509886e-38
2.4767082 0.51831883 -1.4615819 2.3509886e-38
2.4777 0.53551918 -1.4567695 2.3509886e-38
2.4777339 0.54973489 -1.4501947 2.3050708e-38
2.4815855 0.56441945 -1.4560231 2.2958873e-38
2.481319 0.57119709 -1.4519531 2.3509886e-38
2.4807513 0.57857639 -1.4466052 2.3509886e-38
2.4806585 0.58450848 -1.4435085 2.3509886e-38
2.4828737 0.59714663 -1.4448881 2.3509886e-38
2.4823027 0.60456109 -1.4395127 2.3509886e-38
2.5014727 0.80104947 -1.4104726 2.3509886e-38
2.5070975 0.88101155 -1.3914578 2.3509886e-38
2.5041587 0.96071565 -1.3442479 2.2315307e-38
2.509367 1.0332679 -1.3273423 2.1946171e-38
2.5192273 1.0691627 -1.3430607 2.3509886e-38
2.5159845 1.0709491 -1.3314983 2.1486276e-38
2.5170856 1.0907559 -1.3258214 2.1486276e-38
2.5236406 1.1652156 -1.3124719 2.0748364e-38
2.5300725 1.2368513 -1.3000418 2.3509886e-38
2.5296698 1.2448922 -1.2949281 2.3509886e-38
2.4791584 0.53690302 -1.4609411 2.3509886e-38
2.4798567 0.54554194 -1.4591869 2.3509886e-38
2.4859471 0.56838632 -1.4685788 2.3509886e-38
2.4851356 0.59970468 -1.4511635 2.3509886e-38
2.4845641 0.60711956 -1.4457856 2.3509886e-38
2.5008879 0.78237987 -1.4173216 2.3509886e-38
2.5064442 0.79885501 -1.4279437 2.3509886e-38
2.5058506 0.80658191 -1.4223454 2.3509886e-38
2.5043857 0.84747541 -1.3982658 2.3509886e-38
2.5008495 0.87071586 -1.3756417 2.2774843e-38
2.5080268 0.93202084 -1.3705369 2.2130918e-38
2.5088961 0.9659394 -1.3574562 2.3509886e-38
2.5127678 1.0084901 -1.3502426 2.1762141e-38
2.5122674 1.0151068 -1.3454752 2.249826e-38
2.5179298 1.0487719 -1.3483618 2.2405707e-38
2.5195467 1.0677421 -1.3447862 2.2406066e-38
2.5246348 1.1457747 -1.324903 2.3509886e-38
2.5242383 1.1536885 -1.3198702 2.3509886e-38
2.5279903 1.1716225 -1.3238409 2.3509886e-38
2.5273643 1.1797752 -1.3179353 2.3509886e-38
2.5230496 1.1774304 -1.3047713 2.3509886e-38
2.5280397 1.2043207 -1.3086231 2.3509886e-38
2.5276406 1.2122966 -1.3035506 2.3509886e-38
2.5374465 1.2755898 -1.3062017 2.3509886e-38
2.4834521 0.52683842 -1.4798731 2.3509886e-38
2.4882648 0.5395897 -1.4897882 2.3509886e-38
2.4879024 0.54682451 -1.4851871 2.3509886e-38
2.48754 0.55405915 -1.4805861 2.3509886e-38
2.4913256 0.58127475 -1.4803013 2.3509886e-38
2.4892061 0.60436797 -1.4624294 2.3509886e-38
2.5054705 0.86830175 -1.3920567 2.2223112e-38
2.5047972 0.87571913 -1.3863415 2.2038724e-38
2.5169942 0.90298325 -1.4138463 2.3509886e-38
2.509167 0.90821987 -1.3855021 2.2682649e-38
2.508467 0.91587478 -1.3795861 2.2682649e-38
2.5096283 0.92648286 -1.3784364 2.2774484e-38
2.5091558 0.94155872 -1.3697828 2.1855053e-38
2.5164094 0.99357778 -1.3692979 2.3509886e-38
2.5171793 1.0139935 -1.3622404 2.2222036e-38
2.5162492 1.0257117 -1.3536527 2.1577753e-38
2.5203311 1.0422647 -1.3593637 2.3509886e-38
2.5232005 1.0566679 -1.3620764 2.2221678e-38
2.5223327 1.062481 -1.3564717 2.2221678e-38
2.5189886 1.0743134 -1.3398489 2.1118575e-38
2.5282004 1.1330777 -1.3426657 2.3509886e-38
2.5278041 1.1409916 -1.3376328 2.3509886e-38
2.5274076 1.1489055 -1.3326 2.3509886e-38
2.4901586 0.53304195 -1.4991297 2.3509886e-38
2.5083649 0.79208905 -1.437477 2.3509886e-38
2.5147104 0.86416149 -1.4245566 2.3509886e-38
2.5072742 0.87033427 -1.3970636 2.1946889e-38
2.5065989 0.87775099 -1.3913429 2.1946889e-38
2.5116515 0.9020595 -1.396615 2.2590096e-38
2.514442 0.93302691 -1.391275 2.2313872e-38
2.5185215 0.98152405 -1.381952 2.1393723e-38
2.5178285 0.98911345 -1.3760902 2.1577753e-38
2.5171354 0.99670303 -1.3702283 2.1669947e-38
2.5171323 1.0094367 -1.3642282 2.2314231e-38
2.5238423 1.0297619 -1.3768545 2.3509886e-38
2.523452 1.0375549 -1.3718985 2.3509886e-38
2.5215931 1.0427017 -1.363331 2.2222036e-38
2.5205593 1.0492775 -1.3568187 2.1208976e-38
2.5278745 1.0706298 -1.3709638 2.3509886e-38
2.5274816 1.0784817 -1.36597 2.3509886e-38
2.5270882 1.0863336 -1.3609768 2.3509886e-38
2.5321622 1.1124667 -1.3654615 2.3509886e-38
2.5317659 1.1203808 -1.3604283 2.3509886e-38
2.5305772 1.1441224 -1.3453295 2.3509886e-38
2.5394504 1.1850779 -1.3554045 2.010336e-38
2.538723 1.1929862 -1.3492792 2.0103719e-38
2.5405502 1.2057074 -1.349337 2.0195191e-38
2.5393305 1.2303129 -1.3337299 2.3509886e-38
2.4946072 0.55396748 -1.5039964 2.3509886e-38
2.4926124 0.56086284 -1.4941574 2.2590813e-38
2.4932258 0.56923741 -1.4922462 2.2498978e-38
2.4966452 0.5813874 -1.4978368 2.2591172e-38
2.5016272 0.59291637 -1.508888 2.3509886e-38
2.50126 0.60025442 -1.5042211 2.3509886e-38
2.5008924 0.60759258 -1.4995545 2.3509886e-38
2.4978597 0.61344802 -1.4867721 2.2498978e-38
2.5019526 0.62806457 -1.4934293 2.2498619e-38
2.5157299 0.81035084 -1.4532387 2.3509886e-38
2.5115438 0.851753 -1.4199224 2.3509886e-38
2.5097494 0.85676849 -1.4116303 2.1763218e-38
2.5090733 0.86418438 -1.4059061 2.1578829e-38
2.5216403 0.89113343 -1.4347832 2.3509886e-38
2.5132256 0.89563531 -1.404842 2.1761424e-38
2.5146534 0.90539044 -1.4049742 2.3509886e-38
2.5148072 0.91486263 -1.4010267 2.1486276e-38
2.5192659 0.92901397 -1.4091138 2.3509886e-38
2.5188818 0.9366858 -1.4042348 2.3509886e-38
2.5184977 0.94435751 -1.3993558 2.3509886e-38
2.52021 0.95901549 -1.3981229 2.2314231e-38
2.5220084 0.9681043 -1.3997942 2.2313872e-38
2.5369332 0.99726015 -1.4354283 2.3509886e-38
2.5222144 0.99196374 -1.3892517 2.3509886e-38
2.5214403 1.0074254 -1.3794187 2.3509886e-38
2.5269632 1.0250521 -1.3893895 2.3509886e-38
2.5291913 1.0388557 -1.3902639 2.3509886e-38
2.5261827 1.0406379 -1.3794777 2.3509886e-38
2.5257924 1.0484307 -1.3745216 2.3509886e-38
2.5310192 1.0658844 -1.3835934 2.3509886e-38
2.5306258 1.0737361 -1.3786002 2.3509886e-38
2.5302329 1.081588 -1.3736066 2.3509886e-38
2.5298395 1.0894399 -1.3686132 2.3509886e-38
2.5368571 1.1395483 -1.3682462 2.0563975e-38
2.5403714 1.1582359 -1.3710771 2.0379224e-38
2.541357 1.1785052 -1.3648001 2.0195551e-38
2.5492103 1.2203835 -1.3710686 2.3509886e-38
2.5475874 1.252795 -1.3504561 2.3509886e-38
2.5524862 1.2921401 -1.3481463 1.8630029e-38
2.551738 1.30022 -1.3418723 1.9365072e-38
2.4966888 0.54018533 -1.5173624 2.3509886e-38
2.494556 0.54705453 -1.5070784 2.2590454e-38
2.4986713 0.55847824 -1.5153127 2.3509886e-38
2.5000782 0.568066 -1.5154551 2.3509886e-38
2.4978926 0.57476425 -1.5050777 2.2590813e-38
2.5025959 0.58809149 -1.5143595 2.2590813e-38
2.5018065 0.59437799 -1.508792 2.3509886e-38
2.5005267 0.60195696 -1.5009956 2.249826e-38
2.5048649 0.64975494 -1.4928567 2.2406425e-38
2.5041873 0.65716201 -1.4871323 2.249826e-38
2.5224783 0.81054145 -1.4754637 2.3509886e-38
2.521271 0.82615966 -1.4641249 2.3509886e-38
2.5160639 0.86554992 -1.4283786 2.2406425e-38
2.5188475 0.8779406 -1.4317539 2.3509886e-38
2.518466 0.88555622 -1.4269106 2.3509886e-38
2.5180848 0.89317185 -1.4220674 2.3509886e-38
2.5223384 0.92437738 -1.421454 2.3509886e-38
2.5219543 0.9320491 -1.416575 2.3509886e-38
2.5215702 0.93972081 -1.4116958 2.3509886e-38
2.5211895 0.95833361 -1.4016821 2.1210052e-38
2.5260847 0.97182965 -1.41152 2.3509886e-38
2.5256975 0.97956061 -1.4066035 2.3509886e-38
2.524555 1.00185 -1.3923404 2.1116782e-38
2.5263298 1.0135833 -1.3926901 2.1024946e-38
2.5273025 1.0240741 -1.3909717 2.2037289e-38
2.5418117 1.0588249 -1.4226002 2.3509886e-38
2.5345569 1.0532868 -1.4012171 2.3509886e-38
2.5337708 1.0689906 -1.3912299 2.3509886e-38
2.5333774 1.0768424 -1.3862365 2.3509886e-38
2.5329843 1.0846944 -1.381243 2.3509886e-38
2.5384605 1.105209 -1.3897011 2.0472137e-38
2.5373123 1.1266425 -1.3758219 2.3509886e-38
2.5542994 1.2287897 -1.3839417 1.9458341e-38
2.5504267 1.2560006 -1.3583366 2.3509886e-38
2.5568969 1.3028723 -1.3576826 1.8719702e-38
2.5561457 1.3109797 -1.3513855 1.7520464e-38
2.5007467 0.54464847 -1.5286804 2.3509886e-38
2.5039015 0.57235843 -1.5260782 2.3509886e-38
2.5022662 0.57823294 -1.517907 2.3509886e-38
2.5082002 0.59342605 -1.5303816 2.3509886e-38
2.5067701 0.59872252 -1.5231614 2.3509886e-38
2.5089414 0.61066639 -1.5247229 2.3509886e-38
2.5058184 0.61615682 -1.5118136 2.2406425e-38
2.505142 0.62353742 -1.5061058 2.2406425e-38
2.5211349 0.88856912 -1.4343174 2.3509886e-38
2.5207751 0.89720678 -1.4290653 2.130117e-38
2.5254107 0.91974056 -1.433794 2.3509886e-38
2.5250266 0.92741245 -1.4289151 2.3509886e-38
2.5209558 0.93151361 -1.4135252 2.1117499e-38
2.5242584 0.94275588 -1.419157 2.3509886e-38
2.523874 0.95042771 -1.4142783 2.3509886e-38
2.52349 0.95809942 -1.4093993 2.3509886e-38
2.5279427 0.97704792 -1.4152092 2.0932752e-38
2.527082 0.98787308 -1.407271 2.1024946e-38
2.5276322 0.99808055 -1.4042891 2.3509886e-38
2.5272453 1.0058115 -1.3993726 2.3509886e-38
2.5281453 1.0156178 -1.3977356 2.0748721e-38
2.5373082 1.0563931 -1.4088535 2.3509886e-38
2.5369151 1.064245 -1.40386 2.3509886e-38
2.5365222 1.0720971 -1.3988662 2.3509886e-38
2.5361288 1.0799488 -1.3938729 2.3509886e-38
2.5357356 1.0878006 -1.3888793 2.3509886e-38
2.5412743 1.1060315 -1.3986175 2.3509886e-38
2.5396891 1.1376873 -1.3784857 2.3509886e-38
2.549618 1.1817632 -1.3905839 1.9550187e-38
2.5514143 1.1943735 -1.390591 1.9733858e-38
2.5506756 1.2023464 -1.3843988 1.9457635e-38
2.554889 1.2267947 -1.3868297 2.3509886e-38
2.5544832 1.2348976 -1.3816766 2.3234379e-38
2.5588934 1.2879342 -1.3713112 1.7702367e-38
2.5584841 1.296105 -1.3661149 1.5492183e-38
2.5580752 1.3042759 -1.3609184 1.3927746e-38
2.5043273 0.55667484 -1.5348636 2.3509886e-38
2.5055485 0.56654519 -1.5342579 2.3509886e-38
2.508769 0.58693832 -1.5353144 2.2314231e-38
2.5075734 0.59315807 -1.5284357 2.2314231e-38
2.5074162 0.60167319 -1.5239102 2.2314231e-38
2.5080121 0.61049294 -1.521731 2.2314589e-38
2.5106399 0.62079704 -1.5255734 2.3509886e-38
2.5131881 0.64028972 -1.52483 2.3509886e-38
2.527668 0.7909314 -1.5018485 2.3509886e-38
2.5324762 0.83194387 -1.4984549 2.3509886e-38
2.5318666 0.83981603 -1.4927355 2.3509886e-38
2.5249472 0.86873502 -1.4562539 2.3509886e-38
2.5245659 0.8763507 -1.4514107 2.3509886e-38
2.5288675 0.90743208 -1.4510133 2.3509886e-38
2.527596 0.9154889 -1.443019 2.0933111e-38
2.5268986 0.92305148 -1.4371564 2.1024946e-38
2.5273309 0.93811911 -1.4314972 2.3509886e-38
2.5269468 0.94579095 -1.4266183 2.3509886e-38
2.5265627 0.95346272 -1.4217395 2.3509886e-38
2.5315027 0.97794652 -1.4265574 2.3509886e-38
2.5311155 0.98567742 -1.4216408 2.3509886e-38
2.5289018 0.98991907 -1.4123255 2.0656528e-38
2.5377219 1.0216898 -1.4265453 2.0563975e-38
2.541239 1.0359437 -1.4314704 2.3509886e-38
2.535182 1.0352339 -1.4117762 2.038066e-38
2.5530744 1.075067 -1.4522012 2.3509886e-38
2.5524402 1.0832683 -1.4462459 2.3509886e-38
2.5466373 1.1158178 -1.4117471 2.1483759e-38
2.5515134 1.1751361 -1.3999679 1.9825691e-38
2.5572186 1.2037575 -1.4053688 1.8904455e-38
2.552614 1.2028328 -1.3905795 2.0563975e-38
2.5522115 1.2108738 -1.3854656 1.9364374e-38
2.5071476 0.55174625 -1.5465068 2.3509886e-38
2.5065701 0.55920285 -1.54109 2.3509886e-38
2.5133827 0.5751763 -1.5561018 2.3509886e-38
2.5103474 0.58061451 -1.5435083 2.2314231e-38
2.5145338 0.59886813 -1.5487636 2.2222036e-38
2.5148172 0.61006606 -1.5444343 2.2313872e-38
2.5168133 0.61788166 -1.5473578 2.3509886e-38
2.5151539 0.62686872 -1.5376436 2.2038365e-38
2.5169053 0.65285987 -1.5312083 2.3509886e-38
2.5359097 0.80158097 -1.5240902 2.3509886e-38
2.5352991 0.80945396 -1.518368 2.3509886e-38
2.5346885 0.81732678 -1.5126458 2.3509886e-38
2.5348775 0.83466053 -1.5051175 2.3509886e-38
2.5342672 0.84253347 -1.4993958 2.3509886e-38
2.5346484 0.86226881 -1.4913731 2.2037289e-38
2.5384364 0.87486404 -1.497973 2.3509886e-38
2.5279973 0.86413223 -1.4685038 2.3509886e-38
2.5266068 0.89634728 -1.4487524 2.0840199e-38
2.5300977 0.90997052 -1.4538875 2.0748722e-38
2.5311716 0.91813892 -1.4535955 2.3509886e-38
2.5307872 0.92581075 -1.4487166 2.3509886e-38
2.530019 0.9411543 -1.4389586 2.3509886e-38
2.529635 0.94882607 -1.4340796 2.3509886e-38
2.5321176 0.96829778 -1.4331297 2.0472857e-38
2.5382197 0.98648959 -1.444749 2.0287747e-38
2.5398371 0.99841976 -1.4444853 2.3509886e-38
2.5394468 1.0062126 -1.4395294 2.3509886e-38
2.5390565 1.0140054 -1.4345734 2.3509886e-38
2.5439906 1.0390501 -1.4391069 2.3509886e-38
2.5435972 1.0469019 -1.4341136 2.3509886e-38
2.5484056 1.0806377 -1.4341427 2.3509886e-38
2.5476131 1.0964655 -1.4240769 2.3509886e-38
2.5472167 1.1043794 -1.419044 2.3509886e-38
2.5501611 1.1257957 -1.4187053 2.0194107e-38
2.5519972 1.1386732 -1.4187187 2.2775202e-38
2.5507989 1.1626011 -1.4035015 1.7337177e-38
2.5503993 1.1705769 -1.3984292 1.641631e-38
2.5500002 1.1785529 -1.3933568 1.4666371e-38
2.5550292 1.2140548 -1.3932858 1.1346256e-38
2.5601618 1.2413088 -1.3974377 1.1624282e-38
2.5658472 1.2698867 -1.4027934 1.3006519e-38
2.565438 1.2780576 -1.3975972 1.4387287e-38
2.5216238 0.57645833 -1.5827496 2.3509886e-38
2.5155866 0.58541751 -1.5585718 2.3509886e-38
2.5375209 0.78585893 -1.536813 2.3509886e-38
2.5369108 0.79371226 -1.5311018 2.3509886e-38
2.5411196 0.8256132 -1.5300131 2.3509886e-38
2.5364747 0.82790977 -1.5135736 2.3509886e-38
2.5414701 0.86966807 -1.5104488 2.3509886e-38
2.5311606 0.85993212 -1.4809389 2.0472498e-38
2.5407057 0.88038522 -1.5028794 2.3509886e-38
2.5353963 0.89048696 -1.4805728 2.3509886e-38
2.5350122 0.89815873 -1.4756937 2.3509886e-38
2.5346279 0.9058305 -1.4708147 2.3509886e-38
2.5342441 0.91350228 -1.4659357 2.3509886e-38
2.5392432 0.93767852 -1.4710939 2.3509886e-38
2.5327075 0.94418925 -1.4464197 2.3509886e-38
2.5382922 0.96849591 -1.4534523 2.0195549e-38
2.537581 0.97615314 -1.4474999 2.0287747e-38
2.5451567 1.005625 -1.458686 2.00108e-38
2.5479214 1.0186007 -1.4617239 2.3509886e-38
2.5473762 1.0271118 -1.4559171 2.0011519e-38
2.546742 1.0421565 -1.4467434 2.3509886e-38
2.5534961 1.1034327 -1.4402527 1.7891398e-38
2.5495937 1.1154242 -1.4217077 1.6785805e-38
2.5551913 1.1338527 -1.431548 1.4481624e-38
2.5547917 1.1418287 -1.426476 1.3008995e-38
2.5825613 1.2992884 -1.4442284 1.3370931e-38
2.524214 0.5793823 -1.5899379 2.3509886e-38
2.523844 0.58677363 -1.5852373 2.3509886e-38
2.5234737 0.59416479 -1.5805367 2.3509886e-38
2.519242 0.59841937 -1.5645431 2.2129842e-38
2.5200028 0.60500073 -1.5639632 2.1945812e-38
2.5279663 0.6226759 -1.5819803 2.3509886e-38
2.5275934 0.63012326 -1.5772442 2.3509886e-38
2.5272205 0.63757062 -1.5725079 2.3509886e-38
2.5268474 0.64501798 -1.5677716 2.3509886e-38
2.5264747 0.65246534 -1.5630354 2.3509886e-38
2.5424914 0.7632885 -1.5638654 2.3509886e-38
2.5417337 0.77389807 -1.5563697 2.3509886e-38
2.5441542 0.82043141 -1.5424836 2.3509886e-38
2.5435383 0.82834923 -1.5367235 2.3509886e-38
2.5429227 0.83626693 -1.5309628 2.3509886e-38
2.5384688 0.88585025 -1.4929128 2.3509886e-38
2.5380847 0.8935219 -1.4880338 2.3509886e-38
2.5377004 0.90119374 -1.4831548 2.3509886e-38
2.5373166 0.90886545 -1.4782757 2.3509886e-38
2.542393 0.93598735 -1.4823042 2.019483e-38
2.5416801 0.94364387 -1.4763455 2.0102997e-38
2.5432637 0.95822126 -1.4747248 2.0103356e-38
2.5425503 0.96590322 -1.4687523 2.0196272e-38
2.5425546 0.97439009 -1.4647738 2.0102996e-38
2.5563629 1.0045377 -1.4962513 2.3509886e-38
2.5502446 1.0215375 -1.4680235 2.1207897e-38
2.5502799 1.029559 -1.4643668 2.3509886e-38
2.5546141 1.0557257 -1.4663899 1.6508458e-38
2.5591843 1.1130803 -1.4545225 1.1437373e-38
2.5587847 1.1210563 -1.4494501 1.1344824e-38
2.5583856 1.1290323 -1.4443775 1.1533184e-38
2.574157 1.1844991 -1.4704357 1.0697976e-38
2.5781641 1.2006611 -1.476082 1.3555328e-38
2.5774007 1.2088088 -1.469726 1.3556041e-38
2.5299792 0.58474058 -1.6064801 2.3509886e-38
2.5281949 0.60763347 -1.5898118 2.3509886e-38
2.5296006 0.61750609 -1.5898162 2.3509886e-38
2.530576 0.62562221 -1.5892231 2.3509886e-38
2.5302029 0.63306957 -1.5844871 2.3509886e-38
2.5267417 0.64668036 -1.5666399 2.1761421e-38
2.5281024 0.65838367 -1.5656334 2.1944735e-38
2.5313873 0.6697098 -1.5711682 2.3509886e-38
2.5471883 0.81524628 -1.5549552 2.3509886e-38
2.546572 0.82316482 -1.5491923 2.3509886e-38
2.547956 0.83383691 -1.5487491 2.3509886e-38
2.5473385 0.84177566 -1.5429732 2.3509886e-38
2.5467212 0.84971434 -1.5371971 2.3509886e-38
2.5461035 0.8576532 -1.5314213 2.3509886e-38
2.5553055 0.90898061 -1.537703 2.3326215e-38
2.5540533 0.9250772 -1.5259919 2.3326215e-38
2.5457792 0.9525556 -1.4857072 2.0102997e-38
2.5486178 0.96576655 -1.4888793 2.0102997e-38
2.55831 1.0583745 -1.4773649 1.1254424e-38
2.562778 1.1002839 -1.4724243 1.3558245e-38
2.5748129 1.1285712 -1.4989122 1.2543339e-38
2.5317004 0.59498203 -1.6073545 2.3509886e-38
2.531105 0.60261363 -1.6017959 2.3509886e-38
2.5305097 0.61024517 -1.5962374 2.3509886e-38
2.5353208 0.63230819 -1.6017675 2.3509886e-38
2.5347204 0.6400016 -1.596164 2.3509886e-38
2.5300999 0.64402813 -1.5789914 2.1761422e-38
2.5577633 0.91175872 -1.544524 2.3050349e-38
2.5578849 0.92141521 -1.5403833 2.3234379e-38
2.5508466 0.93748796 -1.5095507 2.1391564e-38
2.5610597 0.96178818 -1.5318898 2.0655093e-38
2.5500238 0.95027369 -1.5008162 1.8536417e-38
2.5475709 0.9545601 -1.4906883 1.4851117e-38
2.5683668 1.012082 -1.5323931 8.9531145e-39
2.567729 1.020287 -1.5264248 8.7683743e-39
2.5618758 1.0456777 -1.4951276 1.3744084e-38
2.5621784 1.0576445 -1.4904993 1.0331715e-38
2.5791237 1.1348225 -1.5102255 1.2821002e-38
2.5835207 1.1797007 -1.5036548 1.3742254e-38
2.5886729 1.2078934 -1.5074289 1.4387604e-38
2.5348184 0.61507052 -1.6082153 2.3509886e-38
2.5361681 0.62406743 -1.6084454 2.3509886e-38
2.533392 0.63113225 -1.5959425 2.1485197e-38
2.5364509 0.65032983 -1.5970273 2.3509886e-38
2.5343034 0.66130418 -1.5847642 2.3509886e-38
2.5499234 0.90220088 -1.5230968 1.7799208e-38
2.5648093 0.94080454 -1.554159 1.0333535e-38
2.5647993 0.94835764 -1.5505725 1.0149868e-38
2.5566123 0.95149189 -1.5220279 1.1164383e-38
2.5574663 0.96019059 -1.5207601 8.7651093e-39
2.5608928 0.99176657 -1.5172372 1.3191981e-38
2.5752685 1.0218217 -1.5506337 1.4482711e-38
2.5646486 1.0488085 -1.5028244 1.4761101e-38
2.5801349 1.1078686 -1.5262486 1.4293258e-38
2.5817597 1.1199259 -1.5259498 1.3741525e-38
2.5809991 1.1280049 -1.519635 1.3557847e-38
2.5869424 1.15653 -1.5258688 1.5125169e-38
2.5835772 1.1602008 -1.5130141 1.5124807e-38
2.585891 1.1716578 -1.5152752 1.807509e-38
2.5343325 0.60625368 -1.6107553 2.3509886e-38
2.5429592 0.66339761 -1.6123998 2.3509886e-38
2.541832 0.6859079 -1.598084 2.3509886e-38
2.5606029 0.84096766 -1.5872129 2.3234379e-38
2.5582075 0.84473902 -1.5775187 2.2221319e-38
2.5578206 0.85246992 -1.572602 2.0288469e-38
2.5644307 0.97916913 -1.5348607 1.5405035e-38
2.5640376 0.98702103 -1.5298672 1.5498666e-38
2.5631824 0.99501419 -1.5232799 1.3098311e-38
2.5648463 1.006593 -1.5233349 1.2637341e-38
2.5770769 1.0710623 -1.5334502 1.5860216e-38
2.5851507 1.0969372 -1.5479751 1.6228985e-38
2.5869973 1.1093328 -1.5482503 1.6228622e-38
2.5912089 1.1258652 -1.5543998 1.9179985e-38
2.5908 1.1340361 -1.5492034 1.8718656e-38
2.5903907 1.1422069 -1.5440072 1.8167643e-38
2.5899816 1.1503778 -1.5388108 1.8258402e-38
2.5365453 0.583938 -1.6285696 2.2958873e-38
2.5393164 0.62118089 -1.620213 2.1300802e-38
2.567369 0.84964114 -1.6055052 1.3100853e-38
2.5628393 0.85157609 -1.5896174 1.1348767e-38
2.5589812 0.88645154 -1.5604545 1.2731011e-38
2.574158 0.97593111 -1.5685474 1.4945145e-38
2.574477 0.9937647 -1.5612137 1.5030103e-38
2.5673971 1.0007946 -1.534497 1.4479785e-38
2.5836833 1.0442929 -1.5678867 1.6875438e-38
2.5901811 1.0611758 -1.5814301 2.09306e-38
2.5897751 1.0692786 -1.576277 2.1020641e-38
2.5814116 1.0683302 -1.5490681 1.7333897e-38
2.588558 1.0935874 -1.5608175 1.9824986e-38
2.5937724 1.1101484 -1.5702686 1.7425734e-38
2.5944812 1.120927 -1.5675428 1.9088509e-38
2.5940721 1.1290977 -1.5623465 1.8811209e-38
2.593663 1.1372688 -1.5571501 1.8626103e-38
2.5932539 1.1454395 -1.5519538 1.853642e-38
2.5928447 1.1536102 -1.5467573 1.8626103e-38
2.5704474 0.84435636 -1.6181695 9.5088302e-39
2.5763769 0.86136144 -1.6297773 1.0245669e-38
2.5698771 0.85943383 -1.6091924 1.4296889e-38
2.5751059 0.87760311 -1.6179352 1.1903393e-38
2.5690968 0.87501949 -1.5992805 1.5589419e-38
2.5753922 0.93778718 -1.5905712 1.2546218e-38
2.5818686 0.95529079 -1.6037527 1.3281993e-38
2.5844696 0.9663946 -1.6071296 1.5493982e-38
2.5838242 0.97465128 -1.6011118 1.6230101e-38
2.5828803 0.99713123 -1.5874161 1.7426799e-38
2.5870361 1.0214789 -1.5897048 1.8349478e-38
2.5820954 1.0229478 -1.5726767 1.8442034e-38
2.5938318 1.0481755 -1.599617 2.2128048e-38
2.5913334 1.0648607 -1.5835081 1.7610482e-38
2.5905681 1.0729392 -1.5771768 1.6965121e-38
2.5922444 1.0883195 -1.5754846 1.7611925e-38
2.5964363 1.10413 -1.5819085 1.6506297e-38
2.5977535 1.1159887 -1.5806859 2.0653299e-38
2.5948918 1.1204234 -1.5691371 1.6781091e-38
2.5438786 0.5919404 -1.6490532 2.2591531e-38
2.5541923 0.64519054 -1.6581067 2.2591172e-38
2.5535805 0.65297067 -1.6524256 2.2683366e-38
2.5578909 0.70328313 -1.6430107 1.936545e-38
2.5564864 0.71031946 -1.635057 1.7246037e-38
2.5762148 0.85997677 -1.6298925 1.2823166e-38
2.572608 0.86251682 -1.6167715 1.5313555e-38
2.5770099 0.90211719 -1.6126988 1.6878717e-38
2.5766168 0.90996909 -1.6077052 1.8813002e-38
2.5812976 0.9458617 -1.6062995 1.6967634e-38
2.580893 0.95845109 -1.5990398 2.1484482e-38
2.5820196 0.96818131 -1.5981873 1.7611194e-38
2.5863366 0.98362553 -1.6051973 2.09306e-38
2.5859373 0.99160147 -1.6001248 2.0469987e-38
2.5855379 0.99957734 -1.5950522 2.3509886e-38
2.5863791 1.0108702 -1.592522 1.8993764e-38
2.5912588 1.0255808 -1.6017381 2.1484124e-38
2.594707 1.0418453 -1.6054882 1.7797031e-38
2.5966711 1.0513811 -1.6074976 2.1299735e-38
2.593173 1.058002 -1.5928167 1.6597415e-38
2.5954537 1.0756897 -1.5920382 2.0010092e-38
2.5982909 1.0971978 -1.5913017 1.6875439e-38
2.6019108 1.1215845 -1.5918 1.7150221e-38
2.6002078 1.1273919 -1.5834359 1.8626103e-38
2.5522661 0.61784565 -1.6646016 2.268229e-38
2.5817225 0.84088528 -1.6570851 1.4113934e-38
2.5761189 0.85001403 -1.6342622 1.7431524e-38
2.579371 0.87169945 -1.6348144 1.6045324e-38
2.5795915 0.88041151 -1.6314454 1.7519377e-38
2.5805476 0.88951975 -1.6303222 2.1485917e-38
2.5801542 0.89737165 -1.6253288 2.1667795e-38
2.579761 0.90522355 -1.6203352 2.1668871e-38
2.5846183 0.92339039 -1.6278502 1.797926e-38
2.5852513 0.92992628 -1.6268682 2.1114271e-38
2.5848548 0.93784028 -1.6218354 2.0562899e-38
2.5920017 0.96415281 -1.6330887 1.6873644e-38
2.5899303 0.97082907 -1.6230991 2.1576318e-38
2.5895307 0.97880501 -1.6180267 2.0654734e-38
2.5940065 1.0034436 -1.621237 1.6875081e-38
2.593241 1.0114739 -1.6149276 1.9821361e-38
2.5907094 1.0167601 -1.6040705 1.779811e-38
2.5965674 1.0439528 -1.6106496 1.7428965e-38
2.5995104 1.0545866 -1.6153781 2.0653658e-38
2.5991049 1.0626897 -1.610225 1.9271821e-38
2.5982933 1.0788954 -1.5999187 2.0192687e-38
2.5978875 1.0869985 -1.5947654 2.0287392e-38
2.6042979 1.106112 -1.6069717 2.000794e-38
2.603889 1.114283 -1.6017752 1.9456568e-38
2.5657415 0.72972924 -1.6565295 1.5679451e-38
2.5848229 0.83554161 -1.6698496 1.8166206e-38
2.5823858 0.87506211 -1.6432015 1.8903369e-38
2.5836921 0.88477415 -1.6429521 2.028524e-38
2.5832989 0.89262611 -1.6379586 2.0658322e-38
2.5871809 0.90880156 -1.6431851 1.7980698e-38
2.5884206 0.9251433 -1.639598 2.0745494e-38
2.5880244 0.93305719 -1.6345651 2.2128048e-38
2.5914521 0.95391393 -1.6360888 1.7240981e-38
2.5931244 0.9660086 -1.6359285 1.982678e-38
2.5973763 0.98056835 -1.6431398 1.7887775e-38
2.5966094 0.98859864 -1.6368256 1.7702678e-38
2.5958421 0.99662912 -1.6305116 1.7610123e-38
2.5951209 1.0136137 -1.6201376 1.9730246e-38
2.5968118 1.0254014 -1.6201832 1.7244944e-38
2.5960426 1.033456 -1.6138513 1.6969074e-38
2.6026893 1.0527225 -1.6267666 1.7151662e-38
2.6019135 1.0608435 -1.6203799 1.715022e-38
2.6009867 1.0719917 -1.6120722 1.6598847e-38
2.5938339 0.84694564 -1.694281 1.9826063e-38
2.5953729 0.85803306 -1.6941543 2.074657e-38
2.5955582 0.86694628 -1.6905742 1.8166896e-38
2.5878415 0.86487907 -1.6660308 1.7795224e-38
2.5829368 0.86706948 -1.6487828 1.8257277e-38
2.5927789 0.89661843 -1.6674265 2.0284881e-38
2.5923824 0.90453237 -1.6623936 2.1854336e-38
2.5980675 0.92360634 -1.6722188 1.7889219e-38
2.5979161 0.92928433 -1.6690476 2.1116782e-38
2.5975168 0.93726027 -1.6639752 2.0195198e-38
2.5967181 0.95321202 -1.6538303 2.0192687e-38
2.5963185 0.96118808 -1.6487582 2.0193405e-38
2.6021276 0.98687869 -1.655881 2.1483765e-38
2.6017251 0.99491954 -1.6507673 2.0009734e-38
2.6013224 1.0029603 -1.6456536 2.028524e-38
2.600517 1.0190423 -1.6354262 2.1760706e-38
2.6001143 1.027083 -1.6303126 2.0009016e-38
2.6047833 1.069101 -1.6259862 1.9271821e-38
2.5947969 0.81814998 -1.7110101 1.8995597e-38
2.592068 0.82418138 -1.6991497 1.7611935e-38
2.5923402 0.82817161 -1.6981732 2.0377793e-38
2.5918703 0.8346082 -1.6935918 1.7978893e-38
2.5934885 0.84558344 -1.6937799 1.7335693e-38
2.5975335 0.86017972 -1.7002882 2.1206824e-38
2.597137 0.86809373 -1.6952553 2.0746211e-38
2.5967407 0.87600756 -1.6902221 2.1392288e-38
2.5912602 0.87798524 -1.67117 1.8164727e-38
2.5959482 0.89183545 -1.6801562 1.9917181e-38
2.595552 0.89974934 -1.6751233 2.0007581e-38
2.6050274 0.92379826 -1.6951423 1.8625346e-38
2.6011105 0.92446381 -1.6818771 2.111714e-38
2.6007111 0.93243974 -1.6768045 2.1023511e-38
2.6059837 0.95230174 -1.6848962 1.7334973e-38
2.6050651 0.96332479 -1.6766737 1.7887785e-38
2.606636 0.97478008 -1.6764792 1.7516489e-38
2.6035216 0.97943461 -1.6639926 1.6415905e-38
2.6079006 0.99482322 -1.6712326 1.7701236e-38
2.6094551 1.0063803 -1.670936 1.7149147e-38
2.6086762 1.0145018 -1.6645411 1.7150939e-38
2.6104491 1.0264611 -1.6647769 1.7055869e-38
2.6096513 1.031792 -1.6596323 2.1115347e-38
2.6092458 1.0398951 -1.6544793 1.963988e-38
2.6084342 1.0561008 -1.6441729 2.0469628e-38
2.6149333 1.0749555 -1.6567931 1.8626817e-38
2.3826392 0.55282164 -1.1343069 2.3509886e-38
2.3876841 0.6780135 -1.0920997 2.3509886e-38
2.3869789 0.68483013 -1.0865613 2.3509886e-38
2.3899443 0.69724423 -1.0905269 2.3509886e-38
2.3911316 0.74003375 -1.0743243 2.3509886e-38
2.3901641 0.77263004 -1.0557932 2.3509886e-38
2.384299 0.80316162 -1.0220375 2.3509886e-38
2.3812809 0.81419355 -1.0068686 2.1849644e-38
2.3809664 0.82151383 -1.0023855 2.2404984e-38
2.3802533 0.82839358 -0.99679106 2.3050708e-38
2.37954 0.83527356 -0.99119657 2.3234379e-38
2.3785069 0.84471148 -0.98334092 2.2958514e-38
2.3804367 0.85636979 -0.98423845 2.2775202e-38
2.3782544 0.91817832 -0.94794869 2.2313872e-38
2.386236 0.50197601 -1.1701176 2.3509886e-38
2.3944566 0.7279036 -1.0910251 2.3509886e-38
2.3892984 0.80260772 -1.038829 2.3509886e-38
2.3811359 0.83706111 -0.99563277 2.286632e-38
2.3843462 0.8541382 -0.99821442 2.2774843e-38
2.3836277 0.86106592 -0.99258012 2.2958873e-38
2.3827519 0.89221442 -0.97503257 2.2774484e-38
2.3835518 0.90151006 -0.97330475 2.3509886e-38
2.3813097 0.90610272 -0.96373111 2.2590096e-38
2.3832073 0.91803753 -0.96439081 2.2498619e-38
2.3840694 0.92807281 -0.96252137 2.2314589e-38
2.3938854 0.51841992 -1.1876754 2.3509886e-38
2.3927314 0.54993004 -1.169037 2.3509886e-38
2.3947001 0.56001264 -1.1708045 2.3509886e-38
2.4011111 0.82078248 -1.0693395 2.3509886e-38
2.398119 0.82371181 -1.0580674 2.3509886e-38
2.3971133 0.57049781 -1.1738521 2.3509886e-38
2.410428 0.48398924 -1.2585713 2.3509886e-38
2.4112663 0.49338925 -1.2569205 2.3509886e-38
2.4078581 0.49706823 -1.2439207 2.3509886e-38
2.402585 0.58492917 -1.1851562 2.3509886e-38
2.4115713 0.75108206 -1.1367122 2.3509886e-38
2.4083169 0.78181833 -1.1114937 2.3509886e-38
2.3991723 0.84832209 -1.0499734 2.2867037e-38
2.3984456 0.85531265 -1.0442822 2.2774125e-38
2.4171522 0.73451787 -1.1629583 2.3509886e-38
2.4052045 0.85783577 -1.0654448 2.2590813e-38
2.4182217 0.86886412 -1.1032993 2.3509886e-38
2.4346507 0.82489407 -1.1783049 2.3509886e-38
2.4242918 0.95484513 -1.0829257 2.2037645e-38
2.4227815 0.96931165 -1.0711268 1.8914846e-38
2.4323094 0.46071452 -1.3418709 2.3509886e-38
2.4412255 0.83467281 -1.1954454 2.3509886e-38
2.4404676 0.84194189 -1.1895201 2.3509886e-38
2.431082 1.0007312 -1.0837935 2.2223112e-38
2.4283667 0.95134526 -1.0980462 2.3509886e-38
2.4452219 0.73590821 -1.2551179 2.3509886e-38
2.4501724 0.77977359 -1.2508533 2.3509886e-38
2.4486563 0.79430836 -1.2390031 2.3509886e-38
2.4478981 0.8015759 -1.233078 2.3509886e-38
2.4348764 0.96206242 -1.1145295 2.3509886e-38
2.4505198 0.73474145 -1.2731848 2.3509886e-38
2.4466295 0.94256729 -1.1625619 2.2222754e-38
2.4439549 0.96754044 -1.1419715 2.3509886e-38
2.455255 0.4864268 -1.405647 2.3509886e-38
2.4515877 0.89845979 -1.1997042 2.0835135e-38
2.4588082 0.94427854 -1.2020258 2.2406425e-38
2.4569106 1.0238764 -1.1583093 2.1945095e-38
2.4811585 0.78460282 -1.3510388 2.3509886e-38
2.4979644 1.1575761 -1.2311649 2.9513616e-39
2.5030029 1.1322625 -1.2597324 9.4097192e-42
2.4833786 0.51564127 -1.4848975 2.2591531e-38
2.4948814 0.99168563 -1.2990042 2.3509886e-38
2.4986522 1.1982678 -1.2142982 1.9273947e-38
2.5068803 1.2531835 -1.215673 5.7187621e-39
2.5113127 1.2605913 -1.2268444 4.0917915e-42
2.5139236 1.2642204 -1.2337713 4.6102719e-43
2.5000625 0.635346 -1.4837551 2.2223112e-38
2.5174925 1.2088956 -1.2715964 2.3509886e-38
2.5219014 1.2788336 -1.2532765 8.5479206e-44
2.5018225 0.53692979 -1.5358685 2.3509886e-38
2.5142848 1.0292957 -1.3454719 2.2314589e-38
2.5289977 1.243323 -1.2934443 2.102387e-38
2.5421114 1.1790299 -1.3670481 2.1116423e-38
2.5432432 1.2006966 -1.3605982 2.1024586e-38
2.54493 1.1251888 -1.4016937 2.1116423e-38
2.5504334 1.1818892 -1.3932202 2.3509886e-38
2.5543382 1.167644 -1.4128327 2.3234379e-38
2.5616238 1.0604371 -1.4873515 2.3509886e-38
2.5502496 0.58934867 -1.6713381 2.1855053e-38
2.5489161 0.61527199 -1.6547347 1.9460496e-38
2.5606441 1.0481045 -1.4899139 1.4665285e-38
2.5524213 0.5917964 -1.6773678 2.2314231e-38
2.575995 0.92935789 -1.5965285 1.2360387e-38
2.5845749 0.94124085 -1.61931 1.2268554e-38
2.5794246 0.63137192 -1.7480395 1.1439855e-38
2.5785947 0.63920891 -1.7416096 1.134767e-38
2.5769355 0.65488303 -1.7287502 1.1437705e-38
2.5761058 0.66272014 -1.7223202 1.1806846e-38
2.5752761 0.6705572 -1.7158903 1.1714646e-38
2.5897925 0.83195609 -1.687968 1.6873298e-38
2.5867219 0.62861401 -1.773466 1.6692521e-38
2.5859733 0.6367026 -1.7671856 1.6600316e-38
2.5833673 0.64446014 -1.7549194 1.5769102e-38
2.5861056 0.65621442 -1.758445 1.6138235e-38
2.5816998 0.66019058 -1.7420068 1.6505944e-38
2.5808661 0.66805589 -1.73555 1.5769455e-38
2.5800323 0.67592108 -1.7290938 1.5677985e-38
2.5827579 0.68782198 -1.7325084 1.5494311e-38
2.5895739 0.62960947 -1.7824273 1.6783964e-38
2.5919209 0.64497149 -1.7829622 1.6229713e-38
2.5934017 0.66268456 -1.7795262 1.7427928e-38
2.5929637 0.67266017 -1.7733855 1.6782169e-38
2.5976701 0.82318169 -1.7181442 1.6598146e-38
2.5987945 0.8523528 -1.7081397 1.6507387e-38
2.5913477 0.63160127 -1.7873561 1.5676547e-38
2.6146913 0.68777311 -1.8381206 1.5216284e-38
2.6289866 0.69275153 -1.8830473 1.7150978e-38
2.6286786 0.70318848 -1.8771182 1.4756023e-38
2.6278062 0.71137875 -1.870381 1.6598128e-38
2.6322486 0.68887299 -1.8956577 1.6137881e-38
2.631376 0.69706261 -1.8889197 1.6229362e-38
2.6392853 0.68300754 -1.9216835 1.6044964e-38
2.6379249 0.6950497 -1.9115211 1.5952771e-38
2.6449437 0.69173169 -1.9362892 1.5308868e-38
2.6432152 0.70082921 -1.9262948 1.5676909e-38
2.3916616 0.77367103 -1.0602545 2.3509886e-38
2.3946507 0.76043469 -1.0763644 2.3509886e-38
2.397357 0.80385393 -1.064889 2.3509886e-38
2.3980052 0.81459361 -1.0619807 2.3509886e-38
2.3983881 0.82394755 -1.058847 2.3509886e-38
2.3975267 0.7560944 -1.0879164 2.3509886e-38
2.3972797 0.77215344 -1.0795453 2.3509886e-38
2.3963141 0.67905235 -1.1201468 2.3509886e-38
2.3957808 0.68617457 -1.1150328 2.3509886e-38
2.4003766 0.73575699 -1.1069056 2.3509886e-38
2.4035141 0.7878741 -1.0927645 2.3509886e-38
2.4003479 0.68422377 -1.1310525 2.3509886e-38
2.4017644 0.70543742 -1.1257575 2.3509886e-38
2.4025159 0.72256768 -1.1201837 2.3509886e-38
2.4054379 0.76693237 -1.1089766 2.3509886e-38
2.4057343 0.79179925 -1.0982597 2.3509886e-38
2.405277 0.71787959 -1.1315185 2.3509886e-38
2.3938534 0.53236383 -1.1810113 2.3509886e-38
2.394515 0.54400301 -1.1777233 2.3509886e-38
2.4193957 0.84438038 -1.1186982 2.3509886e-38
2.4134912 0.71248943 -1.1612153 2.3509886e-38
2.4162662 0.78965455 -1.1340928 2.3509886e-38
2.4210281 0.83822167 -1.1269929 2.3509886e-38
2.4192662 0.77715456 -1.1498917 2.3509886e-38
2.4050736 0.51313752 -1.2271547 2.3509886e-38
2.4047263 0.52007413 -1.2227435 2.3509886e-38
2.423183 0.75777781 -1.1719576 2.3509886e-38
2.4295487 0.83327627 -1.1574926 2.3509886e-38
2.4289892 0.84070122 -1.1521498 2.3509886e-38
2.428174 0.79739654 -1.1698246 2.3509886e-38
2.4098809 0.49854326 -1.2499149 2.3509886e-38
2.4109135 0.51434833 -1.245895 2.3509886e-38
2.4121141 0.52339017 -1.2456123 2.3509886e-38
2.4310727 0.76066315 -1.1966884 2.3509886e-38
2.432678 0.77049273 -1.1973722 2.3509886e-38
2.4333856 0.78805524 -1.1914508 2.3509886e-38
2.4328279 0.79544765 -1.1861304 2.3509886e-38
2.4117787 0.48573202 -1.2622175 2.3509886e-38
2.4159288 0.53572458 -1.2524235 2.3509886e-38
2.4355137 0.76570022 -1.2090033 2.3509886e-38
2.4363205 0.77608097 -1.2067875 2.3509886e-38
