# .PCD v0.7 - Point Cloud Data file format
VERSION 0.7
FIELDS x y z rgb
SIZE 4 4 4 4
TYPE F F F F
COUNT 1 1 1 1
WIDTH 1050
HEIGHT 1
VIEWPOINT 0 0 0 1 0 0 0
POINTS 1050
DATA ascii
0.62138993 0.54178715 1.9774812 1.2160814e-38
0.61829418 0.54601514 1.9703977 7.9230564e-39
0.61794901 0.54699874 1.9688129 1.1426123e-38
0.61465085 0.55197912 1.9605277 7.2802051e-39
0.61492693 0.55306458 1.9588896 7.2802051e-39
0.61061949 0.55826139 1.9500985 7.2798422e-39
0.61089391 0.55934018 1.9484705 7.6457507e-39
0.60696357 0.56417537 1.9403037 7.6446787e-39
0.60678524 0.56600612 1.9374325 1.0686404e-38
0.60368407 0.5697248 1.9311386 7.6453975e-39
0.60423648 0.5702492 1.9304181 1.0228666e-38
0.60422689 0.57185912 1.9279175 7.2802108e-39
0.60449833 0.57292646 1.9263071 7.2802108e-39
0.60476977 0.57399362 1.9246966 7.3724064e-39
0.60082561 0.57877451 1.9166119 7.3724064e-39
0.60323453 0.57829148 1.9177676 9.5829393e-39
0.60136533 0.58089679 1.9134092 7.3724064e-39
0.59929973 0.58402503 1.9082061 1.1519049e-38
0.59649962 0.58760899 1.9021719 1.0505271e-38
0.59950572 0.58610076 1.9050193 1.0044994e-38
0.59437931 0.5921613 1.8947495 7.556799e-39
0.59314799 0.59391886 1.8918142 9.9528008e-39
0.59068519 0.59792519 1.8851814 7.6489947e-39
0.59095055 0.59896857 1.8836069 8.1996503e-39
0.58736944 0.6033327 1.8762304 8.1996503e-39
0.58805376 0.60415173 1.8750746 1.1240307e-38
0.58789736 0.60540843 1.8730979 7.6489947e-39
0.58426863 0.60938269 1.8663182 1.0689294e-38
0.58457327 0.61078268 1.8641969 7.4642503e-39
0.58483577 0.61181486 1.8626392 8.0141871e-39
0.58509833 0.61284721 1.8610814 8.0149059e-39
0.58150458 0.61716145 1.85378 7.923062e-39
0.5851528 0.61576337 1.8565648 9.9513603e-39
0.58129817 0.6212526 1.8473959 9.7669746e-39
0.6366998 0.51926702 2.0150123 8.1996503e-39
0.63306487 0.52534133 2.0049725 8.4744393e-39
0.63463497 0.52534115 2.0052373 1.2529238e-38
0.63362998 0.52756327 2.0016193 8.1078078e-39
0.62992066 0.53244972 1.9934106 1.0688927e-38
0.62960309 0.533948 1.9910319 8.0152591e-39
0.6255244 0.538544 1.9832112 1.1056267e-38
0.6213569 0.54410958 1.9738711 8.0152591e-39
0.62163454 0.5452013 1.9722239 7.923062e-39
0.62191218 0.54629284 1.9705766 7.464602e-39
0.61797261 0.55116975 1.9623437 7.3727595e-39
0.6182487 0.55225527 1.9607056 7.2802051e-39
0.6175862 0.55455172 1.9570298 1.0320499e-38
0.61419529 0.55853581 1.9502753 7.2798422e-39
0.61049032 0.56294221 1.9428123 1.0319424e-38
0.61643225 0.55936474 1.9493657 9.8580814e-39
0.61079192 0.565521 1.9388608 7.6453975e-39
0.61260325 0.56509656 1.9398248 9.9499183e-39
0.60749263 0.57106346 1.929703 7.7375932e-39
0.61093396 0.5689038 1.9336346 1.0042114e-38
0.60803545 0.57319778 1.926482 7.8301419e-39
0.6064409 0.57540047 1.9227947 1.1150261e-38
0.60434258 0.57904446 1.9167857 7.2802108e-39
0.60438651 0.57974094 1.9157125 1.022796e-38
0.60064352 0.58486676 1.9071263 7.0965454e-39
0.60091186 0.58592176 1.9055341 7.2805877e-39
0.6011802 0.58697665 1.903942 7.4642503e-39
0.59759074 0.59137881 1.8965052 7.5564459e-39
0.59785765 0.59242815 1.8949214 7.5564459e-39
0.59537256 0.59601736 1.8889325 1.0505267e-38
0.59414339 0.59819049 1.8853525 7.5564459e-39
0.59413379 0.59907621 1.8839765 1.0781854e-38
0.59427756 0.60101795 1.8809872 1.0137198e-38
0.59107333 0.60463446 1.8748343 7.74084e-39
0.59445441 0.6030702 1.8778318 1.0228672e-38
0.5877322 0.61001289 1.865924 7.5564459e-39
0.59073645 0.60848874 1.8687959 1.0136475e-38
0.5882678 0.61238253 1.8623369 1.0964442e-38
0.59091187 0.61052978 1.8656576 1.0319783e-38
0.58445883 0.61757594 1.8536346 1.0687489e-38
0.5851689 0.61844933 1.8523989 7.3724064e-39
0.58155262 0.62274557 1.8451217 7.8297888e-39
0.58181232 0.62376672 1.8435806 7.3724064e-39
0.58207208 0.62478799 1.8420395 7.2794919e-39
0.57585305 0.63736552 1.8214713 6.6334008e-39
0.57610995 0.63837558 1.819947 6.8174319e-39
0.57324183 0.64561349 1.8082306 5.8943868e-39
0.64443457 0.51310265 2.0258827 8.1078078e-39
0.64472038 0.5142265 2.0241868 8.1996503e-39
0.64136243 0.51905644 2.0161247 1.1516175e-38
0.63970554 0.52179027 2.0116029 1.1332141e-38
0.636747 0.52562374 2.0051546 8.4744393e-39
0.63702959 0.52673495 2.0034778 8.4747925e-39
0.63731217 0.5278458 2.0018015 8.0156122e-39
0.63298237 0.53312457 1.9928794 7.464602e-39
0.63326323 0.53422886 1.9912127 8.0152591e-39
0.63161159 0.53772199 1.9855131 1.0503448e-38
0.62715554 0.54295516 1.9766402 1.1055913e-38
0.62755024 0.54375041 1.9754726 1.0502731e-38
0.62714952 0.54497302 1.9735079 1.0688927e-38
0.62157029 0.55144578 1.9625216 7.3727595e-39
0.62431586 0.54943889 1.9660993 1.1517597e-38
0.62212241 0.55361688 1.9592454 7.2802051e-39
0.62092781 0.55513686 1.9566851 9.8587919e-39
0.61380172 0.56364834 1.9422742 7.1872963e-39
0.61407459 0.56472117 1.9406554 7.1872963e-39
0.6143474 0.56579387 1.9390365 7.6453975e-39
0.61226743 0.56902343 1.9336737 1.059386e-38
0.61102968 0.57133496 1.929878 7.7375932e-39
0.61090481 0.57226288 1.9284165 1.0503098e-38
0.61157256 0.57346928 1.9266568 7.8301419e-39
0.6075896 0.57825327 1.9185609 7.2802051e-39
0.60785943 0.57931429 1.9169596 7.2802108e-39
0.60812932 0.58037549 1.9153584 7.1869431e-39
0.60414016 0.58513498 1.9072992 7.0965454e-39
0.60707515 0.5844093 1.9089202 1.1426499e-38
0.60080218 0.5905962 1.898261 7.4642503e-39
0.6030311 0.58987087 1.8997624 1.1334662e-38
0.59707081 0.59636921 1.8886725 7.4642503e-39
0.59733617 0.59741271 1.8870981 7.4642503e-39
0.60020787 0.59559143 1.8904083 1.0043922e-38
0.59786689 0.59949929 1.8839489 7.5564459e-39
0.59424919 0.60386062 1.8765706 7.7411959e-39
0.59451312 0.60489851 1.8750044 7.74084e-39
0.59453511 0.60611677 1.8731172 1.0781494e-38
0.59115362 0.61027545 1.8660932 7.6490003e-39
0.59071106 0.61133575 1.864373 1.0597461e-38
0.59167874 0.61233997 1.8629775 8.1063855e-39
0.5919413 0.61337221 1.8614197 8.0152591e-39
0.58831084 0.61768371 1.8541166 7.8301419e-39
0.58857197 0.61871052 1.8525671 7.3724064e-39
0.58493733 0.62300527 1.8452891 7.8297888e-39
0.58673036 0.62331808 1.8451058 1.1333936e-38
0.58545679 0.62504768 1.8422068 7.1872963e-39
0.58397406 0.62748384 1.8381761 1.1334656e-38
0.58446378 0.62963027 1.8349274 9.8591647e-39
0.57971478 0.63964266 1.8185881 6.8188641e-39
0.57631588 0.6448645 1.8099111 6.3560937e-39
0.5765714 0.64586908 1.8083951 6.355365e-39
0.57381135 0.65174419 1.7988119 5.6188789e-39
0.64825386 0.51307458 2.0265701 1.1424692e-38
0.64870685 0.5147531 2.0240414 1.1055541e-38
0.64410478 0.51983523 2.0153785 8.4744393e-39
0.64435416 0.52114105 2.0133941 1.0779679e-38
0.64042944 0.52590644 2.0053365 8.2900481e-39
0.63990313 0.52972823 1.9993163 1.1147747e-38
0.64010006 0.52976537 1.9992923 1.0503092e-38
0.6337471 0.53729492 1.9865359 1.1055913e-38
0.63256651 0.53976679 1.9825006 8.2896809e-39
0.62859285 0.54466492 1.974229 7.923062e-39
0.62887043 0.54575652 1.9725817 8.0145388e-39
0.62914807 0.54684812 1.9709344 7.9223432e-39
0.6251682 0.55172193 1.9626995 7.3727595e-39
0.62571561 0.5533303 1.9602957 1.0687837e-38
0.62107241 0.55800569 1.952257 7.8311957e-39
0.6212638 0.55933255 1.9502298 1.0502715e-38
0.61735743 0.56392127 1.9424502 7.1879997e-39
0.61719251 0.56496894 1.9407963 1.0227581e-38
0.61790311 0.56606668 1.9392123 7.0947419e-39
0.61968654 0.56617361 1.9393469 9.9495582e-39
0.61456698 0.57160628 1.9300528 7.7368743e-39
0.61799163 0.56998187 1.933151 1.0133589e-38
0.61660051 0.57283312 1.9284912 1.0229028e-38
0.61388725 0.57587087 1.9233196 1.0042471e-38
0.61238962 0.5785234 1.9189504 1.0595652e-38
0.60965288 0.58175719 1.9134705 1.1241019e-38
0.60763705 0.58540338 1.9074721 7.0043441e-39
0.60790533 0.58645838 1.90588 7.1890941e-39
0.60428065 0.59086317 1.898433 7.2816429e-39
0.60454756 0.59191257 1.8968493 7.4649551e-39
0.60191995 0.59606379 1.8899639 1.050562e-38
0.60079449 0.59767801 1.887269 7.464602e-39
0.6019069 0.59799021 1.8869721 1.0597463e-38
0.60132521 0.59976476 1.88412 7.6490003e-39
0.59806746 0.60324144 1.8781748 1.0965884e-38
0.59795302 0.60516238 1.8751744 7.7411959e-39
0.59971023 0.60552287 1.8749112 1.0412704e-38
0.59457517 0.61053801 1.8662623 7.6490003e-39
0.59683406 0.6106174 1.8665198 1.1702721e-38
0.59119177 0.6158914 1.8573838 7.4642503e-39
0.59493959 0.61404657 1.8608785 1.151869e-38
0.59171402 0.6179449 1.8542849 7.464602e-39
0.5896126 0.62046146 1.8500251 1.1517969e-38
0.5883221 0.62326509 1.8454565 7.2798576e-39
0.58858186 0.62428623 1.8439153 7.8297888e-39
0.58492458 0.62856299 1.8366616 7.0961796e-39
0.58518291 0.62957865 1.8351288 7.280938e-39
0.58544123 0.63059437 1.833596 7.556799e-39
0.58569956 0.63160998 1.8320633 7.556799e-39
0.57913464 0.64311081 1.8131078 7.0947419e-39
0.57939017 0.64411539 1.8115919 7.0025449e-39
0.57990116 0.64612448 1.8085599 6.3568069e-39
0.57813472 0.64951891 1.8029941 8.936128e-39
0.65188366 0.51367438 2.0262511 8.1996503e-39
0.64752311 0.51900226 2.0172472 8.6588236e-39
0.64815813 0.52042663 2.0151436 1.1515813e-38
0.64382911 0.52507794 2.0071952 8.1996503e-39
0.64383543 0.52645153 2.0050645 1.1331065e-38
0.64439422 0.52729988 2.0038421 8.0152591e-39
0.6446768 0.52841085 2.0021656 8.0156122e-39
0.64030284 0.53368622 1.9932412 7.923062e-39
0.63592559 0.53894812 1.984337 7.923062e-39
0.63620472 0.54004586 1.9826804 8.1974853e-39
0.63835621 0.54003304 1.9830631 1.031942e-38
0.6340003 0.54501522 1.9745969 1.1055193e-38
0.63492358 0.54550505 1.9739922 1.0226504e-38
0.63116044 0.5495311 1.9671094 1.0504891e-38
0.6325528 0.5499168 1.9667457 1.0319048e-38
0.62464809 0.55828011 1.9524338 7.8311957e-39
0.62806612 0.55622667 1.9561967 1.0041736e-38
0.62091291 0.56419408 1.9426259 7.0954453e-39
0.6256898 0.56060183 1.949006 9.6751223e-39
0.62279397 0.56565863 1.9406699 1.022687e-38
0.61783272 0.57081056 1.9318382 7.5524816e-39
0.61895138 0.57104015 1.9316704 1.0593858e-38
0.61837554 0.57294488 1.9286171 7.6446787e-39
0.61864698 0.57401204 1.9270066 7.0961796e-39
0.61462361 0.57879305 1.9189087 7.7379463e-39
0.6148935 0.57985407 1.9173074 7.8297888e-39
0.61086547 0.58461672 1.909237 7.1872963e-39
0.61113381 0.58567172 1.9076451 7.0043441e-39
0.61140215 0.58672678 1.9060529 7.1890941e-39
0.61198795 0.58789426 1.9043396 1.1518686e-38
0.60802597 0.59217948 1.8970212 7.3727595e-39
0.61124676 0.5908531 1.8996227 1.004392e-38
0.60425264 0.59794331 1.88744 7.464602e-39
0.60710418 0.59664887 1.8899297 1.0135761e-38
0.60478336 0.60003006 1.8842908 7.6490003e-39
0.60319275 0.60222262 1.8806199 1.0413426e-38
0.60228992 0.60503739 1.8760993 1.0966602e-38
0.60165679 0.60646415 1.8737782 7.7411959e-39
0.59842455 0.61025769 1.8673463 1.0781852e-38
0.59433371 0.61512572 1.8591014 7.4642503e-39
0.59459484 0.61615252 1.8575521 7.5564459e-39
0.59485596 0.61717921 1.8560024 7.4642503e-39
0.59511709 0.61820596 1.8544531 7.464602e-39
0.59144711 0.62250358 1.8471649 7.464602e-39
0.59243679 0.62345225 1.8458593 1.0412708e-38
0.59196657 0.62454599 1.8440827 7.8297888e-39
0.589836 0.62747163 1.8391831 1.0505257e-38
0.58854926 0.62983698 1.8352952 7.280938e-39
0.59041715 0.62937021 1.8363345 1.1335022e-38
0.58512634 0.63510579 1.8265412 7.464602e-39
0.58898681 0.63318306 1.8301759 9.3967446e-39
0.58681363 0.63709587 1.823737 9.674779e-39
0.57942075 0.64825439 1.8051734 6.9099807e-39
0.58032769 0.64783663 1.8059746 9.4903751e-39
0.57992923 0.65025347 1.8021564 6.3560937e-39
0.58018345 0.6512531 1.800648 6.6323204e-39
0.58043772 0.65225267 1.7991395 6.1713437e-39
0.65508103 0.51445544 2.0255775 1.1241023e-38
0.65122563 0.51928639 2.0174303 8.751378e-39
0.6515097 0.52040344 2.0157444 8.6588236e-39
0.64751142 0.52536052 2.0073774 8.1996503e-39
0.651887 0.52292264 2.0118985 1.0780034e-38
0.64807659 0.52758247 2.0040243 8.0152591e-39
0.64372414 0.53459191 1.9924123 1.0962638e-38
0.64478952 0.53401774 1.9934831 1.0318339e-38
0.6406216 0.53936785 1.9844769 1.0962994e-38
0.63582885 0.54522008 1.9745867 7.8301419e-39
0.63610649 0.54631168 1.9729394 7.9223376e-39
0.63638413 0.54740328 1.9712921 7.9223432e-39
0.63666177 0.54849488 1.9696448 7.8301419e-39
0.63263988 0.55335957 1.9614172 7.9230466e-39
0.63400567 0.55398637 1.9606748 1.0779679e-38
0.62849832 0.55963331 1.9509825 7.646101e-39
0.62474144 0.5655396 1.9411827 7.5528348e-39
0.62501425 0.56661236 1.939564 7.552832e-39
0.62136996 0.57108188 1.9320129 7.460286e-39
0.62694043 0.56788379 1.9379153 9.5829309e-39
0.62191284 0.57321626 1.928792 7.0947419e-39
0.62521601 0.57169592 1.9317086 9.9499169e-39
0.62044156 0.57729745 1.9222102 1.0502738e-38
0.62106812 0.57757503 1.9218851 1.0225789e-38
0.6161859 0.58296663 1.9126945 1.0502743e-38
0.61635429 0.5837149 1.911562 1.1517248e-38
0.61489898 0.58699495 1.9062258 7.2802108e-39
0.61123753 0.59139705 1.8987769 7.2809408e-39
0.61150444 0.59244645 1.8971932 7.5560956e-39
0.6074456 0.59716535 1.8891854 7.5564487e-39
0.60985237 0.59678262 1.8901852 1.0504905e-38
0.60797632 0.5992521 1.8860364 7.4642503e-39
0.60842872 0.59997064 1.8849974 1.0690018e-38
0.60456884 0.60465252 1.8770808 7.6493632e-39
0.60483277 0.60569036 1.8755146 7.7408456e-39
0.60509676 0.6067282 1.8739483 7.74084e-39
0.60141814 0.61106318 1.8666008 7.6490003e-39
0.59773684 0.61538696 1.8592697 7.5564459e-39
0.60158914 0.61402863 1.862027 1.1610886e-38
0.59825909 0.6174404 1.8561708 7.4642503e-39
0.59968358 0.61743873 1.8564136 1.1610877e-38
0.59483188 0.62276334 1.8473322 7.4642503e-39
0.59856671 0.62054348 1.8514068 1.0134675e-38
0.5953514 0.62480569 1.8442501 7.8297944e-39
0.59533596 0.62546909 1.8432178 9.6755007e-39
0.59191573 0.63009536 1.8354616 7.5564459e-39
0.59217405 0.63111103 1.8339289 7.5564459e-39
0.59008867 0.63435066 1.8285495 1.0411269e-38
0.58873135 0.63637292 1.8251823 7.0025449e-39
0.58747554 0.63832396 1.8219426 1.0043923e-38
0.58247972 0.64750898 1.8068458 6.6355686e-39
0.58273393 0.64850861 1.8053372 7.0940286e-39
0.58324242 0.65050775 1.8023202 6.7263181e-39
0.5837509 0.65250695 1.7993033 6.6359203e-39
0.65492809 0.51957047 2.0176134 8.4747925e-39
0.65850532 0.51670659 2.022661 1.1147378e-38
0.65368426 0.5237667 2.0108914 1.1425055e-38
0.65147626 0.52675414 2.0058827 8.1078078e-39
0.65076381 0.52856028 2.0029597 1.1055916e-38
0.65204138 0.52897608 2.0025296 7.9223432e-39
0.64762342 0.53424805 1.9936032 7.8301419e-39
0.64320195 0.53950661 1.9846967 7.7375932e-39
0.64348114 0.54060423 1.9830402 7.8301419e-39
0.63944685 0.54549778 1.9747657 7.8301419e-39
0.64064789 0.5463652 1.9736218 1.1055186e-38
0.64388609 0.54502451 1.9762484 1.0133594e-38
0.64063239 0.54837984 1.9704926 1.1055186e-38
0.63973665 0.55101699 1.9662488 1.0317975e-38
0.63651371 0.55472112 1.959957 7.7379463e-39
0.63710958 0.55560988 1.958678 1.0042104e-38
0.63234842 0.56098652 1.9495312 7.2798422e-39
0.62829691 0.56581253 1.9413586 7.5528348e-39
0.63297832 0.56232035 1.9475673 9.8577171e-39
0.62691921 0.56992561 1.9347428 1.0501296e-38
0.62517858 0.57242054 1.9305774 7.0025449e-39
0.62562263 0.57306457 1.9296527 1.0226875e-38
0.62572145 0.57455486 1.9273564 7.6453975e-39
0.62165767 0.57933277 1.9192564 7.6453975e-39
0.6219275 0.58039379 1.9176552 8.1045806e-39
0.61785907 0.58515334 1.9095829 7.7375932e-39
0.61812741 0.58620834 1.9079908 7.2802108e-39
0.61888754 0.58732611 1.9063839 1.0597811e-38
0.61471593 0.59166402 1.898949 7.1887438e-39
0.61499548 0.5926165 1.8975177 1.0874048e-38
0.61560154 0.59410012 1.8953172 1.0136116e-38
0.6111691 0.59847409 1.887782 7.3720533e-39
0.61222446 0.59925073 1.8867545 1.0043919e-38
0.61169988 0.60056084 1.8846329 7.5571648e-39
0.60800862 0.60491639 1.8772508 7.5571676e-39
0.61020869 0.60389107 1.879213 1.0413069e-38
0.60853654 0.60699213 1.8741184 7.74084e-39
0.60803163 0.60789835 1.8726267 1.0412704e-38
0.6022768 0.61437386 1.8616072 1.0690016e-38
0.60140109 0.61667484 1.8578886 7.4642503e-39
0.60166228 0.61770159 1.8563391 7.4642503e-39
0.59795696 0.62200177 1.8490407 7.3724064e-39
0.59821665 0.62302303 1.8474996 7.4642503e-39
0.59847641 0.62404424 1.8459585 7.8297944e-39
0.59881222 0.62540114 1.8439091 1.0871887e-38
0.59502375 0.62933803 1.8371608 7.2798576e-39
0.59619433 0.62940276 1.8372576 1.0781852e-38
0.5955404 0.63136929 1.8340954 7.7411959e-39
0.59182245 0.63561964 1.8268722 7.923062e-39
0.5933187 0.63612604 1.8263385 9.3981865e-39
0.58835709 0.64086354 1.8181498 7.1872963e-39
0.58861256 0.64186817 1.8166338 7.2791388e-39
0.59214836 0.63995802 1.8201941 9.8595332e-39
0.59047669 0.64351112 1.8143982 1.0965878e-38
0.58281934 0.65494096 1.7953688 6.7281146e-39
0.58307213 0.65593493 1.7938687 7.0968985e-39
0.58383065 0.65891713 1.7893683 5.9883999e-39
0.66672647 0.51030248 2.0339856 1.0965871e-38
0.66305715 0.51453167 2.0268035 7.556799e-39
0.65897959 0.51935863 2.018625 1.1150269e-38
0.65891457 0.5209716 2.0161107 8.2000034e-39
0.65487587 0.5259257 2.0077415 7.7415434e-39
0.6592443 0.52404881 2.0113907 1.0779673e-38
0.65544099 0.52814758 2.0043883 7.9230564e-39
0.65752101 0.52798682 2.0049884 1.0226501e-38
0.6512835 0.53452873 1.9937841 7.8301419e-39
0.65129519 0.53598249 1.9915301 1.188387e-38
0.64711922 0.54088342 1.9832201 7.8301419e-39
0.64774334 0.54109007 1.9830045 1.188458e-38
0.64334238 0.54686701 1.9732972 7.6457507e-39
0.64362001 0.54795861 1.97165 7.0961796e-39
0.64389765 0.54905021 1.9700027 7.8301419e-39
0.63983542 0.55391175 1.9617729 7.8301419e-39
0.64011145 0.55499715 1.9601349 7.2802051e-39
0.6361407 0.5601542 1.951462 1.0686766e-38
0.6359241 0.56126094 1.949708 7.6457507e-39
0.63326943 0.5646019 1.9440753 1.0869718e-38
0.6321252 0.56715798 1.9399155 7.6443115e-39
0.62844425 0.57162482 1.9323628 7.3695225e-39
0.62871569 0.57269198 1.9307523 7.0025449e-39
0.62898713 0.5737592 1.9291419 7.0028952e-39
0.63227284 0.57278097 1.9312139 9.4914583e-39
0.6269142 0.57861781 1.921252 1.0595293e-38
0.62808299 0.57865405 1.9213928 1.0502023e-38
0.6226179 0.58427817 1.9117433 1.0871887e-38
0.6238907 0.58450282 1.9116092 1.0685694e-38
0.62189239 0.58753169 1.9065715 7.464602e-39
0.62171149 0.58857554 1.9049209 1.0135753e-38
0.61846119 0.59298038 1.8975372 7.464602e-39
0.61462724 0.59873945 1.8879529 7.3716875e-39
0.61639059 0.59876603 1.8882087 1.0597097e-38
0.61515796 0.60082614 1.8848038 7.3734868e-39
0.61234087 0.6041221 1.8792139 1.0873689e-38
0.61171234 0.60621828 1.8758547 7.7411959e-39
0.61102045 0.60718626 1.8742359 1.0966964e-38
0.60826105 0.61158812 1.8669391 7.6490003e-39
0.60454297 0.61590928 1.8596063 7.6489947e-39
0.60480416 0.61693603 1.8580569 7.556799e-39
0.6049723 0.61852896 1.8556128 1.0781845e-38
0.6068095 0.61816454 1.8564881 9.9524379e-39
0.60234773 0.62255162 1.8489274 1.0690006e-38
0.60353351 0.62310398 1.8482701 9.9520805e-39
0.60212082 0.6253252 1.8445848 7.3720533e-39
0.59969252 0.62843543 1.8393484 9.7673376e-39
0.59864831 0.63061196 1.8357946 7.4639e-39
0.59491342 0.63486642 1.8285621 8.0170751e-39
0.59529221 0.6348635 1.8286306 1.0229044e-38
0.59512323 0.63724715 1.8249028 1.0227595e-38
0.59168661 0.641119 1.8183144 7.0043497e-39
0.59377831 0.64023328 1.8200417 1.05049e-38
0.58992678 0.64444298 1.8128592 1.0229036e-38
0.58661968 0.65718186 1.7925314 7.0043497e-39
0.5871253 0.65916997 1.7895311 5.7114277e-39
0.67962849 0.4949896 2.0599251 5.4352262e-39
0.67410755 0.50394994 2.0450883 1.068604e-38
0.6712271 0.5094831 2.0360157 7.3727595e-39
0.6704489 0.5113672 2.0329604 1.0321219e-38
0.66233301 0.5201388 2.0179794 7.6489947e-39
0.66590339 0.51783907 2.0221503 1.0872229e-38
0.65855825 0.52620822 2.0079236 7.6493478e-39
0.66065353 0.52587104 2.0088 1.1332854e-38
0.65912336 0.52843022 2.0045702 7.9230564e-39
0.6576786 0.53067708 2.0008397 1.0963713e-38
0.65494394 0.53480959 1.993965 7.8301419e-39
0.6552248 0.53591394 1.9922985 7.7375932e-39
0.65075755 0.54116267 1.9834 7.8301419e-39
0.65103674 0.54226029 1.9817436 7.6457507e-39
0.64696044 0.54714465 1.9734762 7.6457507e-39
0.64746881 0.54844391 1.9715453 1.0504894e-38
0.64751571 0.54932785 1.9701816 7.7379463e-39
0.64459032 0.55292684 1.9641027 1.077932e-38
0.64708978 0.55276281 1.9647788 1.004355e-38
0.64398545 0.55635875 1.9586747 7.7379463e-39
0.64444321 0.5573411 1.9572272 1.0226151e-38
0.63540798 0.56635821 1.9417102 8.1052897e-39
0.64009672 0.56341022 1.9470756 1.0593853e-38
0.63342428 0.57125753 1.9337722 1.0594569e-38
0.63791633 0.56754869 1.9402852 9.4907409e-39
0.63252437 0.57403064 1.9293168 7.0028952e-39
0.62942171 0.57752454 1.9233713 1.0320144e-38
0.62869161 0.57987243 1.9196043 7.7375932e-39
0.62287039 0.59152269 1.9005424 1.0690013e-38
0.62193966 0.59324712 1.8977091 7.464602e-39
0.61867708 0.59701103 1.891318 1.059745e-38
0.61808556 0.59900475 1.8881239 7.1872963e-39
0.61835092 0.60004818 1.8865494 7.0968985e-39
0.6192559 0.60093427 1.8853266 9.8602479e-39
0.61488831 0.60544437 1.877591 7.6490003e-39
0.6170637 0.60494977 1.8787255 1.0136836e-38
0.61507177 0.60832083 1.8731577 1.1150271e-38
0.61321801 0.61035848 1.8696828 1.0229032e-38
0.6085251 0.61566246 1.8606604 1.0965159e-38
0.61102122 0.61434174 1.8631309 1.0044276e-38
0.60846847 0.61822379 1.8566756 7.556799e-39
0.60472643 0.62252122 1.8493755 7.464602e-39
0.60498619 0.62354249 1.8478343 7.464602e-39
0.60524589 0.62456369 1.8462932 7.2798576e-39
0.60550565 0.6255849 1.8447521 7.3720533e-39
0.60521227 0.6271922 1.8422081 1.0504549e-38
0.6020149 0.63087034 1.835961 7.4639e-39
0.60125303 0.63230997 1.8335983 1.1519426e-38
0.60015225 0.63774002 1.8249854 9.3070741e-39
0.59527194 0.64237916 1.8169631 7.2798576e-39
0.59666568 0.6426903 1.8167151 9.6765769e-39
0.59535879 0.64506531 1.8128089 1.0780413e-38
0.59682918 0.64467347 1.8136648 9.6765783e-39
0.59399867 0.64803571 1.8079696 1.0412348e-38
0.59699225 0.64665687 1.8106141 9.5843896e-39
0.67954427 0.50293547 2.0475791 7.552832e-39
0.67533553 0.50892586 2.0375731 1.050453e-38
0.67497361 0.50977051 2.036201 7.2802051e-39
0.67064512 0.51521671 2.0270193 1.1057708e-38
0.66603547 0.52042294 2.0181625 7.6493478e-39
0.66595507 0.52148294 2.0165038 1.1149903e-38
0.66224045 0.52649093 2.0081055 7.6493478e-39
0.66252303 0.52760172 2.006429 8.0156122e-39
0.66280556 0.52871269 2.0047522 7.5571522e-39
0.66308814 0.52982372 2.0030758 7.4649551e-39
0.66164905 0.53309149 1.997762 1.1885661e-38
0.65729356 0.53807938 1.9892864 1.0411978e-38
0.65954447 0.53689033 1.9915112 1.0226137e-38
0.65414983 0.54281974 1.9814001 1.050417e-38
0.65519243 0.54304725 1.9812226 9.9509889e-39
0.65085602 0.54851377 1.9720076 7.1876466e-39
0.65343642 0.54694015 1.9748851 1.004355e-38
0.65141129 0.55069697 1.968713 7.2791388e-39
0.64730704 0.55554932 1.9604907 7.2802108e-39
0.64758313 0.55663478 1.9588524 7.2802108e-39
0.64287311 0.56221348 1.9494007 1.0689285e-38
0.64335006 0.5628885 1.9484335 7.9223376e-39
0.63998324 0.56664157 1.9420414 1.1332137e-38
0.6395092 0.56877655 1.9386482 7.7372456e-39
0.63579011 0.57323486 1.9311022 7.2791388e-39
0.63606155 0.57430202 1.9294915 7.0025449e-39
0.6319387 0.5790813 1.9213796 7.1872963e-39
0.63689256 0.57669359 1.92592 9.5836554e-39
0.63068992 0.58305287 1.9150052 1.0596378e-38
0.63029039 0.58453691 1.9126347 9.8595332e-39
0.62660986 0.58847362 1.9059047 1.0505263e-38
0.62865776 0.58818215 1.9067024 9.9517288e-39
0.62515116 0.59246469 1.8994648 7.3724064e-39
0.62883061 0.59026212 1.9035032 1.0043917e-38
0.62293559 0.59747982 1.8913081 9.9513645e-39
0.62180912 0.60031348 1.8867203 7.2802108e-39
0.6229164 0.6007576 1.8862178 1.0414146e-38
0.61832815 0.60570836 1.8777611 7.3731337e-39
0.61882561 0.60610187 1.8772342 1.0782211e-38
0.61885607 0.60778391 1.8746287 7.6490003e-39
0.61510408 0.61211324 1.8672774 7.6490003e-39
0.61536664 0.61314565 1.8657196 8.0152591e-39
0.61562914 0.61417788 1.8641618 7.464602e-39
0.6158917 0.61521012 1.8626039 7.4642503e-39
0.61402166 0.61820644 1.8576387 1.0781484e-38
0.61375922 0.61980474 1.8551139 9.9524407e-39
0.61005092 0.62336087 1.8489697 1.0505616e-38
0.61225456 0.62322766 1.8495479 9.6762181e-39
0.60512292 0.63011295 1.8376602 7.2791416e-39
0.60822159 0.62868118 1.8404045 9.9517344e-39
0.60160953 0.63538027 1.8288932 8.5705964e-39
0.60433853 0.63398546 1.8315178 1.0413786e-38
0.60144144 0.63916022 1.8229985 1.0136842e-38
0.59860152 0.64263463 1.8171277 7.188741e-39
0.59905243 0.64288658 1.8168126 1.0781135e-38
0.595478 0.64752632 1.8090096 7.2809408e-39
0.59573221 0.64852589 1.8075011 7.2809408e-39
0.59598643 0.64952552 1.8059925 7.280938e-39
0.5962407 0.65052515 1.804484 7.280938e-39
0.59649491 0.65152472 1.8029755 7.5564459e-39
0.59807044 0.65163356 1.8030721 1.0874055e-38
0.5970034 0.65352386 1.7999586 7.5546523e-39
0.59725761 0.65452343 1.7984501 7.0958265e-39
0.67872024 0.51005805 2.0363863 7.3727595e-39
0.67451668 0.51651287 2.02566 7.6493478e-39
0.67030627 0.52294099 2.0149741 7.6493478e-39
0.6705904 0.5240581 2.0132883 8.0156122e-39
0.67112714 0.52429289 2.0130143 1.2162608e-38
0.66677052 0.53010625 2.003258 7.4649551e-39
0.6670531 0.53121722 2.0015814 7.8301419e-39
0.6625452 0.53647578 1.9926605 7.2798422e-39
0.66282606 0.53758007 1.990994 7.7379463e-39
0.66310698 0.53868443 1.9893275 7.1876466e-39
0.65859234 0.5439164 1.9804468 7.1876466e-39
0.65887147 0.54501384 1.9787902 7.2798422e-39
0.65714562 0.54807115 1.9737548 1.0504896e-38
0.65942985 0.54720932 1.9754772 7.2791388e-39
0.65280771 0.55385095 1.9640534 1.0505257e-38
0.65558463 0.55315769 1.9655973 7.2802108e-39
0.65173322 0.55908179 1.9557542 7.9223376e-39
0.64747465 0.56532055 1.9453542 7.7372456e-39
0.64774901 0.56639934 1.9437262 7.0947475e-39
0.64610767 0.56862229 1.9399996 1.1241373e-38
0.64268249 0.5730691 1.932521 1.0411621e-38
0.64014161 0.57670778 1.9264454 7.0961796e-39
0.64041299 0.57777506 1.924835 7.2791388e-39
0.6362654 0.58253449 1.9167495 7.2791388e-39
0.63653523 0.58359551 1.9151481 7.2798576e-39
0.63680512 0.58465666 1.9135468 7.2798576e-39
0.63265121 0.58939165 1.9054981 7.3724064e-39
0.63204098 0.59136438 1.9023336 1.069037e-38
0.6291635 0.59483051 1.8964694 7.2812898e-39
0.62807095 0.59663033 1.893492 1.0413426e-38
0.62969732 0.59692937 1.8933018 7.2802108e-39
0.62795281 0.60045749 1.8875324 9.5840211e-39
0.62579817 0.60266572 1.8837422 7.280938e-39
0.62687612 0.60406238 1.8817562 1.1703806e-38
0.62229598 0.60804802 1.8747988 7.6490003e-39
0.62286562 0.60916066 1.8731681 1.1058078e-38
0.62186724 0.61061156 1.8707478 1.0412701e-38
0.62021548 0.61319965 1.8664529 1.0965512e-38
0.62036049 0.61406338 1.8651369 1.0136114e-38
0.61553586 0.61977279 1.8554626 7.3724064e-39
0.61579698 0.62079966 1.8539132 7.3724064e-39
0.61605811 0.62182635 1.8523637 7.2802108e-39
0.61686307 0.62304842 1.8506027 1.0505977e-38
0.61253488 0.62712556 1.8435457 7.3713372e-39
0.6142115 0.62703514 1.8439686 1.096516e-38
0.60900593 0.6324026 1.8347611 8.2943697e-39
0.61021525 0.63214797 1.8353602 1.1150634e-38
0.60547143 0.63765746 1.82601 6.7266838e-39
0.60572839 0.63866752 1.8244857 6.9117954e-39
0.60193121 0.64289016 1.8172923 7.188741e-39
0.60218674 0.64389473 1.8157763 7.4642531e-39
0.60560858 0.64260316 1.8183576 9.7694984e-39
0.60264444 0.64625072 1.8121971 1.0873689e-38
0.60577106 0.6445927 1.8152971 9.8606136e-39
0.60260761 0.64810175 1.8093181 1.0782215e-38
0.60378462 0.64826375 1.809265 9.9542526e-39
0.60006231 0.65277851 1.8016309 7.4642531e-39
0.60031658 0.65377808 1.8001224 7.0936755e-39
0.6005708 0.65477771 1.7986139 6.7266838e-39
0.68410152 0.50950378 2.0381536 1.1054475e-38
0.68275428 0.51147574 2.0348659 7.556799e-39
0.67765337 0.51736331 2.0248687 1.0966594e-38
0.67852694 0.51792222 2.0241485 7.6493478e-39
0.67291719 0.52361542 2.0143676 1.1149546e-38
0.6742928 0.52434224 2.0134714 8.0156066e-39
0.67457694 0.52545935 2.0117855 8.0156066e-39
0.67045277 0.53038877 2.0034399 7.8308608e-39
0.67073536 0.53149992 2.0017633 7.8301419e-39
0.66620547 0.53675658 1.9928415 7.7379463e-39
0.66839761 0.5367322 1.9932489 1.1793101e-38
0.66195136 0.54309785 1.9822832 7.0965243e-39
0.6613723 0.54469538 1.9797062 9.6729699e-39
0.66250974 0.54529309 1.9789701 7.7372274e-39
0.65902561 0.55180585 1.9682753 1.0043189e-38
0.65722895 0.55576599 1.9618267 1.0688565e-38
0.65273011 0.56163061 1.9519665 1.0688564e-38
0.65560704 0.5604434 1.954294 7.3716875e-39
0.64956254 0.56626779 1.944236 1.0596728e-38
0.65132481 0.56667376 1.943903 7.0947419e-39
0.64716607 0.5714677 1.935762 7.0021763e-39
0.64743888 0.5725404 1.9341432 7.4606363e-39
0.64367884 0.57697928 1.9266204 7.0943776e-39
0.64395028 0.57804644 1.92501 7.0947419e-39
0.64194953 0.58168644 1.9190238 1.1610521e-38
0.64005226 0.58386534 1.9153221 7.3713344e-39
0.63942009 0.58575088 1.9122894 1.1427572e-38
0.63614798 0.58965993 1.905671 7.2802108e-39
0.63817102 0.5893684 1.9064646 1.0136117e-38
0.63264185 0.59509742 1.8966414 7.2812898e-39
0.63290882 0.59614688 1.8950576 7.2812898e-39
0.63317573 0.59719634 1.8934739 7.3724064e-39
0.62925768 0.60208178 1.8852314 1.032123e-38
0.62925631 0.60293102 1.8839132 7.0968985e-39
0.62952167 0.60397434 1.8823386 7.3731337e-39
0.62573582 0.60831201 1.8749689 7.5571648e-39
0.62194711 0.61263847 1.8676158 7.7411959e-39
0.62220967 0.61367077 1.8660579 7.925227e-39
0.62247223 0.61470294 1.8645 7.6489947e-39
0.62273479 0.61573523 1.8629422 7.556799e-39
0.61893904 0.62003404 1.855631 7.3720533e-39
0.62044823 0.62017345 1.8556689 1.0781845e-38
0.6194613 0.62208748 1.852532 7.2798576e-39
0.62140965 0.62236238 1.8524338 9.8602493e-39
0.61591965 0.62738532 1.843713 7.3713372e-39
0.61733735 0.62781727 1.8432815 9.952819e-39
0.6123724 0.63266098 1.8349276 8.4791295e-39
0.61341685 0.63312328 1.834386 1.0415236e-38
0.61288905 0.63469225 1.8318621 6.7263307e-39
0.60907632 0.63892448 1.8246511 6.911801e-39
0.60859418 0.63992316 1.82302 1.1426136e-38
0.60753602 0.64229494 1.8191607 1.0597821e-38
0.6057719 0.64515483 1.8144249 7.006149e-39
0.60602742 0.64615935 1.8129089 7.3731337e-39
0.60628295 0.64716393 1.8113929 7.280938e-39
0.60653841 0.6481685 1.8098769 7.5571648e-39
0.60312122 0.65203315 1.8033031 7.7422679e-39
0.60337543 0.65303272 1.8017948 7.7411959e-39
0.60431623 0.65355545 1.801142 9.9499464e-39
0.60388392 0.65503192 1.7987777 7.1840719e-39
0.60030442 0.66018122 1.7901828 7.0961894e-39
0.68650073 0.51176327 2.0350511 7.464602e-39
0.68551028 0.51431954 2.0309169 9.9538742e-39
0.68225139 0.51820821 2.0243328 7.6493478e-39
0.6808719 0.52077401 2.020118 1.0413052e-38
0.67799515 0.52462626 2.0136545 8.1078022e-39
0.67893785 0.52487242 2.0134313 1.0595639e-38
0.67455333 0.53010458 2.0045722 1.1240298e-38
0.67344493 0.5319221 2.0015647 1.1793106e-38
0.66986561 0.53703743 1.9930224 7.6457507e-39
0.67014647 0.53814179 1.991356 7.7382966e-39
0.66558945 0.54337698 1.982463 7.0965243e-39
0.66586864 0.54447472 1.9808066 7.646101e-39
0.66545445 0.54684442 1.9770591 1.0594926e-38
0.66642702 0.54667002 1.9774935 7.1876466e-39
0.66395324 0.55018437 1.9716227 1.059637e-38
0.66254294 0.55262142 1.9676025 7.2798422e-39
0.66282052 0.55371302 1.9659551 7.2802051e-39
0.6586526 0.55854857 1.9577481 7.2802051e-39
0.66180193 0.55776912 1.9594885 9.8595164e-39
0.65435171 0.56479049 1.9473358 7.1872963e-39
0.65491539 0.56647754 1.9448127 1.1333213e-38
0.65044868 0.57066768 1.9375567 7.0025449e-39
0.65279317 0.57015598 1.9387459 1.124137e-38
0.65099436 0.57281315 1.934319 7.4606363e-39
0.64795935 0.57615483 1.9286213 1.1149542e-38
0.64748734 0.57831788 1.9251847 7.0947419e-39
0.64775878 0.5793851 1.9235742 7.2802108e-39
0.64356911 0.58413535 1.9154961 7.2791388e-39
0.643839 0.5851965 1.9138947 7.2802108e-39
0.64296168 0.58768743 1.9098808 1.0598174e-38
0.63991302 0.59098333 1.9042518 7.2798576e-39
0.63894588 0.59296107 1.9010193 1.0690373e-38
0.63638711 0.59641385 1.8952297 7.2812898e-39
0.63593763 0.59747833 1.8935018 1.0597458e-38
0.63244909 0.60215306 1.8856589 7.0043441e-39
0.63271445 0.60319638 1.8840842 7.0043441e-39
0.63297981 0.60423976 1.8825096 7.280938e-39
0.63278264 0.60614365 1.8795215 1.0044643e-38
0.62536854 0.61290097 1.8677849 7.6490003e-39
0.62972295 0.61089033 1.8716391 1.1980031e-38
0.62589359 0.61496556 1.8646693 7.556799e-39
0.62634522 0.61557031 1.8638067 1.1978945e-38
0.62234205 0.62029505 1.8557992 7.4642503e-39
0.62494367 0.61908132 1.8581214 1.0136469e-38
0.62286437 0.62234873 1.8527002 7.2798576e-39
0.62312549 0.62337536 1.8511509 7.3720533e-39
0.6193043 0.62764502 1.8438804 7.3713372e-39
0.619564 0.62866622 1.8423393 7.4639e-39
0.61660182 0.63222361 1.8363191 1.1888571e-38
0.61599696 0.63393492 1.8335613 7.8355593e-39
0.61393046 0.63616812 1.8297471 9.9513771e-39
0.61242425 0.63918144 1.8248167 6.911801e-39
0.60859042 0.64340109 1.8176216 7.1887438e-39
0.60884595 0.64440566 1.8161056 7.280938e-39
0.60910147 0.6454103 1.8145895 7.0983446e-39
0.60935694 0.64641482 1.8130735 7.3731337e-39
0.61218107 0.64581764 1.8144764 1.1611969e-38
0.60617995 0.65128779 1.8049755 7.5571648e-39
0.60785764 0.65074241 1.8061047 1.1335381e-38
0.60694265 0.65428656 1.80045 6.539071e-39
0.60719693 0.65528613 1.7989415 6.0777257e-39
0.60334629 0.65943998 1.7918458 7.0947475e-39
0.60359913 0.66043413 1.7903458 7.1887438e-39
0.60385197 0.66142809 1.7888455 7.6493632e-39
0.69888186 0.49758899 2.0591359 8.1985573e-39
0.69117075 0.51166534 2.03599 1.0779689e-38
0.68569016 0.51737022 2.0262125 7.464602e-39
0.68464816 0.51951844 2.0227029 1.0965877e-38
0.68141371 0.52379346 2.0155232 7.556799e-39
0.67986596 0.52575618 2.0122163 1.1332504e-38
0.68198192 0.52602756 2.0121517 8.0152591e-39
0.67781734 0.53095394 2.0038042 7.923062e-39
0.67809987 0.53206497 2.0021276 7.8305077e-39
0.67352599 0.53731847 1.9932035 7.7375932e-39
0.67380685 0.53842258 1.9915369 7.7379463e-39
0.67260569 0.54088169 1.9875181 1.0779313e-38
0.66950697 0.54475385 1.9809865 7.646101e-39
0.67248648 0.54368985 1.9831399 1.022506e-38
0.67006528 0.54694921 1.9776734 7.6457507e-39
0.666161 0.55289894 1.9677813 7.2798422e-39
0.66638482 0.5535689 1.9667795 9.8595136e-39
0.66225046 0.5588246 1.957926 7.8301419e-39
0.66252655 0.55991012 1.9562879 7.2802108e-39
0.65629876 0.56635648 1.9452337 1.0596014e-38
0.65373147 0.56986785 1.9393514 7.1869431e-39
0.65400428 0.57094055 1.9377326 7.0947419e-39
0.65427715 0.57201338 1.9361137 7.095451e-39
0.65048176 0.57645494 1.9285808 7.0036253e-39
0.6507532 0.57752222 1.9269701 7.1872963e-39
0.65258557 0.5778836 1.926718 1.0871887e-38
0.65129608 0.5796566 1.9237491 7.18659e-39
0.64815968 0.58352977 1.9172093 1.0504904e-38
0.64735609 0.58546633 1.9140686 7.2802108e-39
0.64776993 0.58682525 1.9120291 9.6758524e-39
0.64340991 0.59125167 1.9044247 7.3713344e-39
0.64120263 0.59445703 1.8990781 1.0043924e-38
0.63986564 0.5966807 1.8954016 7.5560956e-39
0.64137232 0.59653312 1.8958846 1.0044645e-38
0.63590741 0.60241842 1.8858297 7.0961796e-39
0.63654763 0.60301596 1.8850101 1.1609807e-38
0.63643813 0.60450512 1.8826807 7.2802108e-39
0.63308716 0.60813421 1.8764836 1.1058074e-38
0.62879002 0.61316353 1.867954 7.5564459e-39
0.62905258 0.61419588 1.8663963 7.5564459e-39
0.62931514 0.615228 1.8648384 7.5571676e-39
0.6295777 0.61626035 1.8632805 7.5571648e-39
0.62574524 0.62055624 1.8559675 7.5564459e-39
0.62600642 0.62158298 1.854418 7.4642503e-39
0.62686241 0.62214839 1.8536848 1.0597101e-38
0.62652868 0.62363648 1.8513191 7.4642531e-39
0.62281388 0.62727851 1.8450407 1.0688941e-38
0.62294888 0.62892598 1.8425066 7.2809408e-39
0.62182462 0.63136238 1.8385359 1.0415941e-38
0.61936349 0.63419324 1.8337277 7.651517e-39
0.62027043 0.63476503 1.832993 9.401076e-39
0.61577243 0.63943827 1.8249823 6.9117954e-39
0.61604917 0.64041841 1.8235079 1.1335018e-38
0.61217576 0.64466131 1.8162702 7.1887438e-39
0.61591178 0.64230996 1.820549 1.1337184e-38
0.61268675 0.64667046 1.8132381 7.0979887e-39
0.61294228 0.6476751 1.8117222 7.2805877e-39
0.6094932 0.65154201 1.8051393 7.3727833e-39
0.60974741 0.65254164 1.8036308 7.9259571e-39
0.61000168 0.65354121 1.8021224 8.0185059e-39
0.6102559 0.6545409 1.8006138 6.3557433e-39
0.61053747 0.65550244 1.7991689 8.8407009e-39
0.60664111 0.65969282 1.7920088 7.0036253e-39
0.60786563 0.65933889 1.7927644 1.0690377e-38
0.6071468 0.661681 1.7890085 7.0986978e-39
0.70209223 0.49559146 2.062777 2.4878176e-39
0.70238322 0.49673578 2.0610502 7.0965243e-39
0.69399393 0.51233828 2.0354216 7.0947419e-39
0.68970048 0.51877975 2.0247009 7.3724064e-39
0.68540019 0.52519464 2.0140207 7.923062e-39
0.68630672 0.52601749 2.0128961 1.0503812e-38
0.68130124 0.5315147 2.003521 1.1424334e-38
0.68185937 0.53221619 2.0025265 1.0595286e-38
0.67978203 0.53489733 1.9980153 1.1054472e-38
0.67746699 0.53870356 1.9917179 7.8301419e-39
0.67314512 0.54503298 1.9811662 7.7382966e-39
0.6734243 0.54613078 1.9795098 7.5528348e-39
0.67227846 0.5489608 1.9749243 1.0779319e-38
0.6695013 0.55208522 1.9696076 7.1876466e-39
0.66785294 0.55472875 1.9652269 1.0504173e-38
0.67005658 0.5542683 1.9663129 7.2798422e-39
0.66342777 0.56047434 1.955564 1.08708e-38
0.66122884 0.56426042 1.9493176 7.0961796e-39
0.66150326 0.56533933 1.9476895 7.1872963e-39
0.66161937 0.56733102 1.9446179 1.0042836e-38
0.65755981 0.5712133 1.9379083 7.1872963e-39
0.65993732 0.57103759 1.9385819 9.859515e-39
0.65491092 0.57608789 1.9298968 1.0413419e-38
0.65429038 0.5777936 1.927145 7.1872963e-39
0.65585655 0.5774709 1.9279097 1.0042477e-38
0.6548332 0.57992792 1.9239241 7.2787856e-39
0.65152431 0.58331746 1.918106 9.6747748e-39
0.65087306 0.58573622 1.9142424 7.0961796e-39
0.64663833 0.59046507 1.9061897 7.0961796e-39
0.64690661 0.59151989 1.9045976 7.2791388e-39
0.64307714 0.59589821 1.8971573 7.4642503e-39
0.64552867 0.59497148 1.8990088 1.0965888e-38
0.63910013 0.6016404 1.8875753 7.5564459e-39
0.63956553 0.60183722 1.8873483 1.0596379e-38
0.63963091 0.60372716 1.8844261 7.3724064e-39
0.63989627 0.60477042 1.8828516 7.2802108e-39
0.63605535 0.60910374 1.8754791 7.464602e-39
0.63735479 0.60996568 1.8743604 1.114991e-38
0.63247406 0.61445832 1.8665653 7.5564459e-39
0.63525665 0.61371046 1.8681951 1.1888193e-38
0.63299912 0.61652297 1.8634497 7.5571648e-39
0.63105786 0.61895245 1.859352 1.1887111e-38
0.62940949 0.62184417 1.8545862 7.4642503e-39
0.63017762 0.62214363 1.854251 1.022795e-38
0.62993175 0.62389761 1.8514874 7.4642531e-39
0.62605202 0.62760085 1.845086 9.7673418e-39
0.62633365 0.62918568 1.842674 7.1887438e-39
0.62659335 0.63020688 1.8411329 7.7440672e-39
0.62293881 0.6341821 1.8343475 1.1152803e-38
0.6229881 0.63546717 1.8323615 6.6359344e-39
0.62025148 0.63810909 1.8278 1.0136838e-38
0.61937732 0.64070535 1.8236233 7.0961894e-39
0.61550534 0.64491677 1.8164349 7.1887438e-39
0.61576086 0.64592141 1.8149188 7.0057931e-39
0.61601633 0.64692593 1.8134028 7.0979887e-39
0.61627185 0.6479305 1.8118868 7.2805877e-39
0.61855948 0.64771026 1.8126141 1.1795647e-38
0.61531895 0.65169746 1.80588 1.0322674e-38
0.61271417 0.65380567 1.8021691 1.1151003e-38
0.61356902 0.65479505 1.8007777 5.7103739e-39
0.61382324 0.65579468 1.7992691 6.2581541e-39
0.61018872 0.66093969 1.7906715 7.188741e-39
0.60746628 0.66772723 1.7796786 6.5412052e-39
0.60423315 0.67250681 1.771716 6.1731415e-39
0.70588475 0.49588254 2.0629644 3.1310361e-39
0.70609814 0.49697527 2.0613046 1.0596702e-38
0.69627464 0.51470071 2.0321395 1.0687849e-38
0.693425 0.51906562 2.0248852 7.0961796e-39
0.68846834 0.52437794 2.0158052 1.0873677e-38
0.68662143 0.52718079 2.0111437 1.1332138e-38
0.68938684 0.52659577 2.0125177 7.923062e-39
0.68518186 0.531519 2.0041683 8.0152591e-39
0.68546444 0.53263009 2.0024917 8.2893306e-39
0.68084639 0.53788006 1.9935653 7.7375932e-39
0.6811412 0.53952157 1.9910676 1.1239219e-38
0.68140817 0.54008883 1.9902325 7.7379463e-39
0.67629826 0.54566938 1.9807103 1.0778963e-38
0.67974985 0.54481709 1.9826149 1.0041391e-38
0.6773417 0.54750758 1.9780332 7.6457507e-39
0.67526305 0.55093479 1.9723636 1.0133589e-38
0.673397 0.55345422 1.9681391 7.1876466e-39
0.67092919 0.55689478 1.9623836 9.8595136e-39
0.66944605 0.55937678 1.9582818 7.6457507e-39
0.66821206 0.56143934 1.9548728 1.0133949e-38
0.66156173 0.56870204 1.9424803 1.0504894e-38
0.6608426 0.57041353 1.939703 7.6446787e-39
0.65987456 0.5721181 1.9368945 1.0871156e-38
0.66138828 0.57255894 1.9364653 7.7379463e-39
0.66166109 0.57363164 1.9348464 7.2798422e-39
0.65782756 0.57806498 1.92732 7.095451e-39
0.658099 0.57913226 1.9257095 7.0947419e-39
0.65925425 0.57993925 1.9246519 1.0319428e-38
0.65412021 0.5849449 1.9160177 7.1865746e-39
0.65478611 0.58557189 1.9151568 1.0226519e-38
0.65013516 0.59073323 1.9063625 7.1862243e-39
0.65183389 0.5898785 1.9079756 1.0596382e-38
0.6498571 0.59410739 1.9010793 9.8595262e-39
0.64682251 0.59721452 1.8957455 7.5564459e-39
0.64564592 0.59975088 1.8916111 1.0320504e-38
0.64521158 0.60171622 1.8884876 1.0780768e-38
0.64581305 0.60181916 1.8884292 9.9520805e-39
0.64225084 0.60611004 1.8811694 1.0781122e-38
0.63949525 0.60936779 1.8756492 7.3724064e-39
0.64184225 0.6079675 1.8782177 9.8609639e-39
0.63589567 0.614721 1.8667346 7.2812898e-39
0.63615817 0.61575311 1.8651768 7.3731337e-39
0.63642073 0.61678541 1.8636189 7.5571648e-39
0.63255149 0.62107849 1.8563039 7.5564459e-39
0.63471121 0.62107325 1.8566762 1.1058074e-38
0.63307375 0.62313205 1.8532051 7.464602e-39
0.6332643 0.62413144 1.8516861 1.0781491e-38
0.62945867 0.62842423 1.8443824 7.2805877e-39
0.62917691 0.62924927 1.8430545 1.0598902e-38
0.62997812 0.63046664 1.8413002 7.4667698e-39
0.63023788 0.63148779 1.8397592 7.4667698e-39
0.62697029 0.63581473 1.8324932 9.8609723e-39
0.62246847 0.63995212 1.8253133 7.0965454e-39
0.62272543 0.6409623 1.8237889 6.8214004e-39
0.62245339 0.64231038 1.8216509 1.1427574e-38
0.61909056 0.64617687 1.8150834 7.006149e-39
0.62135029 0.64498854 1.8173084 1.1336824e-38
0.61960161 0.64818603 1.8120513 7.1883907e-39
0.61985707 0.64919055 1.8105354 7.3727833e-39
0.61637372 0.65305007 1.8039584 7.4667698e-39
0.61662793 0.65404963 1.8024499 7.3742211e-39
0.61688221 0.65504926 1.8009415 5.2501315e-39
0.61713642 0.65604889 1.7994329 5.5252708e-39
0.6167714 0.65742278 1.7972391 1.0690013e-38
0.61348355 0.66119254 1.7908344 6.913952e-39
0.61373639 0.66218662 1.7893343 7.2812898e-39
0.61398917 0.66318065 1.7878342 7.6468423e-39
0.610493 0.66698974 1.7813333 6.7245174e-39
0.60749489 0.67275709 1.7718773 6.2664162e-39
0.70967722 0.49617344 2.0631521 4.8831118e-39
0.70996827 0.49731779 2.0614252 6.8199178e-39
0.71025926 0.49846199 2.0596986 7.7390001e-39
0.70232511 0.51045543 2.039748 1.0777884e-38
0.70148706 0.51291323 2.0357919 7.0947419e-39
0.69714952 0.51935142 2.0250692 7.0961796e-39
0.69252115 0.52464569 2.0160725 7.0961796e-39
0.69116676 0.5291537 2.008848 1.1424697e-38
0.6911906 0.53006262 2.0074415 1.0319784e-38
0.6882205 0.53365523 2.0013652 1.1514376e-38
0.68847489 0.53469628 1.9997926 1.0226511e-38
0.68478757 0.53926539 1.99208 7.8301419e-39
0.68663311 0.53863382 1.9933709 1.0593843e-38
0.68042159 0.54559129 1.981526 7.6457507e-39
0.68070072 0.54668909 1.9798696 7.6453975e-39
0.68097991 0.54778677 1.9782131 7.6457507e-39
0.67673743 0.55264038 1.9699653 7.5524816e-39
0.67249173 0.55748194 1.9617358 7.1876466e-39
0.67323273 0.55791366 1.9611906 1.0780395e-38
0.67304391 0.55965286 1.9584596 7.6457507e-39
0.67001265 0.56253117 1.9534817 1.0962637e-38
0.66412532 0.56961358 1.9414978 7.0961796e-39
0.66439819 0.57068628 1.9398787 7.6446787e-39
0.664671 0.57175899 1.9382598 7.6457507e-39
0.66592968 0.57257587 1.9372045 1.0962997e-38
0.66665751 0.57316369 1.9364151 9.8591576e-39
0.6615721 0.57814485 1.9278271 1.0596008e-38
0.66494608 0.57686168 1.930387 9.5829351e-39
0.66190761 0.5804708 1.9242738 7.0021819e-39
0.66119576 0.58225524 1.9213845 9.581133e-39
0.65790707 0.58627594 1.9145901 6.5408549e-39
0.65682048 0.5880788 1.9116091 9.4896647e-39
0.65390033 0.59205663 1.9049433 7.1869431e-39
0.65003401 0.59643191 1.8975012 7.2798576e-39
0.65192556 0.59632123 1.897992 1.0965881e-38
0.65056783 0.59853089 1.8943337 7.556799e-39
0.65083474 0.59958035 1.89275 7.464602e-39
0.6465475 0.60425794 1.8847682 7.2802108e-39
0.64681286 0.6053012 1.8831936 7.0961796e-39
0.6429351 0.60963166 1.8758192 7.3724064e-39
0.64319903 0.61066955 1.8742532 7.2812898e-39
0.6393171 0.61498344 1.8669037 7.2812898e-39
0.63957965 0.61601567 1.865346 7.3731337e-39
0.63958752 0.61725903 1.8634174 1.0874407e-38
0.63853216 0.61976385 1.8593524 1.0136839e-38
0.63621575 0.62236643 1.8549228 7.556799e-39
0.63695294 0.62320483 1.8537459 1.0044279e-38
0.63258368 0.62766266 1.846091 7.3720533e-39
0.63278675 0.62865663 1.8445827 9.8602563e-39
0.63310313 0.62970513 1.8430088 7.0057987e-39
0.6329484 0.63067526 1.8414772 1.0230837e-38
0.63174993 0.63344979 1.836969 1.0783296e-38
0.62972099 0.63598388 1.8326943 7.006149e-39
0.62639576 0.63941711 1.8268056 1.0321952e-38
0.62607336 0.6412192 1.8239545 6.7292048e-39
0.62216473 0.64542776 1.8167641 6.913952e-39
0.62242025 0.64643234 1.815248 7.006149e-39
0.62267572 0.64743692 1.813732 7.0057931e-39
0.62426019 0.64794767 1.8132066 1.078258e-38
0.62318677 0.64944601 1.8107001 7.3727833e-39
0.62040055 0.65275878 1.8050892 1.1060597e-38
0.61994112 0.65430391 1.8026137 7.4664167e-39
0.62019533 0.65530354 1.8011053 5.4345227e-39
0.6204496 0.65630311 1.7995968 5.8940519e-39
0.61660498 0.66171455 1.7905504 9.4014263e-39
0.61326814 0.66526318 1.7844806 7.0968985e-39
0.61456901 0.66532016 1.7846115 9.3978278e-39
0.61414856 0.66714716 1.7817051 9.8566465e-39
0.61402279 0.66823041 1.7800027 6.5412052e-39
0.61075664 0.67300731 1.7720386 6.3586118e-39
0.61100692 0.67399138 1.7705536 6.1731415e-39
0.70494598 0.51207036 2.037683 7.6457507e-39
0.7001164 0.51958096 2.025213 1.1056263e-38
0.70276511 0.51744759 2.0289702 1.0503087e-38
0.69841743 0.52312785 2.0194218 1.0964072e-38
0.69650757 0.52604681 2.0145698 7.6453975e-39
0.69679171 0.52716404 2.0128839 7.9223432e-39
0.69707578 0.52828103 2.0111983 7.8297888e-39
0.69282889 0.53319526 2.0028558 8.0145388e-39
0.6881668 0.53844184 1.9939274 7.7375932e-39
0.68844765 0.53954619 1.9922609 7.8301419e-39
0.6912123 0.53884417 1.9938164 1.1239581e-38
0.68405962 0.54587066 1.981706 7.2798422e-39
0.6847927 0.54632562 1.9811232 1.1054827e-38
0.684618 0.54806578 1.9783928 7.7372274e-39
0.68016714 0.55221909 1.9711972 1.096227e-38
0.6820277 0.55316079 1.9700491 9.9499183e-39
0.67636549 0.55884337 1.9602755 7.6457507e-39
0.67827088 0.55864877 1.9608989 1.0041762e-38
0.67429221 0.56374532 1.9523187 1.1054475e-38
0.67286831 0.56536186 1.9495696 1.0041757e-38
0.66979176 0.56944567 1.9427134 1.0596374e-38
0.67099595 0.56921649 1.943272 9.7669676e-39
0.66849929 0.57310462 1.9368169 7.2798422e-39
0.66463041 0.5775407 1.9292803 7.2802108e-39
0.66490185 0.57860786 1.9276698 7.1872963e-39
0.66517329 0.57967502 1.9260592 7.095451e-39
0.66544473 0.58074218 1.9244487 7.0028854e-39
0.66591042 0.58200276 1.9225708 9.8591604e-39
0.66142392 0.58654577 1.914764 6.6334008e-39
0.66139978 0.58762223 1.9130893 1.0135035e-38
0.65739697 0.59232491 1.9051163 6.9092772e-39
0.65577805 0.59402907 1.9021987 1.0504181e-38
0.65377927 0.59774828 1.8960896 7.464602e-39
0.65404618 0.59879786 1.8945057 7.280938e-39
0.65713942 0.59788281 1.8964472 1.0044645e-38
0.65621096 0.60011894 1.8928201 1.0873326e-38
0.65288568 0.60350424 1.8870058 9.6762139e-39
0.65013736 0.6069563 1.8811855 1.0872605e-38
0.64871424 0.60903972 1.8777119 9.9510086e-39
0.64336812 0.61423057 1.8687549 1.1058075e-38
0.64454073 0.61455244 1.868453 1.0137195e-38
0.64326364 0.61731064 1.8639573 7.6490003e-39
0.63935763 0.62160087 1.8566406 7.280938e-39
0.63961881 0.62262762 1.8550911 7.3731365e-39
0.63987994 0.62365431 1.8535415 7.1883907e-39
0.63596833 0.62792248 1.8462583 7.1883907e-39
0.63700062 0.62817931 1.8460337 1.0598184e-38
0.63648778 0.62996489 1.8431761 6.8210473e-39
0.63552743 0.63122827 1.8410535 1.0875854e-38
0.63700724 0.6320073 1.8400939 7.3745742e-39
0.63308728 0.63624215 1.8328608 7.006142e-39
0.63382167 0.63746077 1.8310932 9.4921786e-39
0.62942135 0.64147609 1.8241199 6.4536759e-39
0.63154405 0.64133042 1.8247038 9.4928947e-39
0.62643284 0.64625627 1.8161976 1.0507782e-38
0.62926435 0.64518613 1.8183357 9.6780216e-39
0.62626082 0.64869696 1.8123807 7.0057987e-39
0.62781864 0.64843619 1.813048 9.8613381e-39
0.62299997 0.65355861 1.804286 7.1905403e-39
0.62325418 0.65455818 1.8027775 7.0986978e-39
0.62350839 0.65555775 1.8012691 5.3437312e-39
0.62376267 0.65655738 1.7997606 6.0787781e-39
0.62032527 0.6613555 1.7917347 1.0689653e-38
0.61654627 0.66551471 1.7846427 7.0025449e-39
0.61787444 0.66496927 1.7857131 1.0227595e-38
0.6170494 0.66749287 1.7816575 6.7241671e-39
0.61730093 0.66848195 1.7801648 6.6334008e-39
0.6140182 0.67325759 1.7721999 6.3586118e-39
