# .PCD v0.7 - Point Cloud Data file format
VERSION 0.7
FIELDS x y z rgb
SIZE 4 4 4 4
TYPE F F F F
COUNT 1 1 1 1
WIDTH 1026
HEIGHT 1
VIEWPOINT 0 0 0 1 0 0 0
POINTS 1026
DATA ascii
-0.97120756 0.67124009 2.8150783 1.1971675e-38
-0.97189629 0.67134315 2.8148279 1.5290012e-38
-0.97117591 0.67281395 2.8113482 1.2154274e-38
-0.96326303 0.68102241 2.7919593 1.2154627e-38
-0.96324736 0.68180293 2.7901096 1.2062782e-38
-0.96323168 0.68258339 2.7882597 1.1878751e-38
-0.95566267 0.69044423 2.7696922 1.1878751e-38
-0.94771975 0.70015037 2.7467544 1.1601098e-38
-0.94313508 0.70509636 2.7350702 1.4827953e-38
-0.94047934 0.70841533 2.727226 1.1417062e-38
-0.94046402 0.70917726 2.72542 1.1325242e-38
-0.9404487 0.70993936 2.723614 1.1232325e-38
-0.94043344 0.71070129 2.721808 1.1141183e-38
-0.94041812 0.71146351 2.7200019 1.1048279e-38
-0.93285072 0.71924424 2.7016239 1.0956785e-38
-0.93574512 0.71788132 2.7048299 1.3998913e-38
-0.92561167 0.72744423 2.68225 1.0587309e-38
-0.92302459 0.73034322 2.6754005 1.3721966e-38
-0.91837317 0.73562038 2.6629322 1.0679123e-38
-0.91835821 0.73636442 2.6611686 1.0679123e-38
-0.91834331 0.73710877 2.659405 1.0679123e-38
-0.91146356 0.74419439 2.6426687 1.0587282e-38
-0.91144872 0.74493283 2.6409185 1.049511e-38
-0.91143388 0.74567145 2.6391683 1.0309996e-38
-0.90897501 0.74917144 2.6308935 1.2986902e-38
-0.90419662 0.75378376 2.6200018 9.3920026e-39
-0.90546876 0.75304908 2.621732 1.2340843e-38
-0.89730304 0.76155686 2.6016362 8.9292294e-39
-0.89728844 0.7622841 2.5999129 8.4689673e-39
-0.89073867 0.76971471 2.5823562 7.6402884e-39
-0.89072418 0.77043653 2.5806458 7.7314022e-39
-0.88967723 0.77288228 2.5748577 1.0773872e-38
-0.88417488 0.77784067 2.5631518 7.5466606e-39
-0.88416052 0.778557 2.5614541 7.3619205e-39
-0.88055074 0.78222722 2.5527856 1.0220355e-38
-0.87761176 0.78593469 2.544023 7.2704437e-39
-0.87759745 0.78664571 2.5423379 6.9956547e-39
-0.87104928 0.79399669 2.5249701 6.9960022e-39
-0.86752468 0.79923421 2.5125861 9.6693279e-39
-0.86448735 0.80202705 2.5059924 7.27115e-39
-0.85828328 0.80901939 2.4894717 6.902736e-39
-0.85826927 0.80971479 2.4878235 6.8105403e-39
-0.85825533 0.81041026 2.4861753 6.9034464e-39
-0.85824138 0.81110573 2.4845271 6.8105403e-39
-0.85205179 0.81737256 2.4697258 6.8105403e-39
-0.85203791 0.81806302 2.4680896 7.0853294e-39
-0.84847283 0.82255119 2.4574819 9.3931012e-39
-0.846178 0.82469141 2.4524286 6.8105403e-39
-0.84616423 0.82537693 2.4508038 6.5343108e-39
-0.8437593 0.82774323 2.4452157 9.3920264e-39
-0.83996171 0.83228952 2.4344723 6.81019e-39
-0.83994806 0.83297008 2.4328594 6.7179944e-39
-0.83410269 0.83887452 2.4189143 6.5336045e-39
-0.83408916 0.83955032 2.4173126 6.6254288e-39
-0.83407557 0.84022605 2.4157109 6.5343108e-39
-0.8319813 0.84325129 2.4085584 9.0239627e-39
-0.82821697 0.84678268 2.4002202 6.6254288e-39
-0.82896721 0.84653711 2.4007959 8.7459451e-39
-0.82235891 0.85332012 2.3847749 6.5328815e-39
-0.8223455 0.8539865 2.3831956 6.4406844e-39
-0.81683081 0.8601954 2.368526 6.5328815e-39
-0.81681752 0.86085725 2.3669574 6.5328815e-39
-0.81680423 0.86151904 2.3653889 6.7165567e-39
-0.81432915 0.86481756 2.3575919 8.9314238e-39
-0.81129014 0.86770105 2.3507831 6.5328815e-39
-0.81131548 0.86807323 2.3499007 9.0232467e-39
-0.80577642 0.87386513 2.3362198 6.5332346e-39
-0.8057633 0.87451798 2.3346725 6.5332346e-39
-0.80575019 0.87517095 2.3331251 6.4410404e-39
-0.80024999 0.88065982 2.3201621 6.4410404e-39
-0.80023694 0.8813082 2.3186252 6.2562946e-39
-0.79703176 0.88583153 2.3079312 8.7466626e-39
-0.79471117 0.8880716 2.3026416 6.2566519e-39
-0.79414129 0.88894498 2.3005762 8.6541054e-39
-0.7895416 0.89386791 2.2889469 6.2566519e-39
-0.78952873 0.89450765 2.2874308 6.2566519e-39
-0.78437251 0.89964753 2.2752919 5.8893099e-39
-0.7807619 0.90570533 2.2609644 8.1938531e-39
-0.76780331 0.92249405 2.2212818 7.274422e-39
-0.76111352 0.92875463 2.2064996 7.0900307e-39
-1.0250936 0.59807557 2.9880354 1.3075858e-38
-1.0250767 0.59891063 2.9860563 1.2708152e-38
-1.0161611 0.60912317 2.9619265 1.2891098e-38
-1.0161445 0.60995072 2.9599648 1.2799272e-38
-1.0075712 0.61979908 2.9366949 1.2707801e-38
-1.0075547 0.62061995 2.9347496 1.2798925e-38
-0.99898201 0.6304332 2.9115629 1.2799628e-38
-0.99896568 0.63124692 2.9096344 1.2707433e-38
-0.99894935 0.63206077 2.9077055 1.2706361e-38
-0.99039382 0.64102542 2.8865302 1.2614884e-38
-0.98214799 0.6512503 2.862365 1.2339736e-38
-0.97390288 0.66143489 2.8382952 1.2522684e-38
-0.97388697 0.66222841 2.8364148 1.2339372e-38
-0.97162527 0.66413796 2.8319077 1.5107048e-38
-0.9660002 0.67125589 2.8150849 1.2062782e-38
-0.96598434 0.67204273 2.8132198 1.2154627e-38
-0.96596855 0.67282975 2.8113549 1.2154627e-38
-0.95975316 0.68034697 2.7935901 1.529001e-38
-0.95808262 0.68181872 2.7901161 1.2062429e-38
-0.95603788 0.68454432 2.783673 1.5013422e-38
-0.95053875 0.69045985 2.7696986 1.169472e-38
-0.94525766 0.69530809 2.7582524 1.4829745e-38
-0.94263822 0.70016575 2.7467608 1.1785119e-38
-0.93543684 0.70843071 2.7272325 1.1417062e-38
-0.93901062 0.70652968 2.7317078 1.4460613e-38
-0.93540621 0.70995462 2.7236204 1.1140833e-38
-0.93539089 0.71071672 2.7218144 1.1323775e-38
-0.93537563 0.71147877 2.7200084 1.1506736e-38
-0.92784894 0.71925944 2.7016304 1.1139381e-38
-0.92066377 0.72670925 2.6840339 1.0771324e-38
-0.92064875 0.72745925 2.6822565 1.0494754e-38
-0.92063367 0.72820926 2.680479 1.049511e-38
-0.91344917 0.7356354 2.6629384 1.0679123e-38
-0.91343421 0.7363795 2.6611748 1.0587309e-38
-0.91341925 0.73712355 2.6594114 1.049511e-38
-0.90853322 0.7422058 2.6474071 1.3171309e-38
-0.90656179 0.74494767 2.6409247 1.0402915e-38
-0.90654695 0.74568629 2.6391745 9.9433715e-39
-0.89936316 0.75306571 2.6217444 9.7603969e-39
-0.89934844 0.75379843 2.620008 9.484201e-39
-0.892492 0.76157159 2.6016421 8.9292294e-39
-0.89716887 0.75843894 2.6090276 1.1972768e-38
-0.8871727 0.76837778 2.5855551 1.1511431e-38
-0.8859483 0.77045089 2.580652 7.5477425e-39
-0.88593382 0.77117264 2.5789413 7.5463047e-39
-0.87943423 0.77785504 2.563158 7.4562629e-39
-0.87941986 0.77857143 2.56146 7.1796774e-39
-0.87940544 0.77928776 2.5597622 7.1782481e-39
-0.87671626 0.78311998 2.5507021 9.9452002e-39
-0.87289196 0.78666002 2.5423439 6.9960022e-39
-0.86923987 0.79103619 2.5320024 9.6689776e-39
-0.85985225 0.80204105 2.5059984 7.27115e-39
-0.8536815 0.80903345 2.4894774 6.9034464e-39
-0.85445201 0.80969262 2.4879084 9.3927467e-39
-0.85365355 0.81042415 2.4861813 6.902736e-39
-0.8536396 0.81111962 2.4845331 6.902736e-39
-0.84973711 0.81494516 2.4754989 9.209426e-39
-0.84746951 0.81807685 2.4680953 6.902729e-39
-0.84165478 0.82401949 2.4540594 6.7186992e-39
-0.84164101 0.82470512 2.4524345 6.5332346e-39
-0.84162724 0.82539076 2.4508095 6.4421166e-39
-0.83547175 0.83162254 2.4360912 6.5343108e-39
-0.84009212 0.82860613 2.4432015 9.1161584e-39
-0.83544439 0.83298379 2.4328651 6.4421166e-39
-0.82963049 0.83888805 2.41892 6.4421166e-39
-0.82961696 0.83956385 2.4173183 6.5336045e-39
-0.82960337 0.84023964 2.4157166 6.7179944e-39
-0.82378978 0.84612507 2.4018164 6.5336045e-39
-0.82377625 0.84679615 2.4002259 6.5343108e-39
-0.82376277 0.84746724 2.3986354 6.5343108e-39
-0.81794959 0.85333353 2.3847804 6.4421166e-39
-0.81953746 0.85308379 2.385359 9.0239683e-39
-0.81530732 0.85738277 2.3752053 9.0239655e-39
-0.81243789 0.86087048 2.3669631 6.5332346e-39
-0.8124246 0.86153233 2.3653946 6.5332346e-39
-0.80695343 0.86705691 2.3523467 6.5332346e-39
-0.8069402 0.86771417 2.3507888 6.4410404e-39
-0.80692703 0.86837161 2.3492308 6.4410404e-39
-0.80145609 0.87387824 2.3362253 5.9815056e-39
-0.80230719 0.87424606 2.3353462 8.9314098e-39
-0.80142993 0.875184 2.3331306 6.2562946e-39
-0.79602963 0.88039351 2.3208289 8.6548257e-39
-0.7959463 0.88132119 2.3186307 6.2570106e-39
-0.79046297 0.8874405 2.3041732 5.8893099e-39
-0.79045004 0.88808447 2.3026471 6.1644577e-39
-0.78532118 0.89324105 2.2904685 6.1644577e-39
-0.78530836 0.89388072 2.2889524 5.9815042e-39
-0.78016704 0.89966023 2.2752974 5.8896687e-39
-0.76751518 0.91655207 2.2353678 6.815962e-39
-0.7559703 0.93121094 2.2007213 6.4475452e-39
-1.0195676 0.59809238 2.9880426 1.3168054e-38
-1.0195509 0.59892732 2.9860635 1.2708152e-38
-1.0106834 0.60913962 2.9619336 1.2983294e-38
-1.0106667 0.60996747 2.9599717 1.2891827e-38
-1.0106502 0.61079514 2.9580097 1.2891827e-38
-1.0021397 0.61981565 2.9367018 1.2799997e-38
-1.0021232 0.62063652 2.9347565 1.2891121e-38
-1.0021068 0.62145722 2.9328113 1.3074067e-38
-0.99359697 0.63044947 2.9115698 1.2799628e-38
-0.99358064 0.63126343 2.9096413 1.2707433e-38
-0.99356431 0.63207704 2.9077125 1.2706361e-38
-0.98505497 0.64104146 2.8865371 1.2522687e-38
-0.98734063 0.6395334 2.8900924 1.5658068e-38
-0.97825015 0.6489557 2.8678367 1.5383289e-38
-0.9686529 0.66145098 2.8383019 1.2522684e-38
-0.96863699 0.66224438 2.8364215 1.2339372e-38
-0.96862108 0.6630376 2.8345413 1.1786916e-38
-0.96230167 0.66991544 2.8182933 1.5198168e-38
-0.96077704 0.67205858 2.8132265 1.2154627e-38
-0.96076125 0.6728456 2.8113616 1.2154627e-38
-0.9535625 0.67942166 2.795836 1.5197813e-38
-0.95291787 0.68183434 2.7901227 1.1878398e-38
-0.9529022 0.6826148 2.7882731 1.1786202e-38
-0.94541466 0.6904754 2.7697053 1.1786916e-38
-0.93840712 0.69937617 2.7486682 1.4643919e-38
-0.93293428 0.70513952 2.7350547 1.4275858e-38
-0.93037897 0.70920801 2.7254329 1.1417062e-38
-0.93036366 0.70997012 2.7236269 1.1233028e-38
-0.93034834 0.7107321 2.7218208 1.1415972e-38
-0.93033308 0.71149403 2.7200148 1.1506736e-38
-0.92649841 0.71650863 2.7081618 1.4458799e-38
-0.91570091 0.72672427 2.6840403 1.086352e-38
-0.91846311 0.72471243 2.6887851 1.3814163e-38
-0.91567081 0.72822422 2.6804855 1.049511e-38
-0.90852517 0.73565024 2.6629448 1.0679123e-38
-0.90851021 0.73639441 2.6611812 1.0587309e-38
-0.90849525 0.73713851 2.6594176 1.049511e-38
-0.90848035 0.73788261 2.657654 1.0128486e-38
-0.90167475 0.74496251 2.6409309 1.0402915e-38
-0.90165997 0.74570113 2.6391807 1.0035926e-38
-0.90164512 0.74643964 2.6374304 9.9444281e-39
-0.89652771 0.75170958 2.6249826 1.2802173e-38
-0.88768095 0.76158631 2.6016483 9.021425e-39
-0.88766634 0.76231313 2.5999253 8.5622419e-39
-0.8811869 0.76974368 2.5823686 8.0087122e-39
-0.88117242 0.77046549 2.580658 7.6399381e-39
-0.88090628 0.7719999 2.577023 1.0957907e-38
-0.87469357 0.77786946 2.563164 7.4562629e-39
-0.87595558 0.77713561 2.5648925 1.0314336e-38
-0.87466478 0.77930224 2.5597682 7.2704437e-39
-0.86820072 0.78596318 2.5440352 7.1796774e-39
-0.86818647 0.78667432 2.5423498 7.0885566e-39
-0.86817217 0.78738534 2.5406647 7.0885566e-39
-0.86170864 0.79402512 2.524982 6.9956547e-39
-0.8552171 0.80205512 2.5060043 7.27115e-39
-0.85197914 0.80539364 2.4981189 9.6689692e-39
-0.84907967 0.80904734 2.4894834 6.9034464e-39
-0.84906572 0.80974281 2.4878352 6.8105403e-39
-0.84905177 0.81043828 2.486187 6.902736e-39
-0.84903777 0.81113362 2.4845388 6.902736e-39
-0.84902382 0.81182897 2.4828908 6.9034464e-39
-0.84761769 0.81442791 2.4767427 9.3916691e-39
-0.8428871 0.81878114 2.466465 6.7186992e-39
-0.84287322 0.81947154 2.4648287 6.6254288e-39
-0.83927417 0.82298797 2.4565246 9.2076351e-39
-0.83707643 0.8260901 2.4491904 6.5343108e-39
-0.83095443 0.83231682 2.434484 6.5343108e-39
-0.83094078 0.83299738 2.4328711 6.5343108e-39
-0.83642131 0.82989031 2.4401889 9.0239627e-39
-0.82514471 0.83957744 2.4173241 6.5336045e-39
-0.82739389 0.83872449 2.4193268 9.1158066e-39
-0.82511759 0.84092903 2.4141207 6.7179944e-39
-0.82078743 0.84528744 2.4038272 9.1154423e-39
-0.81932205 0.84748071 2.3986411 6.5343108e-39
-0.81930858 0.8481518 2.3970506 6.5343108e-39
-0.81352705 0.85401314 2.3832071 6.5332346e-39
-0.80807161 0.86022186 2.3685374 6.6254288e-39
-0.80805832 0.86088383 2.3669686 6.6254288e-39
-0.80969369 0.8605386 2.3677731 8.9310524e-39
-0.80260348 0.86707002 2.3523524 6.2570106e-39
-0.80331659 0.86683995 2.3528917 8.9306965e-39
-0.80257708 0.86838472 2.3492365 6.5332346e-39
-0.79713577 0.87389141 2.3362308 6.0737012e-39
-0.79712266 0.87454426 2.3346834 6.5328815e-39
-0.79166859 0.88068581 2.320173 6.4410404e-39
-0.7916556 0.8813343 2.3186362 6.4410404e-39
-0.78916293 0.88462645 2.3108542 8.5626343e-39
-0.78620195 0.88745344 2.3041787 5.9815056e-39
-0.78618902 0.88809741 2.3026526 6.2566519e-39
-0.78313142 0.89094859 2.2959206 8.4704372e-39
-0.781075 0.89389354 2.2889578 5.8893099e-39
-0.78106219 0.8945334 2.2874415 6.2566519e-39
-0.77596152 0.8996731 2.2753026 5.8896687e-39
-0.77594876 0.90030855 2.2737966 5.7049215e-39
-0.7730602 0.90451461 2.2638519 7.7343113e-39
-0.76025057 0.92130029 2.2241752 6.7237677e-39
-0.75577497 0.92603928 2.2129807 3.9596883e-39
-1.0140418 0.59810907 2.9880495 1.3535408e-38
-1.014025 0.59894425 2.9860704 1.3075508e-38
-1.0140082 0.59977907 2.9840915 1.2891837e-38
-1.0052056 0.60915643 2.9619408 1.3168054e-38
-1.0051891 0.60998404 2.9599786 1.325953e-38
-0.99672478 0.61901134 2.9386542 1.31677e-38
-0.99670827 0.61983198 2.9367089 1.2892193e-38
-0.99669182 0.62065279 2.9347637 1.2891474e-38
-0.98821181 0.63046581 2.9115767 1.2708152e-38
-0.98819548 0.63127965 2.9096482 1.2431569e-38
-0.98817915 0.63209343 2.9077194 1.2431572e-38
-0.97971618 0.64105779 2.886544 1.2614517e-38
-0.97969997 0.64186436 2.8846319 1.2523037e-38
-0.97155917 0.65128249 2.8623786 1.2431219e-38
-0.96576697 0.65836781 2.8456337 1.5474041e-38
-0.96340305 0.66146702 2.8383086 1.2614164e-38
-0.96338713 0.66226017 2.8364282 1.2430488e-38
-0.96337122 0.66305351 2.834548 1.2246457e-38
-0.95558548 0.67128766 2.815098 1.2062782e-38
-0.95556968 0.67207438 2.8132331 1.2154627e-38
-0.95555389 0.6728614 2.811368 1.2062432e-38
-0.94776875 0.68106943 2.7919793 1.2062079e-38
-0.94656968 0.68311316 2.7871456 1.5014134e-38
-0.9477374 0.68263048 2.7882795 1.1878398e-38
-0.94029063 0.6904909 2.7697117 1.1786916e-38
-0.93584991 0.69442368 2.7604284 1.4737907e-38
-0.93249083 0.69942874 2.7485938 1.1418489e-38
-0.93247539 0.70019644 2.746774 1.1601807e-38
-0.92535174 0.70846123 2.7272453 1.141741e-38
-0.92533642 0.70922321 2.7254393 1.141706e-38
-0.9253211 0.70998538 2.7236333 1.068237e-38
-0.92530578 0.71074736 2.7218273 1.1324145e-38
-0.91786051 0.71853399 2.7034347 1.169148e-38
-0.91784531 0.71928972 2.7016432 1.1231226e-38
-0.91073793 0.72673935 2.6840467 1.0863517e-38
-0.91072291 0.72748935 2.6822693 1.0679123e-38
-0.90360117 0.73566532 2.662951 1.0587309e-38
-0.90358621 0.73640937 2.6611874 1.049511e-38
-0.90384853 0.73678643 2.6602914 1.3445386e-38
-0.89680254 0.74423885 2.6426876 1.049511e-38
-0.8967877 0.7449773 2.6409373 1.0402915e-38
-0.89677292 0.74571586 2.6391871 1.0494027e-38
-0.89675808 0.74645442 2.6374366 1.0311053e-38
-0.88965231 0.75382763 2.6200206 9.9433771e-39
-0.88963759 0.75456041 2.6182842 9.2068854e-39
-0.88577747 0.75950271 2.6066029 1.2432663e-38
-0.8828553 0.76232773 2.5999315 8.8370309e-39
-0.8808251 0.76468527 2.5943608 1.1788014e-38
-0.87641108 0.76975816 2.5823746 8.008715e-39
-0.8763966 0.77048004 2.5806642 7.6402884e-39
-0.87638205 0.77120161 2.5789535 7.6399381e-39
-0.86995286 0.77788383 2.5631702 7.6388591e-39
-0.86993843 0.77860022 2.5614722 7.3640673e-39
-0.86992407 0.77931654 2.5597744 7.1796774e-39
-0.86552149 0.78464448 2.5471835 1.0221426e-38
-0.86348099 0.78668851 2.542356 7.3633456e-39
-0.86059904 0.78975171 2.5351202 9.7615264e-39
-0.85703832 0.79403931 2.5249879 7.1796774e-39
-0.850582 0.80206913 2.5060103 7.1789543e-39
-0.84447789 0.80906129 2.4894893 6.9945645e-39
-0.84597397 0.80884475 2.48999 9.5764149e-39
-0.84445 0.81045216 2.4861929 6.7194265e-39
-0.84515631 0.81013691 2.4869342 9.5753401e-39
-0.84442204 0.81184298 2.4828966 6.8098215e-39
-0.84440809 0.81253844 2.4812484 7.0853294e-39
-0.83831865 0.81879497 2.466471 6.9020171e-39
-0.83830476 0.81948537 2.4648347 7.0853294e-39
-0.83829093 0.82017571 2.4631984 6.9931337e-39
-0.83558369 0.82384753 2.4545186 9.1161584e-39
-0.82645077 0.83233052 2.4344897 6.7183419e-39
-0.82866627 0.83076274 2.4381866 9.3001951e-39
-0.82642341 0.83369166 2.4312637 6.7176231e-39
-0.82067257 0.83959097 2.4173298 6.6247114e-39
-0.82065898 0.84026682 2.4157281 6.9009353e-39
-0.82064545 0.84094262 2.4141264 6.9931337e-39
-0.82063186 0.84161854 2.4125245 6.7183447e-39
-0.81488138 0.84749418 2.3986468 6.5343108e-39
-0.81502867 0.84856445 2.3961089 8.7484591e-39
-0.80911785 0.85402668 2.3832126 6.4424837e-39
-0.80720282 0.85616356 2.3781638 8.9321272e-39
-0.8036921 0.86023521 2.3685429 6.9009353e-39
-0.80367881 0.86089706 2.3669744 6.6247114e-39
-0.80366552 0.86155891 2.3654058 6.5321612e-39
-0.79825348 0.86708325 2.3523579 6.6243582e-39
-0.7982403 0.86774069 2.3507998 6.4406844e-39
-0.79822707 0.86839795 2.349242 6.5332346e-39
-0.7943542 0.87302244 2.3383138 9.0232453e-39
-0.79280233 0.87455738 2.3346889 6.5332346e-39
-0.79278922 0.87521029 2.3331416 6.7158294e-39
-0.78813291 0.87958312 2.3228166 8.6544684e-39
-0.78736484 0.8813473 2.3186417 6.4410404e-39
-0.78194094 0.88746631 2.3041842 6.4406844e-39
-0.781928 0.88811028 2.3026581 6.2562946e-39
-0.77685457 0.89326674 2.2904792 5.7971157e-39
-0.77682889 0.89454615 2.287447 5.7971157e-39
-0.77174318 0.9003213 2.273802 5.7049215e-39
-0.76665783 0.90607977 2.2601964 5.4286975e-39
-0.75988781 0.91576958 2.237287 6.8156004e-39
-0.74847388 0.93042248 2.2026536 6.5397352e-39
-1.0085158 0.59812587 2.9880567 1.3259181e-38
-1.0084991 0.59896094 2.9860775 1.3167705e-38
-1.0084823 0.599796 2.9840984 1.2984392e-38
-1.0084655 0.60063106 2.9821193 1.3168054e-38
-0.99971128 0.61000061 2.9599857 1.3167335e-38
-0.99129337 0.61902767 2.9386611 1.2891474e-38
-0.99127686 0.61984837 2.9367158 1.2707801e-38
-0.99126041 0.62066936 2.9347706 1.2891474e-38
-0.98282665 0.63048232 2.9115837 1.2708152e-38
-0.98281032 0.63129592 2.9096549 1.2339372e-38
-0.98279399 0.63210976 2.9077263 1.2431572e-38
-0.97747564 0.63809335 2.8935893 1.5658429e-38
-0.97436112 0.64188087 2.8846385 1.2615234e-38
-0.96847588 0.64752764 2.871304 1.5382925e-38
-0.96626478 0.65129864 2.8623853 1.2431219e-38
-0.95815307 0.66148293 2.8383152 1.2614164e-38
-0.95813715 0.66227621 2.8364351 1.2430488e-38
-0.952685 0.66900843 2.8205247 1.5197815e-38
-0.95036232 0.67209023 2.8132398 1.2154627e-38
-0.95179796 0.6704722 2.8170624 1.5106338e-38
-0.94260395 0.68108517 2.7919858 1.2154274e-38
-0.94258827 0.68186575 2.7901361 1.2062782e-38
-0.94257265 0.68264621 2.7882862 1.1878398e-38
-0.9351666 0.69050664 2.7697184 1.1786916e-38
-0.92904186 0.69798666 2.7520411 1.4644994e-38
-0.92739397 0.70021206 2.7467804 1.1601807e-38
-0.92359883 0.70426345 2.7372098 1.4368406e-38
-0.92029387 0.70923871 2.7254457 1.1233028e-38
-0.92027855 0.71000063 2.7236397 1.068237e-38
-0.92026323 0.71076274 2.7218337 1.1324145e-38
-0.91723752 0.71514839 2.7114644 1.4550279e-38
-0.91284347 0.71930498 2.7016497 1.1231226e-38
-0.90928274 0.72336286 2.6920617 1.3814154e-38
-0.90575999 0.72750431 2.6822755 1.0679123e-38
-0.9012261 0.73166841 2.6724446 1.3721966e-38
-0.89867711 0.7356801 2.6629574 1.0587309e-38
-0.89866215 0.73642433 2.6611938 1.049511e-38
-0.89864719 0.73716837 2.6594303 1.049476e-38
-0.89191556 0.74425381 2.6426938 1.049511e-38
-0.89190072 0.74499214 2.6409435 1.049511e-38
-0.89188588 0.7457307 2.6391933 1.0494027e-38
-0.89210856 0.74611121 2.6382897 1.3168415e-38
-0.88480419 0.75384235 2.6200268 9.7589872e-39
-0.88478947 0.75457507 2.6182904 9.1146898e-39
-0.87805879 0.76161546 2.6016607 9.1139709e-39
-0.87804419 0.76234245 2.5999377 8.9292266e-39
-0.8716352 0.76977265 2.5823808 8.008715e-39
-0.87446415 0.76841491 2.5855749 1.0958621e-38
-0.87160617 0.77121609 2.5789597 7.6399381e-39
-0.86721253 0.77582842 2.5680647 1.0589132e-38
-0.86519778 0.77861452 2.5614784 7.4562629e-39
-0.86518341 0.77933097 2.5597804 7.3640673e-39
-0.85878968 0.78599167 2.5440474 7.1796774e-39
-0.85877544 0.78670287 2.542362 7.27115e-39
-0.852368 0.79405344 2.5249939 7.1796774e-39
-0.8503648 0.79711413 2.5177565 9.8526388e-39
-0.84346396 0.80412936 2.5011876 9.8522815e-39
-0.83987606 0.80907536 2.489495 7.1789543e-39
-0.83986211 0.80977076 2.4878469 6.9034464e-39
-0.8398481 0.81046611 2.4861989 6.9956547e-39
-0.83983415 0.81116152 2.4845507 7.0853294e-39
-0.83982021 0.81185699 2.4829025 6.9020171e-39
-0.83533108 0.81711364 2.4704812 9.483506e-39
-0.83375025 0.81880879 2.4664767 6.9020171e-39
-0.83089161 0.82173336 2.4595692 9.4831444e-39
-0.82801628 0.82543212 2.4508269 6.9931337e-39
-0.82800251 0.82611769 2.4492021 6.7183419e-39
-0.8219471 0.83234417 2.4344954 6.7183419e-39
-0.82193339 0.83302468 2.4328825 6.5328815e-39
-0.82191974 0.83370531 2.4312694 6.6254288e-39
-0.81700963 0.83949053 2.417599 9.2991119e-39
-0.81618685 0.84028041 2.4157338 6.9009353e-39
-0.81621301 0.84074569 2.4146307 9.2072778e-39
-0.81615973 0.84163213 2.4125302 6.8105403e-39
-0.81044072 0.84750766 2.3986526 6.5343108e-39
-0.81042725 0.84817868 2.3970621 6.2595218e-39
-0.8047086 0.85403991 2.3832183 6.3499293e-39
-0.79931241 0.86024845 2.3685486 6.9009353e-39
-0.80161685 0.85930914 2.3707554 9.207275e-39
-0.79928583 0.86157227 2.3654113 6.6243582e-39
-0.79927254 0.86223412 2.3638427 6.6243582e-39
-0.79529929 0.86602962 2.3548801 8.9310553e-39
-0.79387712 0.86841124 2.3492475 6.5332346e-39
-0.79386395 0.86906844 2.3476896 6.4406844e-39
-0.78848201 0.87457043 2.3346946 6.5332346e-39
-0.7884689 0.87522346 2.333147 6.7158294e-39
-0.78308725 0.88071185 2.320184 6.5332346e-39
-0.78263175 0.8822872 2.3164539 8.5626343e-39
-0.77848077 0.88652319 2.3064492 8.5633517e-39
-0.77766687 0.88812327 2.3026636 6.4406844e-39
-0.77765399 0.88876712 2.3011374 5.9815056e-39
-0.77260846 0.89391929 2.2889686 5.7971157e-39
-0.77259558 0.89455903 2.2874525 5.7971157e-39
-0.77258277 0.89519888 2.2859361 5.7049215e-39
-0.76753771 0.90033406 2.2738073 5.5208917e-39
-0.76248002 0.90609235 2.2602019 5.4286975e-39
-0.76246738 0.90672374 2.2587056 5.4286975e-39
-0.75087667 0.92178303 2.2231104 6.4475396e-39
-0.74719405 0.92552465 2.2142732 6.5397338e-39
-1.0029732 0.59897763 2.9860847 1.2984741e-38
-1.0029564 0.59981281 2.9841056 1.2892193e-38
-1.0029397 0.60064775 2.9821265 1.2799997e-38
-0.99423355 0.6100173 2.9599926 1.2799644e-38
-0.98584545 0.61986506 2.9367228 1.2524133e-38
-0.985829 0.62068582 2.9347775 1.252413e-38
-0.97744161 0.63049853 2.9115906 1.2339736e-38
-0.97742528 0.63131237 2.9096618 1.2339736e-38
-0.97740895 0.63212615 2.9077332 1.2431566e-38
-0.96903855 0.6410901 2.8865576 1.2890742e-38
-0.96902233 0.6418969 2.8846455 1.2615234e-38
-0.9609704 0.65131456 2.8623922 1.2614531e-38
-0.95606476 0.65695333 2.8490684 1.5382561e-38
-0.95290309 0.66149873 2.8383222 1.2706361e-38
-0.95288718 0.66229212 2.8364418 1.2429419e-38
-0.94517082 0.67131907 2.8151114 1.2154622e-38
-0.94515502 0.67210603 2.8132465 1.2154622e-38
-0.94513923 0.67289293 2.8113813 1.2154627e-38
-0.9374392 0.68110073 2.7919924 1.2062432e-38
-0.939803 0.67948657 2.7957985 1.4921942e-38
-0.93142754 0.68825233 2.7750928 1.4644998e-38
-0.93002701 0.69129652 2.7678897 1.1235191e-38
-0.92231256 0.70022732 2.7467871 1.1418136e-38
-0.91526663 0.70849198 2.7272582 1.1416694e-38
-0.91525137 0.70925385 2.7254522 1.1232673e-38
-0.91207224 0.71285689 2.7169394 1.4183663e-38
-0.91121525 0.71378201 2.7147541 1.4274767e-38
-0.90785688 0.71856433 2.7034473 1.1048634e-38
-0.90784168 0.71932018 2.7016561 1.0955716e-38
-0.90081215 0.72676951 2.6840594 1.0771322e-38
-0.90079707 0.72751945 2.682282 1.0679126e-38
-0.89375305 0.73569506 2.6629636 1.0771322e-38
-0.89373815 0.73643923 2.6612 1.0954271e-38
-0.89372319 0.73718333 2.6594365 1.049511e-38
-0.88962352 0.74091256 2.6506321 1.3446085e-38
-0.88701379 0.7450071 2.6409497 1.0587282e-38
-0.88699895 0.7457456 2.6391995 1.0679479e-38
-0.88698417 0.74648398 2.6374493 1.0035926e-38
-0.87995607 0.75385708 2.620033 9.5749463e-39
-0.8811816 0.75412232 2.6193943 1.2431591e-38
-0.87324774 0.76162994 2.6016669 9.4809542e-39
-0.87604493 0.7595399 2.6065969 1.2063885e-38
-0.87321854 0.76308405 2.5982208 8.3767716e-39
-0.86871481 0.76709539 2.5887513 1.1417805e-38
-0.86684477 0.770509 2.5806763 7.6402884e-39
-0.86683029 0.77123052 2.5789659 7.731405e-39
-0.86681581 0.77195227 2.5772555 7.7310547e-39
-0.86045706 0.77862895 2.5614843 7.6392066e-39
-0.86090583 0.77953142 2.5593417 1.0313255e-38
-0.85408425 0.78600603 2.5440533 7.1796774e-39
-0.8560136 0.78467029 2.5472031 9.8526346e-39
-0.84769762 0.79406762 2.5249999 7.1796774e-39
-0.83748978 0.80756903 2.4930856 9.5760589e-39
-0.83526033 0.80978471 2.4878528 6.902736e-39
-0.83524632 0.81048018 2.4862046 7.1782453e-39
-0.83523238 0.81117547 2.4845567 6.9020171e-39
-0.83521843 0.81187087 2.4829085 6.9020171e-39
-0.82919556 0.81813234 2.4681187 6.9020171e-39
-0.82918167 0.81882268 2.4664826 6.9016668e-39
-0.82349306 0.8247602 2.4524577 6.8094712e-39
-0.82347929 0.82544589 2.4508326 6.9931337e-39
-0.82114255 0.82867879 2.4431899 9.2080009e-39
-0.81744349 0.83235782 2.4345012 6.7179944e-39
-0.82033992 0.8299455 2.4401944 9.0236082e-39
-0.81174183 0.83894235 2.4189429 6.5335933e-39
-0.81172824 0.83961815 2.4173412 6.5332346e-39
-0.81171465 0.840294 2.4157395 6.9934897e-39
-0.81170106 0.8409698 2.4141378 6.9931337e-39
-0.81168753 0.84164572 2.4125359 6.8091152e-39
-0.80686527 0.84731543 2.3991385 8.9321244e-39
-0.80598652 0.84819221 2.3970678 6.4421166e-39
-0.80029941 0.85405332 2.383224 6.0737012e-39
-0.79908609 0.85536671 2.3801212 9.023604e-39
-0.79493284 0.86026174 2.3685541 6.9934897e-39
-0.79491955 0.86092365 2.3669856 6.9009381e-39
-0.79490626 0.8615855 2.365417 6.7169056e-39
-0.79489297 0.86224729 2.3638484 6.6247114e-39
-0.78954035 0.86776704 2.350811 6.5328815e-39
-0.78976399 0.86874163 2.3484991 8.8392184e-39
-0.78951395 0.8690818 2.3476951 6.2566519e-39
-0.78361106 0.87491179 2.3339269 8.8388624e-39
-0.78414857 0.87523639 2.3331528 6.4406844e-39
-0.77879649 0.88072491 2.3201895 6.3492133e-39
-0.7787835 0.88137335 2.3186526 6.4406844e-39
-0.77341878 0.88749218 2.3041952 6.0744158e-39
-0.77340585 0.88813615 2.302669 6.0744158e-39
-0.77502406 0.88772994 2.3036182 8.287125e-39
-0.76837522 0.8939321 2.288974 5.7971157e-39
-0.76834953 0.89521164 2.2859416 5.7049215e-39
-0.76333219 0.90034688 2.2738128 5.5208917e-39
-0.75830233 0.9061051 2.2602072 5.42798e-39
-0.75828964 0.90673643 2.2587109 5.2435916e-39
-0.75034344 0.91639417 2.2358875 7.0907496e-39
-0.73843503 0.93168175 2.199754 6.8134424e-39
-0.99744743 0.59899443 2.9860919 1.2892546e-38
-0.99743068 0.59982938 2.9841127 1.2892193e-38
-0.99741393 0.60066456 2.9821336 1.2799997e-38
-0.98875582 0.61003387 2.9599998 1.2799644e-38
-0.98873919 0.61086184 2.9580379 1.2707095e-38
-0.98041397 0.61988157 2.9367297 1.2431937e-38
-0.98039752 0.62070233 2.9347844 1.252413e-38
-0.97205645 0.63051504 2.9115975 1.2432291e-38
-0.97204012 0.63132864 2.9096687 1.2432291e-38
-0.9730354 0.63132477 2.9096696 1.5290729e-38
-0.9636997 0.64110625 2.8865645 1.2706711e-38
-0.96390826 0.64099419 2.8868287 1.5382202e-38
-0.95567608 0.65133059 2.8623989 1.2430138e-38
-0.95566005 0.65213084 2.8605027 1.2247176e-38
-0.94765317 0.66151476 2.8383288 1.2614164e-38
-0.94763726 0.66230804 2.8364484 1.2521615e-38
-0.94306177 0.66760707 2.8239276 1.5105258e-38
-0.93996346 0.67133486 2.8151181 1.2154622e-38
-0.93994766 0.67212182 2.8132532 1.2247176e-38
-0.93993187 0.67290872 2.811388 1.2154627e-38
-0.93227446 0.68111658 2.7919991 1.2062432e-38
-0.93225878 0.68189704 2.7901492 1.1878751e-38
-0.92491853 0.69053757 2.7697315 1.1602526e-38
-0.91965544 0.69710559 2.7542086 1.4460973e-38
-0.91723108 0.7002427 2.7467935 1.132594e-38
-0.91425562 0.70291412 2.7404871 1.4368411e-38
-0.91022408 0.70850724 2.7272646 1.150889e-38
-0.91020882 0.70926911 2.7254586 1.1417062e-38
-0.9028703 0.71782362 2.7052453 1.1323772e-38
-0.90285516 0.71857959 2.7034538 1.1048634e-38
-0.90461403 0.71767884 2.7055736 1.3906351e-38
-0.89584929 0.72678447 2.6840658 1.0771322e-38
-0.89583421 0.72753453 2.6822882 1.0863517e-38
-0.89581919 0.72828448 2.6805108 1.0679123e-38
-0.88882899 0.73571008 2.6629698 1.0771322e-38
-0.88881409 0.73645419 2.6612065 1.0954271e-38
-0.88879913 0.73719823 2.6594429 1.049511e-38
-0.88214165 0.7442832 2.6427064 1.0587282e-38
-0.88212681 0.74502182 2.6409559 1.0587282e-38
-0.88211197 0.74576044 2.6392057 1.0587282e-38
-0.88209713 0.74649894 2.6374555 1.0035926e-38
-0.88208234 0.74723738 2.6357052 9.7596963e-39
-0.87509328 0.75460452 2.6183028 9.6657098e-39
-0.87507856 0.75533718 2.6165664 9.3883998e-39
-0.86842203 0.76237154 2.5999501 8.9292266e-39
-0.86840743 0.76309866 2.5982268 8.5615216e-39
-0.86839283 0.76382571 2.5965037 8.283504e-39
-0.86206895 0.77052349 2.5806825 7.8243195e-39
-0.86252016 0.77069014 2.5802832 1.0866069e-38
-0.85573077 0.77792698 2.5631883 7.7310547e-39
-0.85571641 0.77864331 2.5614905 7.7314022e-39
-0.84937871 0.78602034 2.5440593 7.3640673e-39
-0.84581649 0.79204696 2.5298052 9.5767778e-39
-0.83877146 0.79927868 2.5127244 9.8515598e-39
-0.83667654 0.80211139 2.5060282 7.1789543e-39
-0.83666247 0.80281174 2.5043681 7.1789543e-39
-0.83067244 0.80910319 2.489507 6.8105403e-39
-0.83065844 0.80979866 2.4878588 6.8105403e-39
-0.83064449 0.81049407 2.4862106 6.9942127e-39
-0.83063054 0.81118953 2.4845624 6.9020171e-39
-0.83072847 0.81228638 2.4819617 9.2998336e-39
-0.8246271 0.81814617 2.4681246 6.9020171e-39
-0.8261041 0.81713247 2.4705148 9.3913145e-39
-0.81895602 0.82477409 2.4524634 6.9016668e-39
-0.81894225 0.8254596 2.4508386 6.9931337e-39
-0.81295353 0.83169091 2.43612 6.81019e-39
-0.81293982 0.83237141 2.4345071 6.7179944e-39
-0.81292617 0.83305204 2.432894 6.5328815e-39
-0.80726957 0.83895594 2.4189487 6.4413991e-39
-0.80725604 0.83963168 2.417347 6.5332346e-39
-0.80724245 0.84030753 2.4157453 6.9009353e-39
-0.80722886 0.84098339 2.4141436 6.9931337e-39
-0.80721527 0.84165919 2.4125419 6.9016696e-39
-0.80155927 0.84753454 2.398664 6.5343108e-39
-0.8015458 0.84820569 2.3970735 6.5343108e-39
-0.79352731 0.85809118 2.3737109 9.1147234e-39
-0.79054004 0.86093694 2.366991 6.9931337e-39
-0.79052675 0.86159885 2.3654225 6.6247114e-39
-0.79051346 0.8622607 2.3638539 6.6247114e-39
-0.78519046 0.86778027 2.3508165 6.5328815e-39
-0.78517729 0.86843765 2.3492587 6.4406844e-39
-0.78516406 0.86909497 2.3477006 6.2566519e-39
-0.7798413 0.87459666 2.3347056 6.4406844e-39
-0.77674747 0.87919056 2.3238435 8.8395813e-39
-0.7744928 0.88138634 2.3186581 6.4406844e-39
-0.77063149 0.88532889 2.3093462 8.6544712e-39
-0.76915771 0.88750511 2.3042006 6.0744158e-39
-0.76914477 0.88814908 2.3026745 6.0744158e-39
-0.76913184 0.88879299 2.3011484 5.8893099e-39
-0.76414198 0.89394504 2.2889793 5.7971157e-39
-0.7641291 0.89458477 2.2874632 5.7049215e-39
-0.75913948 0.89972407 2.2753243 5.5208917e-39
-0.75685984 0.90334135 2.2667699 7.7343155e-39
-0.75411189 0.90674907 2.2587163 5.2435916e-39
-0.74333137 0.92060071 2.2259767 7.1822236e-39
-0.73967177 0.92436004 2.2170973 6.35606e-39
-0.99192154 0.59901124 2.9860988 1.2892546e-38
-0.9919048 0.5998463 2.9841197 1.2892193e-38
-0.99188805 0.60068136 2.9821405 1.2799991e-38
-0.98327821 0.61005056 2.9600067 1.2707801e-38
-0.98326159 0.61087829 2.958045 1.2432291e-38
-0.97498256 0.61989814 2.9367366 1.215606e-38
-0.97496611 0.62071878 2.9347913 1.2339736e-38
-0.96667129 0.63053119 2.9116042 1.2614884e-38
-0.96665496 0.63134515 2.9096756 1.2432641e-38
-0.96663862 0.63215888 2.9077468 1.2615587e-38
-0.95836091 0.64112264 2.8865712 1.252339e-38
-0.9583447 0.64192927 2.8846593 1.2615234e-38
-0.95832849 0.64273614 2.8827469 1.2522684e-38
-0.95154506 0.65043694 2.8645518 1.5198171e-38
-0.95036566 0.65214688 2.8605094 1.2339372e-38
-0.94546777 0.65702927 2.8489783 1.5106694e-38
-0.94240326 0.66153067 2.8383355 1.2430138e-38
-0.94238734 0.66232395 2.8364551 1.2430138e-38
-0.94237143 0.66311735 2.8345749 1.2246104e-38
-0.9347561 0.6713506 2.8151248 1.2430488e-38
-0.9347403 0.67213768 2.8132598 1.2430138e-38
-0.93472451 0.67292458 2.8113947 1.1970956e-38
-0.93025684 0.67809904 2.7991681 1.4736841e-38
-0.92709404 0.68191266 2.7901559 1.1878751e-38
-0.92196715 0.68687516 2.7784371 1.4552447e-38
-0.91979456 0.69055319 2.769738 1.1235191e-38
-0.91216511 0.69949037 2.7486198 1.1050798e-38
-0.91214967 0.7002582 2.7467999 1.1233391e-38
-0.91213423 0.7010262 2.7449801 1.132594e-38
-0.90518153 0.7085225 2.7272711 1.150889e-38
-0.90752566 0.70693552 2.7310128 1.436769e-38
-0.90515095 0.71004647 2.723659 1.150889e-38
-0.90513563 0.71080852 2.7218533 1.1324145e-38
-0.9066636 0.70884484 2.7264946 1.4275495e-38
-0.89783812 0.71935058 2.7016687 1.0956081e-38
-0.89088637 0.72679949 2.684072 1.0955716e-38
-0.89087129 0.72754955 2.6822946 1.0772028e-38
-0.88890803 0.73083472 2.674525 1.3814152e-38
-0.88390499 0.73572505 2.6629763 1.077099e-38
-0.88389009 0.73646909 2.6612127 1.0494754e-38
-0.87811095 0.74205416 2.6480238 1.3261692e-38
-0.87725466 0.74429816 2.6427126 1.0587282e-38
-0.87723982 0.74503648 2.6409624 1.0128822e-38
-0.87722498 0.74577516 2.6392121 9.9444281e-39
-0.87721014 0.74651372 2.6374617 1.0035923e-38
-0.87673467 0.74850035 2.6327569 1.2709968e-38
-0.87024522 0.75461936 2.618309 9.2990853e-39
-0.87141669 0.75415564 2.6193979 1.2156085e-38
-0.86361098 0.76238626 2.599956 8.7448339e-39
-0.86359638 0.76311314 2.598233 8.5615216e-39
-0.86358178 0.76384026 2.5965099 8.3774779e-39
-0.85729307 0.77053791 2.5806887 8.1913084e-39
-0.85727859 0.77125961 2.5789781 7.8243195e-39
-0.85099006 0.77794135 2.5631945 8.0980394e-39
-0.85457158 0.77588135 2.5680463 1.0589848e-38
-0.84327775 0.78721809 2.5412722 1.0221781e-38
-0.83204144 0.80212545 2.5060341 7.27115e-39
-0.82899225 0.80630451 2.4961545 9.484215e-39
-0.82607073 0.8091172 2.4895129 6.7186992e-39
-0.82605672 0.80981255 2.4878647 6.3520747e-39
-0.82604277 0.81050801 2.4862165 6.8112522e-39
-0.82602882 0.81120348 2.4845684 6.810176e-39
-0.82601482 0.81189889 2.4829202 7.0860412e-39
-0.82005864 0.81816 2.4681306 6.8105403e-39
-0.82004476 0.8188504 2.4664943 6.9931337e-39
-0.81441903 0.8247878 2.4524693 7.0853238e-39
-0.81660223 0.8238939 2.4545693 9.3001951e-39
-0.80844986 0.83170456 2.4361258 7.0853294e-39
-0.80982774 0.83082193 2.438206 9.1161584e-39
-0.80842251 0.83306569 2.4329 6.3499223e-39
-0.80279744 0.83896947 2.4189544 6.3499223e-39
-0.80278385 0.83964533 2.4173527 6.3499223e-39
-0.80277032 0.84032112 2.415751 6.9009353e-39
-0.80275673 0.84099698 2.4141493 6.9931337e-39
-0.80226958 0.84275627 2.4099834 9.3913089e-39
-0.80272961 0.84234858 2.4109459 6.7176231e-39
-0.79710513 0.84821922 2.397079 6.5336045e-39
-0.79095799 0.85417104 2.383024 8.8399344e-39
-0.7861737 0.86028838 2.3685653 6.5336045e-39
-0.78616041 0.86095023 2.3669968 6.5336045e-39
-0.78614712 0.86161208 2.3654282 6.5343108e-39
-0.78613383 0.86227387 2.3638597 6.5332346e-39
-0.78176665 0.86752081 2.3514605 8.9310496e-39
-0.78082734 0.86845082 2.3492641 6.4410404e-39
-0.78081411 0.86910814 2.3477063 5.9815056e-39
-0.7756682 0.87411302 2.3358874 8.8384981e-39
-0.77021509 0.88075089 2.3202004 6.4406844e-39
-0.77020204 0.88139939 2.3186636 6.2570106e-39
-0.76489663 0.88751805 2.3042061 5.5234029e-39
-0.76530415 0.88830161 2.3023455 8.3796765e-39
-0.75992149 0.89331818 2.2905009 6.2555757e-39
-0.7598958 0.89459759 2.2874687 5.2464615e-39
-0.75493401 0.89973688 2.2753296 5.5208917e-39
-0.7549212 0.90037239 2.2738235 5.5208917e-39
-0.75490844 0.90100789 2.2723172 5.7049215e-39
-0.74994683 0.90613043 2.2602179 5.4286975e-39
-0.74993414 0.90676177 2.2587216 5.3361446e-39
-0.74496031 0.91249877 2.2451661 5.2439503e-39
-0.73345578 0.92812002 2.2082381 6.1720345e-39
-0.73095125 0.93091047 2.2016454 6.8138054e-39
-0.98637891 0.59986311 2.9841268 1.2799997e-38
-0.98636216 0.60069799 2.9821477 1.2799991e-38
-0.97780049 0.61006707 2.9600139 1.2707801e-38
-0.97778386 0.61089498 2.9580519 1.2339736e-38
-0.96955121 0.61991447 2.9367437 1.215606e-38
-0.96953475 0.62073517 2.9347985 1.2432291e-38
-0.96128625 0.63054752 2.9116111 1.2522687e-38
-0.96126992 0.63136148 2.9096825 1.2340445e-38
-0.96125358 0.63217527 2.9077537 1.2615587e-38
-0.96123725 0.63298887 2.9058251 1.2615587e-38
-0.95406222 0.64009005 2.889055 1.5382562e-38
-0.95298964 0.64275229 2.8827538 1.2522684e-38
-0.95297343 0.64355916 2.8808417 1.2339372e-38
-0.94507128 0.65216291 2.8605163 1.2247176e-38
-0.94505519 0.65296298 2.8586199 1.215606e-38
-0.93715334 0.66154665 2.8383422 1.2430138e-38
-0.93838048 0.66132969 2.8388457 1.519674e-38
-0.93712151 0.66313326 2.8345816 1.2153909e-38
-0.93255287 0.66768402 2.8238344 1.538148e-38
-0.92953295 0.67215335 2.8132665 1.2430138e-38
-0.92194498 0.68114787 2.7920122 1.2062432e-38
-0.9219293 0.68192834 2.7901626 1.1878751e-38
-0.91467053 0.69056869 2.7697446 1.1235191e-38
-0.91026229 0.69574189 2.7575204 1.4093624e-38
-0.90708375 0.69950575 2.7486265 1.1050798e-38
-0.90706831 0.70027357 2.7468064 1.1325946e-38
-0.90705287 0.7010417 2.7449865 1.132594e-38
-0.90013903 0.70853776 2.7272778 1.150889e-38
-0.90012372 0.70929974 2.7254717 1.150889e-38
-0.90010846 0.71006185 2.7236657 1.1416694e-38
-0.90009314 0.71082389 2.7218597 1.1324145e-38
-0.89285153 0.71860999 2.7034667 1.1048279e-38
-0.89537227 0.71681625 2.7076964 1.4091104e-38
-0.88592345 0.72681445 2.6840785 1.0955716e-38
-0.87898099 0.73573989 2.6629825 1.0863185e-38
-0.87236768 0.744313 2.6427188 1.0587282e-38
-0.87410319 0.74344027 2.6447725 1.2802151e-38
-0.872338 0.74579012 2.6392183 1.0036624e-38
-0.87232316 0.74652857 2.6374679 9.9437274e-39
-0.87230831 0.74726719 2.6357176 9.7596963e-39
-0.86539716 0.75463396 2.6183152 9.2990853e-39
-0.86538243 0.75536662 2.6165788 9.021425e-39
-0.86536771 0.75609928 2.6148424 8.9292266e-39
-0.86083102 0.76194346 2.6010292 1.169654e-38
-0.85877079 0.76385486 2.5965161 8.4696735e-39
-0.85372525 0.76938355 2.5834548 1.1418521e-38
-0.84886956 0.7745837 2.5711706 1.095683e-38
-0.84623498 0.77867216 2.5615025 7.6399381e-39
-0.83998197 0.78533787 2.5457566 7.3640673e-39
-0.83718163 0.79077339 2.532897 9.6686147e-39
-0.82740629 0.80213946 2.5060401 7.27115e-39
-0.82146883 0.80913121 2.4895186 6.9034464e-39
-0.82145488 0.80982667 2.4878705 6.6282987e-39
-0.82144094 0.81052196 2.4862225 6.9034464e-39
-0.82226872 0.81101114 2.4850562 9.4838605e-39
-0.82141298 0.81191283 2.4829261 7.0860412e-39
-0.81552249 0.81798351 2.4685874 9.3920264e-39
-0.8154763 0.81886417 2.4665003 6.9931337e-39
-0.8098821 0.82480156 2.4524751 7.2693535e-39
-0.80986834 0.82548714 2.4508502 6.9020171e-39
-0.80394614 0.83171815 2.4361317 6.9931337e-39
-0.80393249 0.83239877 2.4345186 6.7183419e-39
-0.80391884 0.83307934 2.4329057 6.5343108e-39
-0.80052477 0.83743542 2.4226096 9.0239627e-39
-0.79831171 0.83965892 2.4173584 6.5343108e-39
-0.79769284 0.84068108 2.4149408 9.1150808e-39
-0.79828459 0.84101045 2.414155 6.9931337e-39
-0.798271 0.84168631 2.4125533 6.9931337e-39
-0.79825741 0.84236217 2.4109516 6.6254288e-39
-0.79824388 0.84303802 2.4093497 6.5336045e-39
-0.78707182 0.85409343 2.3832409 6.5343108e-39
-0.78542423 0.85730046 2.3756537 8.8395827e-39
-0.78178084 0.86096352 2.3670022 6.7179944e-39
-0.78176755 0.86162543 2.3654337 6.5343108e-39
-0.78175426 0.86228728 2.3638651 6.6254288e-39
-0.77649057 0.86780667 2.3508277 6.5332346e-39
-0.77647734 0.86846393 2.3492699 6.5332346e-39
-0.77646416 0.86912137 2.3477118 5.9815056e-39
-0.77120066 0.874623 2.3347166 6.4406844e-39
-0.76548582 0.88147825 2.3185167 8.8384981e-39
-0.76472086 0.88267767 2.3156803 8.4711561e-39
-0.76063561 0.8875311 2.3042114 5.4312086e-39
-0.76062268 0.88817501 2.3026853 5.9822216e-39
-0.75568819 0.89333099 2.2905064 6.2555757e-39
-0.75567532 0.89397073 2.2889903 5.7971157e-39
-0.7556625 0.8946104 2.2874742 5.2464615e-39
-0.75071567 0.90038508 2.273829 5.7049215e-39
-0.74912876 0.90257591 2.2686498 7.5499257e-39
-0.74575645 0.9067744 2.2587271 5.2439503e-39
-0.74574375 0.90740573 2.2572308 5.5208917e-39
-0.74081039 0.91251135 2.2451713 5.1517561e-39
-0.74079782 0.91313851 2.243685 4.785849e-39
-0.74062037 0.91497016 2.2393451 6.9978365e-39
-0.73213136 0.92359364 2.2189777 6.8138096e-39
-0.98085302 0.59987968 2.984134 1.2431572e-38
-0.98083627 0.60071486 2.9821548 1.2707801e-38
-0.9723227 0.61008388 2.9600208 1.2707798e-38
-0.97230607 0.61091161 2.9580588 1.252412e-38
-0.97228944 0.6117394 2.9560971 1.2707082e-38
-0.96410334 0.62075174 2.9348054 1.2523411e-38
-0.95590109 0.63056403 2.911618 1.2522687e-38
-0.95588475 0.63137776 2.9096894 1.2431572e-38
-0.95586842 0.63219148 2.9077606 1.2431566e-38
-0.95585209 0.6330052 2.9058321 1.2706361e-38
-0.94766694 0.64196181 2.8846729 1.2706361e-38
-0.94694465 0.6438747 2.8801448 1.5288936e-38
-0.94763452 0.64357531 2.8808486 1.2246473e-38
-0.94090784 0.65050626 2.8644779 1.5105983e-38
-0.9397608 0.65297908 2.8586268 1.2063511e-38
-0.93190336 0.66156232 2.8383491 1.2155708e-38
-0.93188745 0.66235584 2.8364687 1.2154627e-38
-0.93187147 0.6631493 2.8345883 1.2154627e-38
-0.93185556 0.66394264 2.8327081 1.2246457e-38
-0.92432559 0.67216915 2.8132732 1.2614161e-38
-0.9206959 0.67672378 2.8025088 1.5104896e-38
-0.91678023 0.68116355 2.7920189 1.2062429e-38
-0.91720945 0.68085539 2.7927454 1.464572e-38
-0.90954655 0.6905843 2.7697511 1.1601818e-38
-0.90200227 0.69952112 2.7486329 1.132594e-38
-0.90198684 0.70028919 2.7468131 1.1601088e-38
-0.9019714 0.70105708 2.744993 1.1601088e-38
-0.89820468 0.70558369 2.7342958 1.4367686e-38
-0.89508116 0.709315 2.7254782 1.141706e-38
-0.8950659 0.71007711 2.7236722 1.1140833e-38
-0.89505059 0.71083915 2.7218661 1.1048983e-38
-0.88784975 0.71862507 2.7034731 1.0590174e-38
-0.88783455 0.71938092 2.7016816 1.0956437e-38
-0.88096058 0.72682971 2.6840849 1.1046832e-38
-0.87976569 0.72952151 2.6777148 1.3628683e-38
-0.8766064 0.73324543 2.6689153 1.3445382e-38
-0.86748075 0.74432778 2.6427252 1.0310697e-38
-0.86746591 0.7450664 2.6409748 9.9444281e-39
-0.86745107 0.74580491 2.6392245 9.9433715e-39
-0.86743623 0.74654341 2.6374743 9.9437274e-39
-0.86742139 0.74728197 2.6357241 9.3923529e-39
-0.86693478 0.74852908 2.632772 1.2248999e-38
-0.86053431 0.75538123 2.616585 8.8373841e-39
-0.85932916 0.75652796 2.6138773 1.1972045e-38
-0.85397434 0.76314235 2.5982454 8.5622419e-39
-0.84775585 0.76984519 2.5824113 8.4693232e-39
-0.84774137 0.770567 2.5807009 8.283504e-39
-0.84150869 0.77797002 2.5632067 7.9136481e-39
-0.84149426 0.77868652 2.5615087 7.5459544e-39
-0.83861792 0.78211313 2.5534112 1.0221781e-38
-0.83156759 0.78949577 2.5359728 9.5764191e-39
-0.82427591 0.80143481 2.5077367 9.8522759e-39
-0.8175593 0.80844462 2.491179 9.5757002e-39
-0.81685311 0.80984056 2.4878764 6.994933e-39
-0.81683916 0.81053603 2.4862282 6.8116208e-39
-0.81682515 0.81123143 2.48458 7.2704437e-39
-0.8168112 0.81192672 2.4829321 7.1782481e-39
-0.81092167 0.81818777 2.4681423 6.9960022e-39
-0.81090784 0.81887817 2.466506 7.1789543e-39
-0.80608183 0.82474756 2.4526353 9.8512025e-39
-0.80533135 0.82550097 2.450856 6.9945645e-39
-0.80151927 0.82958746 2.4412024 9.2991133e-39
-0.79942882 0.83241248 2.4345243 6.9931337e-39
-0.79941517 0.83309305 2.4329114 6.8105403e-39
-0.7938531 0.83899665 2.4189658 6.5343136e-39
-0.79383951 0.83967251 2.4173641 6.9009381e-39
-0.79382592 0.8403483 2.4157624 6.9934897e-39
-0.79381239 0.84102404 2.4141607 6.9931337e-39
-0.7940504 0.84194338 2.4119797 9.2994692e-39
-0.79378521 0.84237576 2.4109573 6.6247114e-39
-0.78971797 0.84652603 2.4011548 9.2072806e-39
-0.77741456 0.86031502 2.3685765 6.6254288e-39
-0.77740127 0.86097682 2.367008 6.7176231e-39
-0.77738798 0.86163867 2.3654394 6.7176231e-39
-0.77215379 0.86716247 2.3523912 6.5332346e-39
-0.77375114 0.86672878 2.3534057 8.8384967e-39
-0.77212739 0.86847723 2.3492754 6.0744158e-39
-0.77105373 0.86981785 2.3461068 8.5629902e-39
-0.76688039 0.87463599 2.3347223 6.4410404e-39
-0.75746739 0.88710898 2.3052387 8.1045288e-39
-0.75636154 0.88818789 2.3026907 6.1644577e-39
-0.75145489 0.89334381 2.2905118 6.0711873e-39
-0.7514292 0.89462334 2.2874794 5.7049215e-39
-0.74652296 0.89976233 2.2753406 5.5208917e-39
-0.74651021 0.9003979 2.2738342 5.5208917e-39
-0.74159139 0.90615577 2.2602286 4.8776845e-39
-0.73664778 0.91315109 2.2436903 4.7854903e-39
-0.73663521 0.91377825 2.242204 4.7854903e-39
-0.72881109 0.92436635 2.2171745 6.3557041e-39
-0.72346348 0.92976558 2.2044225 6.5400939e-39
-0.97532713 0.59989661 2.9841409 1.2707798e-38
-0.97531039 0.60073167 2.9821618 1.2707801e-38
-0.97529358 0.60156667 2.9801826 1.2523767e-38
-0.96682835 0.61092818 2.958066 1.2708152e-38
-0.96681172 0.61175609 2.956104 1.2799278e-38
-0.95867187 0.62076819 2.9348123 1.2799997e-38
-0.95051593 0.63058037 2.9116249 1.2522687e-38
-0.95049959 0.63139397 2.9096963 1.2431572e-38
-0.95048326 0.63220799 2.9077675 1.2431566e-38
-0.94421083 0.63867199 2.8924997 1.5657712e-38
-0.94232816 0.64197797 2.8846796 1.2706361e-38
-0.94231194 0.64278483 2.8827674 1.2613812e-38
-0.94229573 0.64359158 2.8808553 1.2246473e-38
-0.9344824 0.65219498 2.8605299 1.2154627e-38
-0.93446636 0.65299511 2.8586335 1.2063511e-38
-0.92869616 0.6599251 2.8422573 1.4921591e-38
-0.92663753 0.66237175 2.8364754 1.2246823e-38
-0.92662156 0.66316515 2.834595 1.2154627e-38
-0.92030501 0.66949546 2.8196445 1.5197453e-38
-0.91911823 0.67218488 2.8132799 1.242977e-38
-0.91161543 0.68117917 2.7920256 1.1878398e-38
-0.91159976 0.68195975 2.7901757 1.1878398e-38
-0.90576261 0.68952823 2.7722864 1.4645723e-38
-0.89751023 0.69837612 2.7513847 1.4460608e-38
-0.89690542 0.70030457 2.7468195 1.1785119e-38
-0.89688998 0.70107239 2.7449996 1.1785119e-38
-0.89005393 0.70856822 2.7272906 1.1416694e-38
-0.89003861 0.70933038 2.7254846 1.1233028e-38
-0.89002329 0.71009237 2.7236786 1.1048279e-38
-0.89000803 0.71085453 2.7218726 1.1048983e-38
-0.88828665 0.71343267 2.7157762 1.3540087e-38
-0.88283277 0.71939605 2.7016881 1.0956437e-38
-0.87602085 0.72614658 2.6857457 1.3537569e-38
-0.869133 0.73576987 2.6629951 1.0587309e-38
-0.86259371 0.74434263 2.6427314 1.0587282e-38
-0.86257893 0.74508125 2.640981 9.9444281e-39
-0.86256409 0.74581963 2.6392307 1.0035926e-38
-0.86194909 0.74629933 2.6380992 1.2617413e-38
-0.8625344 0.74729681 2.6357303 9.4845485e-39
-0.85570091 0.75466353 2.6183276 9.2990853e-39
-0.85568619 0.75539607 2.6165912 9.1139709e-39
-0.85567147 0.75612867 2.6148548 9.0217753e-39
-0.84916323 0.76315695 2.5982516 8.5622419e-39
-0.8449164 0.76808834 2.5865993 1.1695819e-38
-0.83777851 0.77609116 2.5676916 1.0956467e-38
-0.83675361 0.77870095 2.5615146 7.5459544e-39
-0.830571 0.78536636 2.5457687 7.1796774e-39
-0.82163048 0.79676384 2.5188303 9.7604446e-39
-0.81873816 0.80015969 2.5108061 9.576775e-39
-0.81813604 0.80216765 2.5060518 7.1789543e-39
-0.81812197 0.80286813 2.5043917 6.9942127e-39
-0.81226522 0.8091591 2.4895306 6.9942127e-39
-0.81225127 0.80985451 2.4878824 6.902736e-39
-0.81379509 0.80974728 2.4881234 9.300914e-39
-0.81222332 0.81124538 2.484586 7.1782481e-39
-0.81300634 0.81103951 2.4850674 9.7597355e-39
-0.80635321 0.81820166 2.468148 6.9960022e-39
-0.80633938 0.81889194 2.466512 7.1789543e-39
-0.80080813 0.82482904 2.4524868 7.4537434e-39
-0.7949388 0.83174551 2.4361432 7.0853294e-39
-0.79492515 0.83242619 2.43453 6.9931337e-39
-0.79226601 0.83621067 2.4255826 9.2079967e-39
-0.78938091 0.83901018 2.4189715 6.8105403e-39
-0.78936732 0.83968604 2.4173698 6.9931337e-39
-0.78935373 0.84036183 2.4157681 6.9009353e-39
-0.78934014 0.84103769 2.4141665 7.0853294e-39
-0.78932661 0.84171349 2.4125648 7.0860412e-39
-0.78931302 0.84238929 2.4109631 6.9931337e-39
-0.78378314 0.84825963 2.3970962 6.9016528e-39
-0.77731067 0.85610574 2.3785541 8.9317685e-39
-0.77303499 0.86032826 2.3685822 6.5332346e-39
-0.77451992 0.85931104 2.3709807 8.9314126e-39
-0.76780385 0.86717576 2.3523967 6.5332346e-39
-0.76779062 0.86783302 2.3508389 6.5332346e-39
-0.76777744 0.86849046 2.3492808 6.3506398e-39
-0.76776421 0.86914778 2.347723 5.9822216e-39
-0.76420581 0.87372082 2.3369141 8.746657e-39
-0.76254696 0.87530202 2.3331804 6.4410404e-39
-0.75734305 0.88079005 2.3202169 6.4406844e-39
-0.76012683 0.87843359 2.3257785 8.6544614e-39
-0.75211346 0.88755697 2.3042223 5.5234029e-39
-0.75210053 0.88820082 2.3026962 6.2566519e-39
-0.74722159 0.89335668 2.2905173 6.2555757e-39
-0.74231738 0.89977515 2.2753458 5.5208917e-39
-0.74230462 0.90041065 2.2738397 5.5208917e-39
-0.74138719 0.90143079 2.2714295 7.5510019e-39
-0.7374137 0.90616852 2.2602339 5.1539099e-39
