# .PCD v0.7 - Point Cloud Data file format
VERSION 0.7
FIELDS x y z rgb
SIZE 4 4 4 4
TYPE F F F F
COUNT 1 1 1 1
WIDTH 1048
HEIGHT 1
VIEWPOINT 0 0 0 1 0 0 0
POINTS 1048
DATA ascii
1.406496 1.2649447 -0.46180061 1.5679349e-38
1.4035183 1.2644091 -0.46003494 9.8685211e-39
1.3998225 1.2639852 -0.45836532 8.1077672e-39
1.3927226 1.2640274 -0.4570137 1.1978554e-38
1.3870052 1.264164 -0.45614785 1.2256229e-38
1.3816684 1.2629616 -0.45245865 1.4840269e-38
1.3859159 1.2645898 -0.45684907 9.7709347e-39
1.9147339 1.3466872 -0.74217623 1.1164768e-38
1.9048607 1.3450266 -0.73657209 1.0518316e-38
1.8827664 1.3408071 -0.72294086 1.033608e-38
1.868041 1.3381571 -0.71420747 1.0887453e-38
1.8503724 1.3350872 -0.70396584 1.1348795e-38
1.8446507 1.3362844 -0.70539659 7.2964896e-39
1.8229616 1.3330492 -0.69398004 1.21782e-38
1.8102874 1.330725 -0.68636888 1.3010469e-38
1.801253 1.3301022 -0.68318373 1.9830726e-38
1.7992733 1.3304282 -0.68348759 1.7526229e-38
1.7837715 1.3272322 -0.67341328 1.1264914e-38
1.7852188 1.3285117 -0.67647946 9.9644961e-39
1.7672139 1.3254039 -0.66608769 1.9453683e-38
1.7581723 1.3244573 -0.66219926 2.2775202e-38
1.7430221 1.3220996 -0.6540122 2.1948323e-38
1.7314743 1.3211205 -0.64954442 2.2406425e-38
1.6997792 1.3158436 -0.63167113 2.3050708e-38
1.6541833 1.306586 -0.60234916 2.3050708e-38
1.6312939 1.3019996 -0.5877614 2.341805e-38
1.6168525 1.2992116 -0.57878697 2.3326215e-38
1.6141955 1.2989876 -0.57776165 2.2683366e-38
1.6101093 1.2990649 -0.57709843 2.3509886e-38
1.610711 1.3001202 -0.57950705 2.3509886e-38
1.5996811 1.2986194 -0.57401389 2.3509886e-38
1.5689045 1.2950584 -0.56004447 1.8449857e-38
1.5541651 1.2921525 -0.55075395 1.9922833e-38
1.5361376 1.2885077 -0.53919405 2.1393335e-38
1.4834281 1.2789358 -0.50774568 2.2313513e-38
1.4690386 1.2762887 -0.49908671 2.111714e-38
1.4645907 1.2752509 -0.49593443 2.1852542e-38
1.4527245 1.2729304 -0.48849565 2.175963e-38
1.4400556 1.2704011 -0.4804416 2.1667795e-38
1.4104716 1.2671901 -0.4674727 1.4024464e-38
1.4076706 1.2674994 -0.46757364 1.3838279e-38
1.4074055 1.2679861 -0.46857366 1.4203858e-38
1.4033048 1.2676525 -0.46701783 9.1255246e-39
1.4001386 1.2679083 -0.46692836 9.9549378e-39
1.3976529 1.2694205 -0.46969905 1.3823204e-38
1.3833025 1.2654654 -0.45821428 1.4561149e-38
1.3806586 1.2656093 -0.45798889 1.3547368e-38
1.3894625 1.2684897 -0.46601811 1.20737e-38
1.9106315 1.349933 -0.74837387 9.964447e-39
1.9005781 1.3484364 -0.74308825 1.1071492e-38
1.8778183 1.3440571 -0.72897583 1.0519063e-38
1.8637964 1.3414928 -0.7205708 1.1161174e-38
1.8533843 1.3396637 -0.71449232 9.5970966e-39
1.8449149 1.3395681 -0.71256387 1.0703081e-38
1.8275185 1.3368202 -0.70307553 1.1809765e-38
1.8096973 1.3333671 -0.69197285 1.2275052e-38
1.7983713 1.3334229 -0.68979156 2.0567918e-38
1.7953826 1.3335221 -0.68939912 9.6993508e-39
1.7924572 1.3332751 -0.68826938 1.0514019e-38
1.7824732 1.3314953 -0.68238461 1.0606934e-38
1.7659727 1.3286582 -0.6728853 1.5218433e-38
1.7543259 1.3274938 -0.66799545 2.2498978e-38
1.7415414 1.3251086 -0.66023004 2.2498978e-38
1.7275122 1.3227565 -0.65228355 2.1486276e-38
1.6363598 1.30672 -0.59901708 2.3509886e-38
1.6250583 1.3046008 -0.59212953 2.2958873e-38
1.6150426 1.302821 -0.58623791 2.3509886e-38
1.6197088 1.3041446 -0.59005386 2.2683007e-38
1.6178942 1.3052897 -0.59216589 2.3509881e-38
1.6016703 1.3019378 -0.58160716 2.3509886e-38
1.5929273 1.3005326 -0.57678586 2.1947561e-38
1.5843544 1.30005 -0.57399809 2.3509886e-38
1.5687337 1.2985592 -0.56759363 1.9001973e-38
1.5537411 1.2955657 -0.55806184 2.0472105e-38
1.5360255 1.2919514 -0.54663163 2.2406066e-38
1.5249693 1.2892168 -0.5384602 2.2591531e-38
1.4755945 1.2807122 -0.51000184 2.2221319e-38
1.4612945 1.2778275 -0.50084615 2.1944736e-38
1.4481139 1.2753674 -0.49283785 2.0838764e-38
1.4116024 1.2706919 -0.47528848 1.4577636e-38
1.4076805 1.2701205 -0.47325352 1.346698e-38
1.4079227 1.2716233 -0.47655818 1.2264136e-38
1.4064935 1.2715554 -0.47612083 1.0324446e-38
1.3983662 1.2701111 -0.47134033 1.0965818e-38
1.3964502 1.2707264 -0.47228372 1.3823564e-38
1.3822927 1.2681129 -0.46374461 1.576149e-38
1.3796488 1.2682568 -0.46351919 1.1796006e-38
1.906342 1.3533639 -0.75493443 9.1353898e-39
1.8965089 1.351674 -0.74927497 1.0428288e-38
1.8819971 1.348984 -0.74049813 8.5876208e-39
1.8632923 1.3453934 -0.72891837 1.1808692e-38
1.8494117 1.3428252 -0.72053343 9.0428298e-39
1.8337901 1.3411845 -0.71380413 1.0797062e-38
1.8202122 1.3386627 -0.70558161 1.2550218e-38
1.8110391 1.3370806 -0.70029008 1.5590855e-38
1.7850336 1.3356985 -0.6920104 1.5034456e-38
1.782918 1.3355153 -0.69118363 1.3920472e-38
1.7647314 1.3319126 -0.67968297 1.6961144e-38
1.74691 1.3299757 -0.67186469 2.2314589e-38
1.7343695 1.3276157 -0.66420364 2.2590096e-38
1.7173874 1.3242497 -0.65346056 2.2037648e-38
1.6858413 1.3179265 -0.63335061 2.2683366e-38
1.6621456 1.312883 -0.6176089 2.3326215e-38
1.6420714 1.311646 -0.61084902 2.3142544e-38
1.6334603 1.3100886 -0.60572547 2.2039441e-38
1.6251535 1.3085948 -0.60080081 2.2958873e-38
1.6109017 1.3059847 -0.59225005 2.3509886e-38
1.6165297 1.3086305 -0.59912556 2.2683319e-38
1.6056134 1.3065569 -0.59241474 2.1947187e-38
1.5920255 1.3038981 -0.58389342 2.1118134e-38
1.5770398 1.3009051 -0.57436407 2.0013951e-38
1.5629507 1.3000919 -0.56973869 2.0840914e-38
1.5455029 1.2974176 -0.56039923 2.2037289e-38
1.5298185 1.2942314 -0.550309 2.2222395e-38
1.4776864 1.2845412 -0.51872164 2.2221678e-38
1.4659082 1.2822088 -0.51127493 2.1945454e-38
1.4517009 1.279314 -0.50211662 2.2037289e-38
1.4061068 1.2728177 -0.47877693 1.6047405e-38
1.4067273 1.2743189 -0.48215497 1.3000276e-38
1.4007688 1.2731085 -0.47832176 1.2350249e-38
1.3990103 1.273363 -0.47851568 1.1981431e-38
1.4004622 1.2742536 -0.48074007 1.4560056e-38
1.3932459 1.2727059 -0.47592059 1.2900895e-38
1.3843658 1.2722971 -0.47323039 1.2531774e-38
1.939806 1.3601186 -0.7763688 1.2731021e-38
1.9252321 1.3579078 -0.76861697 1.3466075e-38
1.886066 1.3529956 -0.75001585 1.1255879e-38
1.8846712 1.3536367 -0.75112116 1.1807966e-38
1.8639572 1.3495854 -0.73813456 9.2311938e-39
1.8454212 1.345984 -0.72656566 8.5858103e-39
1.8341796 1.3452719 -0.72273803 1.356005e-38
1.8189827 1.3423854 -0.71339649 1.3103759e-38
1.8098177 1.3407906 -0.70807886 1.8354894e-38
1.8041596 1.3399367 -0.70507908 1.5222426e-38
1.7918035 1.3379936 -0.69835842 4.4532396e-39
1.7699896 1.334813 -0.68703473 1.4115401e-38
1.7842941 1.3395909 -0.70029259 1.1715738e-38
1.7781522 1.3386494 -0.69700462 1.6867477e-38
1.7609921 1.3352641 -0.68618298 1.954552e-38
1.7390527 1.3321197 -0.67491215 2.2312796e-38
1.7305377 1.3306249 -0.66994369 2.2405707e-38
1.7096287 1.3263525 -0.65643847 2.1024946e-38
1.6851259 1.3213195 -0.64055544 2.2775202e-38
1.66318 1.316829 -0.62636721 2.3509886e-38
1.6382555 1.3137304 -0.6145891 2.0477879e-38
1.6364306 1.3144033 -0.61567605 2.3509886e-38
1.6260819 1.3117366 -0.60779572 2.3509886e-38
1.6204154 1.3110199 -0.60509133 2.3509879e-38
1.610244 1.3108723 -0.60270435 2.1854619e-38
1.6027044 1.3095427 -0.59829134 2.2038297e-38
1.5868455 1.3065218 -0.58852422 2.1762068e-38
1.5731617 1.3037856 -0.57981575 2.1853229e-38
1.5593073 1.3029908 -0.57527804 2.1025664e-38
1.5439831 1.3006029 -0.56699061 2.1853259e-38
1.529392 1.2976265 -0.55757731 2.2313513e-38
1.4760941 1.2875698 -0.52495861 2.2313872e-38
1.4647361 1.2852864 -0.51770371 2.2129483e-38
1.452935 1.2829022 -0.51014054 2.0566127e-38
1.4444265 1.2812989 -0.50493783 1.8631429e-38
1.4365842 1.2803113 -0.50120455 2.1117447e-38
1.4181954 1.2775395 -0.49146232 1.6142105e-38
1.4130628 1.2766345 -0.48845875 1.3374428e-38
1.4050874 1.2754906 -0.48435989 1.6599863e-38
1.4024184 1.275636 -0.48413226 1.5583931e-38
1.3997493 1.2757813 -0.48390475 1.2350602e-38
1.3944112 1.276072 -0.48344958 1.5117565e-38
1.3917422 1.2762173 -0.48322207 1.2809803e-38
1.3890731 1.2763627 -0.48299447 1.2348123e-38
1.9018981 1.3575431 -0.76308489 1.0979661e-38
1.8933301 1.3565329 -0.75915504 9.6010707e-39
1.8814002 1.3570672 -0.75788766 1.0334299e-38
1.8707495 1.3551347 -0.75153661 9.5981518e-39
1.8501104 1.3510487 -0.73849046 1.0058439e-38
1.834864 1.3483012 -0.7294395 1.4390908e-38
1.8236449 1.3474143 -0.72523797 1.5682677e-38
1.8179797 1.3465548 -0.72222453 1.8539644e-38
1.8044945 1.3439914 -0.71393085 1.1544335e-38
1.7947484 1.3422272 -0.70812827 5.3680297e-39
1.7894791 1.343547 -0.70991635 8.950609e-39
1.7654986 1.3382443 -0.69355518 1.6499444e-38
1.762249 1.3384213 -0.69327807 2.0003578e-38
1.7479132 1.3375876 -0.68855858 1.4477602e-38
1.7312014 1.3342452 -0.67792112 1.9367244e-38
1.7202731 1.3321824 -0.67123121 2.2405349e-38
1.7082793 1.329886 -0.66381896 2.1207541e-38
1.687578 1.3256525 -0.65044045 2.2774843e-38
1.6734519 1.3228539 -0.64150691 2.3509886e-38
1.663799 1.321604 -0.63683736 2.3509886e-38
1.6415538 1.3183715 -0.62531334 2.3509886e-38
1.6322801 1.3175392 -0.62162566 2.2775157e-38
1.6247089 1.3168986 -0.61869925 2.3509872e-38
1.6134599 1.3130136 -0.6079967 2.1672364e-38
1.6052899 1.3135989 -0.60760403 2.1762782e-38
1.5963216 1.3119355 -0.60217804 2.1762116e-38
1.5852467 1.3097759 -0.59524888 2.1577031e-38
1.569627 1.3065538 -0.58509433 2.1945095e-38
1.5571233 1.3045853 -0.57828832 2.3509886e-38
1.5412587 1.3026005 -0.57076448 2.1485917e-38
1.5271327 1.2996932 -0.56159508 2.1762859e-38
1.4761217 1.290956 -0.53230006 2.2221678e-38
1.4614013 1.2878827 -0.5226503 2.1669588e-38
1.4544997 1.2866106 -0.51849174 1.9920408e-38
1.4475182 1.2853599 -0.51436371 1.4116427e-38
1.4386976 1.2836469 -0.50886029 1.2457562e-38
1.4315199 1.2829903 -0.50597882 1.5496015e-38
1.417767 1.2809123 -0.49868217 1.3653179e-38
1.4105847 1.279754 -0.49471292 1.6876104e-38
1.401399 1.2783087 -0.48971525 1.5488496e-38
1.4094939 1.2820261 -0.49941337 1.2440632e-38
1.4047371 1.2812623 -0.49679184 1.3269678e-38
1.3933918 1.2787449 -0.48903257 1.5117216e-38
1.3907229 1.2788903 -0.48880497 1.1978965e-38
1.3944856 1.2806307 -0.49334022 1.0233756e-38
1.9505972 1.3705692 -0.80120111 1.2269336e-38
1.9406741 1.3693285 -0.79649639 1.3283819e-38
1.9178401 1.3647684 -0.78197718 1.0056619e-38
1.903301 1.3620167 -0.77306116 1.061015e-38
1.8926033 1.360076 -0.76668268 9.8751016e-39
1.882812 1.3605444 -0.76570719 1.0978195e-38
1.8666801 1.3583425 -0.75765842 9.2283085e-39
1.8460821 1.3542221 -0.74454588 7.9415339e-39
1.8342122 1.3528401 -0.73913962 1.5774539e-38
1.8231535 1.3513138 -0.73358583 1.7801364e-38
1.8168029 1.34974 -0.72888595 2.341805e-38
1.8123113 1.3495312 -0.72752047 1.1629341e-38
1.8066882 1.3486688 -0.72450936 3.2474868e-39
1.7948624 1.3469816 -0.71845102 1.1716894e-38
1.7725992 1.3439492 -0.70735693 1.7051847e-38
1.7644465 1.3425074 -0.70257616 1.7143316e-38
1.7366345 1.3382807 -0.68776745 1.6317909e-38
1.7289282 1.3376123 -0.68475318 1.1354154e-38
1.7182275 1.3355794 -0.67817456 2.0561454e-38
1.7058049 1.3331598 -0.67040801 2.1853618e-38
1.6939477 1.3308622 -0.66302091 2.0656528e-38
1.675619 1.3271281 -0.65120673 2.2590813e-38
1.6640381 1.3248855 -0.64399439 2.3142544e-38
1.6533413 1.3240908 -0.64009911 2.2591477e-38
1.6353344 1.3208482 -0.62941474 2.176419e-38
1.6245668 1.318734 -0.62264633 2.1212457e-38
1.6142608 1.3184863 -0.62001508 2.3509886e-38
1.6016651 1.3164239 -0.6129874 2.2681931e-38
1.5941631 1.3150731 -0.60853648 2.2774484e-38
1.5797004 1.3121029 -0.59916264 2.2958873e-38
1.5691215 1.3100295 -0.59252059 2.2497543e-38
1.5590914 1.3080779 -0.58625436 2.2406066e-38
1.5407898 1.3054223 -0.57678205 2.1945812e-38
1.5304916 1.3030545 -0.5695594 2.3509886e-38
1.4835827 1.2959288 -0.54458922 2.3509886e-38
1.4682475 1.2928892 -0.53488761 2.2129842e-38
1.4588176 1.2906066 -0.52802622 2.0472498e-38
1.4602685 1.2915652 -0.53039759 1.9733867e-38
1.4537126 1.2903786 -0.5264945 4.5310579e-39
1.4476005 1.2892951 -0.52290493 6.926893e-39
1.4363884 1.2881472 -0.51813954 1.5492422e-38
1.4247466 1.2857256 -0.51052767 1.5304786e-38
1.4068767 1.2825871 -0.50009668 1.4748777e-38
1.4041934 1.2827333 -0.49986792 1.4840254e-38
1.4015104 1.2828794 -0.49963918 1.5758966e-38
1.3988271 1.2830255 -0.49941042 1.1428662e-38
1.3961439 1.2831715 -0.49918157 1.1700954e-38
1.9373269 1.3728023 -0.80334157 1.2639897e-38
1.9136581 1.3680384 -0.78821105 9.5963848e-39
1.8991476 1.3652637 -0.77925086 1.2265731e-38
1.888487 1.3633109 -0.77285385 1.0794908e-38
1.8768923 1.3618462 -0.76732433 9.8747639e-39
1.8602363 1.3598589 -0.75963396 9.6885468e-39
1.8403389 1.3558439 -0.74689227 9.6842308e-39
1.8316061 1.3542978 -0.74176759 1.0062026e-38
1.8290927 1.3565131 -0.74605644 1.2826089e-38
1.8226233 1.3553094 -0.74213344 2.0749081e-38
1.8169559 1.3546106 -0.73946798 7.3005016e-39
1.8139832 1.3543499 -0.73829913 7.8482761e-39
1.8005633 1.3517429 -0.72992408 1.3092533e-38
1.7839671 1.3483784 -0.7192626 1.7419921e-38
1.7620705 1.3452289 -0.70798934 1.7788334e-38
1.7449521 1.3422581 -0.69807452 1.5579922e-38
1.7210125 1.3392261 -0.68664068 1.3006512e-38
1.7143998 1.3385811 -0.68389922 1.9181405e-38
1.7020023 1.3361415 -0.67609453 2.1945095e-38
1.6901695 1.3338252 -0.66867191 2.3142544e-38
1.67507 1.3307734 -0.65899181 2.3509886e-38
1.6619626 1.3276793 -0.64962506 2.2683345e-38
1.6571323 1.3279238 -0.64917266 2.3509867e-38
1.6466632 1.3265253 -0.64401567 2.2498175e-38
1.6209204 1.3214314 -0.62774855 2.0844074e-38
1.6062945 1.3183724 -0.61814886 2.1486625e-38
1.5994134 1.3199793 -0.62023175 2.2775202e-38
1.5830826 1.3165274 -0.6094346 2.2775202e-38
1.5722665 1.314378 -0.60258025 2.2683007e-38
1.5586979 1.3115727 -0.59374523 2.2313869e-38
1.5439272 1.3097278 -0.58674639 2.2774843e-38
1.5296404 1.3067113 -0.57730812 2.2682649e-38
1.4868027 1.2978969 -0.54950696 2.1209335e-38
1.4838603 1.2998735 -0.55319083 2.2867037e-38
1.4570467 1.2932494 -0.53339136 2.1211487e-38
1.45961 1.2948221 -0.53731924 5.272129e-39
1.4503576 1.2929734 -0.53143364 3.3201441e-39
1.447632 1.2933037 -0.53159535 1.1427922e-38
1.438271 1.2919685 -0.52680027 1.3549481e-38
1.4262623 1.2894372 -0.51887614 1.5116085e-38
1.4058517 1.2852741 -0.50570929 1.474843e-38
1.4103225 1.2892897 -0.51531714 9.8609583e-39
1.4001826 1.2864728 -0.50715399 8.9397363e-39
1.4008392 1.2873011 -0.50908166 1.0046838e-38
1.9330903 1.3761139 -0.80965436 1.1810487e-38
1.9182609 1.3732455 -0.80042642 9.5985189e-39
1.8987988 1.3693388 -0.78800803 9.0442634e-39
1.8792744 1.365209 -0.77509338 1.070199e-38
1.8737569 1.364579 -0.77260703 1.0239941e-38
1.8574942 1.3627615 -0.76536435 8.7698373e-39
1.8431777 1.3599682 -0.75640339 1.1255539e-38
1.8294386 1.3602539 -0.75423026 1.7065975e-38
1.8142592 1.3564095 -0.74281693 2.0478956e-38
1.8155562 1.3583643 -0.74731523 8.3985744e-39
1.8125787 1.3581022 -0.74614245 9.8715157e-39
1.8000848 1.3556466 -0.73828346 1.576149e-38
1.7826419 1.3520887 -0.72703058 1.8064563e-38
1.7541512 1.3473837 -0.71104765 1.8066427e-38
1.7348263 1.3433549 -0.69839239 1.5493613e-38
1.7196113 1.3405843 -0.68929774 1.2635557e-38
1.6864017 1.3362051 -0.67306179 2.2499695e-38
1.6843125 1.336796 -0.67391717 2.3509886e-38
1.6752414 1.3348277 -0.66780961 2.2222378e-38
1.6600047 1.3317034 -0.65794456 2.2315227e-38
1.6465673 1.3302706 -0.65210956 2.1945431e-38
1.628968 1.3265661 -0.64050746 2.2774484e-38
1.6157004 1.3238418 -0.63190919 2.3050708e-38
1.6045156 1.3216136 -0.62480885 2.3050708e-38
1.5903232 1.3215073 -0.62169427 2.2774843e-38
1.581388 1.3197936 -0.616166 2.2682649e-38
1.5686724 1.3171616 -0.60787964 2.2683007e-38
1.5581526 1.3150537 -0.60117531 2.2683366e-38
1.5403682 1.3124675 -0.59195805 2.2590813e-38
1.5250273 1.3091774 -0.58171284 2.2682649e-38
1.4725651 1.3009872 -0.55330801 2.2406783e-38
1.4641496 1.2993156 -0.54797632 1.024709e-38
1.4461416 1.2957166 -0.53651953 1.1977865e-38
1.4354501 1.294289 -0.53125399 1.4006553e-38
1.4276611 1.2931637 -0.52723318 1.3732093e-38
1.4105927 1.2894133 -0.51563996 1.5393446e-38
1.4078969 1.2895603 -0.51541007 1.6589102e-38
1.3967774 1.2883995 -0.51063544 9.8617094e-39
1.9241878 1.3786014 -0.81323349 7.0195468e-39
1.900277 1.373839 -0.79805702 1.0519033e-38
1.8811108 1.3702164 -0.78631401 1.0334292e-38
1.8686329 1.3692232 -0.78162658 1.0517953e-38
1.8496786 1.3653541 -0.76939243 8.0330107e-39
1.8420402 1.3640381 -0.76498902 1.4482001e-38
1.8163172 1.3595629 -0.75006628 2.0286675e-38
1.8129873 1.3597443 -0.74978232 1.6792621e-38
1.8196939 1.3622693 -0.75661576 1.0974972e-38
1.8146474 1.3626466 -0.75640702 1.5485277e-38
1.7986704 1.3593867 -0.74609804 1.8157117e-38
1.7808712 1.3570902 -0.73750561 1.6956804e-38
1.7574433 1.3520974 -0.721928 2.0837668e-38
1.7316515 1.3465614 -0.70469338 1.881155e-38
1.7159659 1.3433542 -0.69455761 1.3372779e-38
1.7014968 1.3405935 -0.68563622 1.5679085e-38
1.6986852 1.3403416 -0.68451911 2.1484124e-38
1.6832609 1.3401346 -0.68093592 2.2406066e-38
1.6714615 1.3377728 -0.6734212 2.1946495e-38
1.654111 1.334106 -0.6619516 2.1763516e-38
1.6391994 1.3323166 -0.65504438 2.2958873e-38
1.6252451 1.329434 -0.64596373 2.3142544e-38
1.6120158 1.3266908 -0.63733208 2.3050708e-38
1.6044512 1.3252989 -0.63277966 2.2867037e-38
1.5738645 1.3209474 -0.61713618 2.2223112e-38
1.5669646 1.3204088 -0.61456728 2.2590813e-38
1.5500267 1.3159362 -0.60143578 2.2039441e-38
1.5522639 1.3180661 -0.6065042 2.3509886e-38
1.5355675 1.3151097 -0.59670633 2.2774843e-38
1.5218889 1.3121934 -0.58760846 2.2499695e-38
1.4851704 1.3044598 -0.56339246 2.2038007e-38
1.462412 1.3016258 -0.55262786 1.3381016e-38
1.4534568 1.3005646 -0.5485087 7.9241438e-39
1.4442469 1.2986845 -0.54256409 1.2809416e-38
1.4279733 1.2951124 -0.53151828 1.4930301e-38
1.4264669 1.2962567 -0.53369069 1.4100151e-38
1.4151864 1.2938571 -0.52620018 1.4284911e-38
1.4068673 1.2922598 -0.5210489 1.5671838e-38
1.4041716 1.2924066 -0.52081913 8.9418999e-39
1.928275 1.3813578 -0.8200357 4.9966492e-39
1.9011555 1.3774987 -0.80616355 1.125335e-38
1.8739481 1.3717792 -0.78824383 1.2639921e-38
1.8769512 1.3734508 -0.7924754 1.1809057e-38
1.8651352 1.3719637 -0.78685236 8.6802018e-39
1.8455813 1.3685495 -0.7754817 1.2268957e-38
1.8284655 1.3650771 -0.76448095 9.9777818e-39
1.8150454 1.3628976 -0.7570318 1.8631842e-38
1.8217646 1.3654422 -0.76390958 1.6968759e-38
1.8184142 1.3656245 -0.76362401 1.5210146e-38
1.8122467 1.3661853 -0.76358545 1.7971649e-38
1.7946248 1.3625168 -0.75205642 1.7695778e-38
1.7733886 1.3587378 -0.73955387 2.1388314e-38
1.7525733 1.3549814 -0.72718608 2.2037998e-38
1.7245682 1.349067 -0.7086814 1.9640588e-38
1.6952091 1.3428108 -0.68916166 1.4203969e-38
1.6976652 1.3435726 -0.69131118 1.3007242e-38
1.6884495 1.3418304 -0.68566394 1.9824986e-38
1.6794409 1.3430967 -0.68657649 2.1945454e-38
1.6676644 1.3407156 -0.67902464 2.240499e-38
1.6503499 1.3370191 -0.66749787 2.3234379e-38
1.6354429 1.3352089 -0.66054672 2.2591172e-38
1.621506 1.3322998 -0.65141195 2.2775202e-38
1.6093735 1.3297645 -0.64345372 2.2867037e-38
1.5894352 1.325483 -0.63012618 2.3509886e-38
1.5891063 1.3257217 -0.63057679 2.2683007e-38
1.5803626 1.3245753 -0.62631589 2.3509886e-38
1.5703293 1.3239448 -0.62291098 2.2957796e-38
1.5639774 1.3235654 -0.62079805 2.3050349e-38
1.5483506 1.3201561 -0.61023641 2.2958514e-38
1.5393364 1.3191303 -0.60618216 2.3509886e-38
1.5183518 1.3149095 -0.59277362 2.2312796e-38
1.4833746 1.3075323 -0.56968331 2.2037648e-38
1.4746665 1.3057548 -0.56406307 2.249826e-38
1.4633312 1.3045883 -0.55923235 6.9168597e-39
1.4498996 1.3022089 -0.55134779 9.3974718e-39
1.4425 1.3022579 -0.54995006 1.4837727e-38
1.4344919 1.2991003 -0.54148191 1.34555e-38
1.4299294 1.3003521 -0.54326653 1.4283467e-38
1.4234626 1.2991232 -0.53928989 1.4561855e-38
1.4058377 1.2949594 -0.52668786 1.5296585e-38
1.4159533 1.298009 -0.53535008 8.1107015e-39
1.4074819 1.2972987 -0.53208959 8.7564717e-39
1.962924 1.3915091 -0.8490687 8.3970961e-39
1.9269371 1.3848659 -0.82736319 1.1071875e-38
1.912444 1.3824992 -0.81929076 1.0523037e-38
1.9014012 1.3797098 -0.81100374 1.4665697e-38
1.8829588 1.377773 -0.8030597 1.1070412e-38
1.8802106 1.3784105 -0.80388194 1.1718661e-38
1.8553337 1.3722056 -0.78538424 7.3872573e-39
1.8356996 1.3706471 -0.7780174 1.7432586e-38
1.8238354 1.3686148 -0.77120352 1.8265218e-38
1.8306144 1.3708421 -0.77740616 1.4291759e-38
1.8108758 1.3690156 -0.76943767 1.7051483e-38
1.793642 1.3653463 -0.75798643 1.7419187e-38
1.7848216 1.3645176 -0.75439864 1.6497257e-38
1.7673068 1.360822 -0.7428326 2.0007552e-38
1.7288115 1.3535832 -0.71932775 2.1486994e-38
1.721788 1.3523266 -0.71517801 2.0563611e-38
1.6989481 1.3473666 -0.69979084 1.2730295e-38
1.6938168 1.3465495 -0.69697785 1.3558614e-38
1.6858852 1.3450834 -0.69218981 1.7154935e-38
1.6701528 1.3438215 -0.68625861 2.1393006e-38
1.6586174 1.3414347 -0.67874354 2.2222395e-38
1.6484137 1.3409728 -0.67566907 2.3509886e-38
1.6310554 1.3379341 -0.66555858 2.3326215e-38
1.6204784 1.3358088 -0.65880466 2.3509886e-38
1.6056466 1.3324972 -0.64861619 2.3509886e-38
1.5882968 1.3284677 -0.63636094 2.3509886e-38
1.5936307 1.3303297 -0.6414786 2.2865243e-38
1.574168 1.3267576 -0.6297847 2.3509886e-38
1.573837 1.3276663 -0.63168567 2.0927316e-38
1.5565921 1.3244846 -0.62128824 1.9545849e-38
1.5385206 1.3204298 -0.6088317 2.0282719e-38
1.5258106 1.3176501 -0.60022658 2.1113553e-38
1.4823227 1.310773 -0.57648987 2.1852539e-38
1.4757329 1.3095355 -0.57246971 2.1487352e-38
1.4644746 1.3083756 -0.56766897 1.0514932e-38
1.4539636 1.3057154 -0.55976987 1.2441734e-38
1.442642 1.3040489 -0.55385876 1.3087078e-38
1.4322708 1.3018411 -0.54696804 1.3731366e-38
1.4246864 1.3030574 -0.54806131 1.1058791e-38
1.4108601 1.2993968 -0.53732127 1.0502754e-38
1.9469908 1.3924674 -0.84790617 8.2119509e-39
1.9423425 1.3918482 -0.84562039 8.5840223e-39
1.9322485 1.3899761 -0.83951312 1.1809792e-38
1.9122953 1.3858289 -0.82647365 1.2729938e-38
1.8982155 1.3853428 -0.8225593 1.0795257e-38
1.8846627 1.3842053 -0.81734031 9.1411996e-39
1.859085 1.3770614 -0.79666579 1.0705222e-38
1.8259062 1.3717875 -0.77849746 1.8540366e-38
1.835873 1.375237 -0.78799564 1.4760332e-38
1.8192053 1.3721524 -0.77792615 1.4840275e-38
1.8204027 1.3732417 -0.78052902 1.8710304e-38
1.8039861 1.3707343 -0.77176082 1.7511385e-38
1.7837005 1.3669465 -0.75943226 1.6591583e-38
1.77112 1.3643562 -0.75126398 1.6676287e-38
1.7551894 1.3627844 -0.74462134 2.3509886e-38
1.726787 1.357071 -0.72647184 2.2313513e-38
1.7113268 1.3538162 -0.71627861 2.1852183e-38
1.6927584 1.34978 -0.70376116 1.6047135e-38
1.6899508 1.3495241 -0.70263606 1.3282744e-38
1.6781199 1.3471049 -0.69499063 1.4574926e-38
1.6723 1.3467653 -0.69307214 2.3509886e-38
1.6600821 1.3449624 -0.68668336 2.2314231e-38
1.6447517 1.3421603 -0.67749745 2.3050708e-38
1.6301504 1.3389779 -0.6676358 2.2775202e-38
1.6220392 1.3393304 -0.66675085 2.3509886e-38
1.6129314 1.3379374 -0.6618818 2.2864526e-38
1.5871583 1.3314526 -0.64259565 2.3509886e-38
1.5899434 1.3331615 -0.64686364 1.7142231e-38
1.5730361 1.3297251 -0.63598317 1.9450407e-38
1.5701518 1.3304683 -0.6370067 1.6957135e-38
1.5610965 1.3286351 -0.63119513 1.64036e-38
1.5458533 1.3252828 -0.62083495 1.5851151e-38
1.5222554 1.3202288 -0.60509062 1.5574194e-38
1.4725311 1.3117626 -0.57664365 2.0928447e-38
1.4697499 1.3117566 -0.57606554 1.9548029e-38
1.4586909 1.3106332 -0.57138395 1.2074724e-38
1.4368881 1.3057706 -0.55641896 1.4746608e-38
1.4359493 1.3056827 -0.55603766 1.4651528e-38
1.4290024 1.3045505 -0.55217314 1.4191635e-38
1.4305112 1.3076023 -0.55909067 1.0693978e-38
1.4260455 1.3070787 -0.55704898 7.7419148e-39
1.414026 1.3038927 -0.54770446 8.5735153e-39
1.954468 1.3985747 -0.86265647 7.1996207e-39
1.9344448 1.3941886 -0.84908509 1.0702725e-38
1.9339795 1.3951137 -0.85099465 1.1626861e-38
1.9207596 1.3920966 -0.84177178 1.1256249e-38
1.9007971 1.3893861 -0.8318426 1.1716867e-38
1.8796049 1.3854818 -0.81907755 1.0428622e-38
1.8613967 1.3815868 -0.80693924 8.0365896e-39
1.8475051 1.3787175 -0.79790014 1.3745868e-38
1.8212761 1.3753252 -0.78522021 1.8070421e-38
1.8289089 1.3779755 -0.79251277 1.548381e-38
1.8045698 1.3732643 -0.77736044 1.8713921e-38
1.8122474 1.3757901 -0.7843926 1.8801788e-38
1.7698512 1.367568 -0.75796396 1.3004982e-38
1.7687571 1.3671337 -0.75680089 1.3557815e-38
1.744487 1.3622748 -0.74134195 2.3326215e-38
1.7292134 1.3611736 -0.73585224 2.3509886e-38
1.7165208 1.3587631 -0.72805077 2.3509886e-38
1.695249 1.354301 -0.71406108 2.1576677e-38
1.6829686 1.3517517 -0.70604271 1.4386565e-38
1.6730146 1.3494734 -0.69908416 1.530743e-38
1.6686602 1.3491244 -0.69744289 1.8534971e-38
1.6585141 1.3484626 -0.69394702 2.2313872e-38
1.6452723 1.3456622 -0.68518943 2.3050708e-38
1.6329433 1.3433497 -0.67767423 2.2775202e-38
1.6269324 1.3422248 -0.67401528 2.3509886e-38
1.5940925 1.3371556 -0.65635955 1.7788685e-38
1.5830392 1.3345997 -0.64857632 1.981811e-38
1.582325 1.3354436 -0.65025902 1.8340783e-38
1.5711688 1.333678 -0.64416689 1.9078728e-38
1.5608965 1.3322829 -0.6390568 1.7418112e-38
1.5504611 1.3300921 -0.63218993 1.7234077e-38
1.5317637 1.3258175 -0.6191296 1.7049331e-38
1.5221809 1.3238431 -0.61290503 1.7048608e-38
1.4775641 1.3168753 -0.58874238 1.6959318e-38
1.4680561 1.3148685 -0.58246249 1.5301595e-38
1.4588709 1.3138434 -0.57837504 1.2258771e-38
1.4458071 1.311227 -0.57005167 1.3638816e-38
1.4358988 1.3093654 -0.56400532 1.3822844e-38
1.4247912 1.3072376 -0.5571385 1.5575671e-38
1.4213114 1.3069885 -0.55589145 1.1797794e-38
1.4309659 1.3117317 -0.56812894 7.7433763e-39
1.9502825 1.4018456 -0.86889154 1.014631e-38
1.9390175 1.39933 -0.86115259 1.0979294e-38
1.9343855 1.3991807 -0.85988718 9.9658651e-39
1.9164509 1.3954114 -0.84807676 8.7712638e-39
1.8992724 1.3933417 -0.84010172 1.2083492e-38
1.8844033 1.3902822 -0.83045167 1.2269678e-38
1.872493 1.3882711 -0.82367462 1.1810483e-38
1.8586026 1.3853779 -0.8145839 1.2455848e-38
1.8520249 1.3867133 -0.81613994 1.3274398e-38
1.8408452 1.3837564 -0.80746204 1.4568727e-38
1.842515 1.385673 -0.81195378 1.7512108e-38
1.8310919 1.3833998 -0.80470747 1.7419906e-38
1.814505 1.3798568 -0.79366094 1.6681983e-38
1.7945861 1.3755261 -0.78023076 1.8349447e-38
1.7715693 1.3719006 -0.76769906 1.7431503e-38
1.7541534 1.3681326 -0.75599653 2.2774484e-38
1.7295083 1.3629122 -0.73967874 2.3050708e-38
1.7132969 1.3593485 -0.72866374 2.148807e-38
1.6790837 1.3547148 -0.71167207 1.5863836e-38
1.6696508 1.3528426 -0.70569903 1.374372e-38
1.6633281 1.3510364 -0.7005015 1.364973e-38
1.65997 1.3518106 -0.70149606 2.0379945e-38
1.6532923 1.3512774 -0.69898361 2.1670306e-38
1.6420209 1.348937 -0.69162297 2.341805e-38
1.6264946 1.345506 -0.68103439 2.3509886e-38
1.6166345 1.3434783 -0.67463809 1.9913904e-38
1.6056043 1.3411654 -0.6673857 1.7603932e-38
1.5883068 1.3402637 -0.66191685 1.8433713e-38
1.5786995 1.3376868 -0.65438169 1.8711737e-38
1.5681905 1.336077 -0.64875841 1.7879802e-38
1.5572113 1.3350785 -0.64436394 1.7509945e-38
1.5467975 1.3328707 -0.63746458 1.7232999e-38
1.529965 1.3290331 -0.62573022 1.6864934e-38
1.4772377 1.3202978 -0.5960902 1.4838442e-38
1.4661663 1.3181608 -0.58921075 1.3731731e-38
1.4532665 1.315161 -0.58009046 1.3454783e-38
1.4403939 1.3132757 -0.57338989 1.3913607e-38
1.4353318 1.3120642 -0.56973648 1.5205453e-38
1.4312328 1.3118752 -0.56849408 1.1613393e-38
1.4302317 1.311949 -0.56845063 7.8358971e-39
1.4223797 1.3114766 -0.56583118 8.4813015e-39
1.9358588 1.4026455 -0.86769277 1.0424303e-38
1.9341649 1.4034842 -0.86916536 9.5037743e-39
1.9121225 1.3987235 -0.8543722 5.085619e-39
1.8949578 1.3966345 -0.846358 6.0057592e-39
1.8749017 1.3917135 -0.83162129 1.043122e-38
1.877032 1.3932666 -0.8354187 1.5035881e-38
1.8712367 1.39232 -0.83219033 1.282068e-38
1.8393617 1.3885342 -0.81751078 1.6774535e-38
1.8268869 1.3866003 -0.81078595 1.7141885e-38
1.8128289 1.3836476 -0.80153227 1.6316826e-38
1.788288 1.37962 -0.78781933 2.2036207e-38
1.7674716 1.3750074 -0.77359629 2.2497901e-38
1.7478275 1.3706436 -0.76015049 2.3234379e-38
1.7274828 1.3661261 -0.74622905 2.2775202e-38
1.7148827 1.3634819 -0.73794037 2.3326215e-38
1.6910508 1.3580678 -0.72136772 2.1759989e-38
1.6744131 1.3577189 -0.7172305 1.7432942e-38
1.6608953 1.354792 -0.7081427 1.4111773e-38
1.6581205 1.3545332 -0.70701796 1.3838792e-38
1.6494346 1.3542124 -0.70455766 2.1943301e-38
1.6411887 1.3525892 -0.6993655 2.2864526e-38
1.6262639 1.3492897 -0.68918407 1.8897571e-38
1.609575 1.345531 -0.67764992 1.7143679e-38
1.5957429 1.3425231 -0.66832244 1.7788684e-38
1.5822906 1.3418055 -0.66403395 1.769685e-38
1.5756415 1.34128 -0.66154408 1.8432621e-38
1.5626651 1.3384079 -0.65268481 1.8063473e-38
1.5535102 1.337872 -0.64966333 1.7509939e-38
1.5406187 1.3352201 -0.64129835 1.7049682e-38
1.5220435 1.3308822 -0.62812561 1.7048599e-38
1.4689567 1.3210082 -0.59594584 1.4560415e-38
1.4602058 1.3200903 -0.592179 1.4006511e-38
1.4494665 1.3176053 -0.58461314 1.3730288e-38
1.4399453 1.3169217 -0.58119708 1.4284182e-38
1.4352121 1.3156375 -0.57745308 1.3359761e-38
1.4325134 1.3155646 -0.57674688 1.0968779e-38
1.4220144 1.3133175 -0.56974506 9.5865729e-39
1.9621987 1.4098155 -0.88857859 7.6562884e-39
1.9331316 1.4064214 -0.87531829 9.409055e-39
1.929772 1.4068313 -0.87552315 1.1161517e-38
1.9077752 1.4020331 -0.86065829 6.0028782e-39
1.8941441 1.400017 -0.85352033 7.4791167e-39
1.8701519 1.3953425 -0.83851755 1.1903806e-38
1.8718796 1.396578 -0.84154505 1.4020664e-38
1.8687954 1.396292 -0.84029871 1.0878754e-38
1.84516 1.3921044 -0.82642353 1.8617388e-38
1.8181522 1.3886883 -0.8135339 1.6221361e-38
1.8041317 1.3857132 -0.80423933 1.8348725e-38
1.7823821 1.3823403 -0.79251212 2.2222036e-38
1.7633564 1.3781116 -0.77948469 2.3050708e-38
1.7437707 1.3737174 -0.76598483 2.3142544e-38
1.7273676 1.3701288 -0.75487679 2.2682649e-38
1.7147861 1.3674636 -0.74654609 2.341805e-38
1.6893554 1.3616095 -0.72869563 2.1483406e-38
1.6600597 1.3584752 -0.71595168 1.466387e-38
1.6542464 1.3574708 -0.71259451 1.4387287e-38
1.6455595 1.3571453 -0.71012378 1.3560713e-38
1.6373272 1.35551 -0.70490813 1.6500106e-38
1.6259938 1.3530856 -0.69735277 1.6957857e-38
1.6080617 1.3490034 -0.68486464 1.7971644e-38
1.5983528 1.3469694 -0.67848498 1.8524821e-38
1.5848181 1.3444859 -0.67035419 2.0001762e-38
1.5677127 1.3421071 -0.66172427 1.7970916e-38
1.5564445 1.3407764 -0.65655166 1.7879082e-38
1.5440724 1.3394016 -0.6510585 1.7602846e-38
1.5289714 1.3362271 -0.64111221 1.6312468e-38
1.5156268 1.3330863 -0.63159615 1.6218832e-38
1.4708667 1.3238029 -0.6023885 1.4744453e-38
1.4573953 1.3215975 -0.59487277 1.3361134e-38
1.4457923 1.3201319 -0.58933979 1.4006156e-38
1.439571 1.3193506 -0.58638269 1.4100175e-38
1.4353741 1.3194671 -0.58578199 8.6642228e-39
1.4320253 1.3190989 -0.5843038 7.7437337e-39
1.9589611 1.4134499 -0.89579374 8.4874728e-39
1.9529884 1.4124212 -0.89235139 7.8420992e-39
1.9306537 1.4087948 -0.87995619 4.2626995e-39
1.9194523 1.4081659 -0.87631726 1.2267125e-38
1.9040343 1.4057133 -0.86787027 8.4882197e-39
1.8722762 1.3985971 -0.84600002 1.2637418e-38
1.8748014 1.4011233 -0.85198569 1.300508e-38
1.8765473 1.4020176 -0.85427761 1.1712515e-38
1.8666505 1.4000717 -0.84805101 1.3548764e-38
1.8587463 1.3986011 -0.84325868 1.6771299e-38
1.84217 1.3949937 -0.8320747 1.7048966e-38
1.8151733 1.3912213 -0.81841564 1.5210103e-38
1.7999338 1.3888772 -0.81024015 2.0561792e-38
1.7782096 1.3854752 -0.79845512 2.2775202e-38
1.7626492 1.3814794 -0.78663659 2.3509886e-38
1.7438766 1.3778348 -0.77492595 2.2683007e-38
1.7236315 1.3734583 -0.76133019 2.2682649e-38
1.7113354 1.3708329 -0.75314391 2.3142544e-38
1.6840824 1.3644661 -0.73381245 2.1484482e-38
1.6681913 1.3609223 -0.72290546 2.1667795e-38
1.6496055 1.3588364 -0.71460938 1.3926285e-38
1.643351 1.3576154 -0.71069294 1.4385448e-38
1.6394866 1.3595107 -0.71401352 6.4612471e-39
1.6334493 1.3584286 -0.71044248 1.1983997e-38
1.6256845 1.356894 -0.70553982 1.7141888e-38
1.6107917 1.3535304 -0.69522619 1.7970919e-38
1.594556 1.349822 -0.68389291 1.8891803e-38
1.5778443 1.346184 -0.67261565 1.8800683e-38
1.5651345 1.3447473 -0.66691989 1.834042e-38
1.5493433 1.3417341 -0.65718299 1.7326618e-38
1.5386298 1.341081 -0.65359074 1.7418829e-38
1.5252962 1.338511 -0.64531326 1.6403228e-38
1.4787513 1.3280461 -0.6131829 1.4652595e-38
1.4686211 1.3261038 -0.60691655 1.437493e-38
1.4583248 1.3243504 -0.6010254 1.4652251e-38
1.4457617 1.3227112 -0.59492117 1.3361133e-38
1.4323478 1.3195006 -0.58523959 1.4838466e-38
1.4318631 1.3202606 -0.58678746 1.5301626e-38
1.9445924 1.4150374 -0.89631248 9.0428494e-39
1.9293067 1.4123266 -0.88733321 9.8682549e-39
1.9366958 1.4136422 -0.89168501 4.9937793e-39
1.9150376 1.4113204 -0.88225359 1.1345532e-38
1.8996817 1.409029 -0.87416875 9.3201076e-39
1.8897243 1.4070694 -0.86789989 1.088854e-38
1.8789768 1.4060409 -0.86348712 1.3283495e-38
1.8755811 1.4059494 -0.86259884 1.1987629e-38
1.8721858 1.4058578 -0.86171031 1.640505e-38
1.8544348 1.4018564 -0.84943438 1.6310681e-38
1.8358307 1.3977207 -0.83669394 1.6403237e-38
1.8146451 1.3937423 -0.82376993 1.9727712e-38
1.8051733 1.3932002 -0.82066983 1.9087379e-38
1.7878705 1.389273 -0.80864614 2.1207897e-38
1.7596656 1.3848237 -0.79327494 2.3509886e-38
1.7384998 1.3777351 -0.77361709 2.2683366e-38
1.7365973 1.380342 -0.77887768 2.2314231e-38
1.7195885 1.3765051 -0.76710904 2.2775202e-38
1.7017287 1.372455 -0.75470513 2.3050708e-38
1.680126 1.3674432 -0.73945773 2.2590096e-38
1.6642717 1.3638719 -0.72849864 2.130009e-38
1.650763 1.362332 -0.72241712 1.6784694e-38
1.6419752 1.3605214 -0.71670896 1.4386198e-38
1.6301658 1.3610443 -0.71544147 8.4855685e-39
1.6216252 1.3595303 -0.71042573 1.6774208e-38
1.6102302 1.3568294 -0.70225906 1.6128084e-38
1.5992713 1.3546495 -0.69530904 1.8246782e-38
1.5882479 1.3522421 -0.68785357 1.8892522e-38
1.5731491 1.3490772 -0.67792869 1.7787242e-38
1.5618193 1.3476714 -0.67258036 1.7326265e-38
1.5474862 1.3442874 -0.66233683 1.7048955e-38
1.5275322 1.3402779 -0.64959532 1.5851128e-38
1.4752747 1.3313924 -0.61972564 1.5574554e-38
1.4631566 1.327808 -0.60949779 1.4098329e-38
1.4628133 1.3282385 -0.61036056 1.4651154e-38
1.4495314 1.3265831 -0.6040749 1.4468571e-38
1.4418482 1.3245934 -0.5982033 1.5391275e-38
1.4308125 1.3230153 -0.59254164 1.0878028e-38
1.4402761 1.3254242 -0.59968328 7.8348419e-39
1.9809597 1.4272038 -0.93005985 7.0130518e-39
1.969667 1.4249151 -0.92280668 7.0112511e-39
1.9457678 1.4191701 -0.90550405 7.4747558e-39
1.9322283 1.4162563 -0.89644009 9.5912658e-39
1.9294049 1.4162877 -0.89593405 3.8866989e-39
1.9118803 1.4140801 -0.88759017 8.5825467e-39
1.8988111 1.4119375 -0.88029206 9.6878209e-39
1.8845053 1.408823 -0.87063777 1.0888886e-38
1.8553791 1.4029294 -0.85195071 1.4572419e-38
1.8724244 1.4094808 -0.86960751 1.4748421e-38
1.8698268 1.4095378 -0.86920291 1.603446e-38
1.8541012 1.4063878 -0.85918289 1.695607e-38
1.8339264 1.4015088 -0.84451294 1.5758586e-38
1.8075004 1.3961263 -0.82748204 2.1664535e-38
1.7954985 1.3944013 -0.82130593 2.1945451e-38
1.7796597 1.3908696 -0.81043589 2.2498619e-38
1.7607675 1.3868995 -0.79799592 2.2591531e-38
1.7383809 1.3816601 -0.78209549 2.2224189e-38
1.7324971 1.3834161 -0.78470373 2.2958514e-38
1.7155278 1.3795497 -0.77287924 2.3050708e-38
1.6974201 1.3753729 -0.76015061 2.2958873e-38
1.6794726 1.371249 -0.7475692 2.3234379e-38
1.6603351 1.3668193 -0.73408371 2.157524e-38
1.6512963 1.3657025 -0.72982699 2.1578829e-38
1.6389081 1.3636571 -0.72287858 1.3747315e-38
1.6308781 1.3620374 -0.71773756 1.4107792e-38
1.6284349 1.3620579 -0.71728539 9.4940017e-39
1.6174059 1.3596022 -0.70972401 1.188744e-38
1.5975823 1.3574599 -0.7010538 1.4836623e-38
1.5854195 1.3545519 -0.69228256 1.6403586e-38
1.5800776 1.3538364 -0.68964666 1.7787242e-38
1.57172 1.3524629 -0.68497282 1.7602849e-38
1.5667635 1.352046 -0.6830622 1.935531e-38
1.5504245 1.3487304 -0.67255867 1.7233707e-38
1.5358053 1.3456585 -0.66293287 1.6773087e-38
1.5202094 1.3418456 -0.65150315 1.64965e-38
1.4762241 1.3347248 -0.62713748 1.5113206e-38
1.467873 1.3328006 -0.62127179 1.4744426e-38
1.4574903 1.3307569 -0.61473435 1.5112153e-38
1.4490014 1.3299626 -0.61128843 1.4470017e-38
1.4463562 1.3292679 -0.60924572 1.2348836e-38
1.4438543 1.3291079 -0.60839069 8.8482609e-39
1.976403 1.4306381 -0.93657374 5.7226675e-39
1.965651 1.4278871 -0.92842871 7.3785791e-39
1.9566811 1.4265312 -0.92366844 7.1967368e-39
1.9409983 1.4231477 -0.91315109 7.842479e-39
1.9223279 1.4189771 -0.90032202 8.9466531e-39
1.9047792 1.415964 -0.89022797 5.8185205e-39
1.8906517 1.4138885 -0.8828603 1.033106e-38
1.8920499 1.4145211 -0.88451499 1.2821419e-38
1.8649008 1.40911 -0.86727482 1.3560393e-38
1.8614639 1.4092971 -0.86698186 1.4101266e-38
1.8618046 1.4118799 -0.87264597 1.6957511e-38
1.8508331 1.4096234 -0.86552775 1.5202889e-38
1.8296505 1.4047399 -0.85064363 1.7330238e-38
1.8096861 1.3994567 -0.83514088 1.6965432e-38
1.7931557 1.3978378 -0.82827407 2.1669944e-38
1.780951 1.3951828 -0.82004237 2.3142544e-38
1.7605227 1.3904874 -0.8057186 2.3050708e-38
1.7452612 1.3870544 -0.79518002 2.3050708e-38
1.683257 1.3761985 -0.75906044 2.3326215e-38
1.6658442 1.3721808 -0.74681795 2.3234379e-38
1.6508729 1.3687825 -0.73641342 2.1390492e-38
1.6349986 1.3665798 -0.72841495 1.7430087e-38
1.6163971 1.3628064 -0.71646035 1.2448261e-38
1.618256 1.3631451 -0.71757162 1.2814876e-38
1.6125509 1.3619654 -0.71385664 8.8492811e-39
1.6063279 1.3609287 -0.71034586 1.3825009e-38
1.5939547 1.3587893 -0.70319676 1.7602863e-38
1.5830854 1.3587857 -0.70097977 1.7879082e-38
1.5685792 1.3553021 -0.690485 1.7419184e-38
1.5583768 1.3529439 -0.68330264 1.7326265e-38
1.5497873 1.3525161 -0.68062997 1.7970556e-38
1.5392053 1.3501458 -0.67334473 1.7510659e-38
1.5273682 1.3474424 -0.66508234 1.7509577e-38
1.4656503 1.3357643 -0.62724006 1.4836982e-38
1.4574383 1.3342805 -0.62235671 1.5020651e-38
1.440691 1.3300263 -0.6097371 1.6868228e-38
1.4441404 1.3325061 -0.6158101 9.5861903e-39
1.4486005 1.3343686 -0.62075168 7.7433707e-39
1.9620887 1.4323803 -0.93743861 7.6587898e-39
1.9464183 1.4289658 -0.92685658 7.1067034e-39
1.9233283 1.4236711 -0.91069418 9.0417382e-39
1.9079486 1.4203132 -0.90029383 5.6340998e-39
1.898158 1.4194434 -0.89641953 1.1073292e-38
1.8670251 1.4123646 -0.87475735 1.5124855e-38
1.8742546 1.4151427 -0.88224477 1.0608288e-38
1.8601512 1.412739 -0.8741712 1.6313238e-38
1.8572577 1.4116572 -0.87123978 1.5205768e-38
1.8392365 1.4102174 -0.86445779 1.4834838e-38
1.8317316 1.4093927 -0.86114597 1.3829364e-38
1.804961 1.4024922 -0.84075624 2.1207884e-38
1.7963539 1.4020584 -0.83806729 2.3509886e-38
1.7776377 1.3985655 -0.82669681 2.2775202e-38
1.7602894 1.3945804 -0.81453782 2.2958873e-38
1.7414445 1.3902061 -0.80123138 2.2958873e-38
1.7284312 1.3873214 -0.79233736 2.2775202e-38
1.7192445 1.3854008 -0.78630948 2.2774843e-38
1.6987849 1.3805503 -0.7716437 2.2866678e-38
1.6814054 1.3797698 -0.76642078 2.341805e-38
1.6630847 1.3745776 -0.75144941 2.3509886e-38
1.6524935 1.3722787 -0.74431634 2.0008655e-38
1.6309599 1.3686136 -0.73200017 2.166706e-38
1.6237842 1.3676614 -0.72847885 1.7614798e-38
1.6118515 1.3653151 -0.72097105 1.2816705e-38
1.6096491 1.3650553 -0.71996057 1.189291e-38
1.6026589 1.3635473 -0.71527332 8.8475295e-39
1.5899918 1.3610848 -0.70736414 1.4835547e-38
1.5728266 1.3587087 -0.69872808 1.6498656e-38
1.5724571 1.3604281 -0.7023775 1.9447503e-38
1.5553113 1.355878 -0.68903613 1.7325541e-38
1.5451239 1.3544517 -0.68387532 1.8986166e-38
1.5313698 1.3520349 -0.67584461 1.7509943e-38
1.5208534 1.3496494 -0.66853952 1.7140799e-38
1.5108829 1.3474051 -0.66165096 1.6865287e-38
1.4611013 1.3373754 -0.6298061 1.4374557e-38
1.4603281 1.3385757 -0.63224894 1.4745162e-38
1.4542767 1.3379103 -0.62957758 1.1614493e-38
1.4489511 1.3373373 -0.62725359 8.2965291e-39
1.4445288 1.3362581 -0.62401688 8.8504456e-39
1.9726205 1.4354408 -0.94620883 6.0007005e-39
1.942733 1.4317133 -0.93205976 6.648242e-39
1.9157964 1.4253695 -0.91284233 8.8598539e-39
1.9035355 1.4236529 -0.90663153 1.0794177e-38
1.8949589 1.4230177 -0.90351254 1.181053e-38
1.8915265 1.4229218 -0.90260684 1.3282727e-38
1.8730849 1.4187986 -0.88992697 1.1621373e-38
1.8748156 1.4200002 -0.89288163 1.5389812e-38
1.8542783 1.4154748 -0.87890404 1.538873e-38
1.8253764 1.4112303 -0.86383516 1.4654409e-38
1.817716 1.410575 -0.86085856 2.194364e-38
1.7932796 1.4047554 -0.84328496 2.1208613e-38
1.7734122 1.4017175 -0.83266622 2.2958873e-38
1.7561038 1.3977021 -0.82044983 2.3050708e-38
1.7372988 1.3932949 -0.80708033 2.2958873e-38
1.7299296 1.3918264 -0.80240119 2.2958873e-38
1.7151587 1.3884583 -0.79210275 2.3050708e-38
1.6968989 1.3841479 -0.77905375 2.2775202e-38
1.671618 1.3803591 -0.76570821 2.1394441e-38
1.652072 1.376985 -0.75442606 2.2405707e-38
1.6353718 1.3729076 -0.74219888 2.0656157e-38
1.6240374 1.3718017 -0.73749965 2.1114982e-38
1.6104259 1.3687322 -0.72808373 1.2264985e-38
1.6037619 1.3672888 -0.72360253 1.3369859e-38
1.5967966 1.3657721 -0.71890134 8.6638669e-39
1.5877821 1.3641579 -0.7135722 1.483663e-38
1.5779992 1.362411 -0.70779949 1.8064559e-38
1.5593733 1.3570433 -0.69238579 1.6313541e-38
1.5479481 1.3567826 -0.68949896 1.6312102e-38
1.5383859 1.3544496 -0.68250173 1.6219188e-38
1.5363321 1.356693 -0.68694407 1.7048594e-38
1.5278113 1.3551587 -0.6818884 1.65887e-38
1.5176597 1.3527396 -0.67458481 1.6127718e-38
1.4632784 1.3402611 -0.6364997 1.5666389e-38
1.455027 1.3392739 -0.63268417 1.696149e-38
1.4450461 1.3373935 -0.62658203 1.3918326e-38
1.4527427 1.3422179 -0.63859755 7.9295823e-39
1.9712905 1.4391905 -0.95406169 3.8109993e-40
1.9652735 1.4381613 -0.95060927 4.8958187e-39
1.9569589 1.4371222 -0.94666851 8.5818573e-39
1.9410197 1.4338536 -0.9363482 7.3847756e-39
1.9232624 1.4307375 -0.92598838 7.9397207e-39
1.8930079 1.4245207 -0.90637195 1.4109292e-38
1.8957839 1.4276429 -0.91369992 1.1625428e-38
1.8752227 1.4220742 -0.89745736 1.3469292e-38
1.8717637 1.4222627 -0.89716238 1.548602e-38
1.8816837 1.4259515 -0.90716988 1.4837006e-38
1.8645191 1.4220179 -0.89515984 1.5021394e-38
1.8499345 1.4187543 -0.88512576 1.4743364e-38
1.8112156 1.4121945 -0.86304587 2.1390845e-38
1.7876176 1.4064907 -0.8458935 2.0473573e-38
1.772576 1.4050007 -0.83960849 2.3509886e-38
1.7479075 1.4000748 -0.82392389 2.2038365e-38
1.734462 1.3967031 -0.81388688 2.2867037e-38
1.7238042 1.3943913 -0.80671293 2.2958873e-38
1.7151691 1.3926022 -0.80108196 2.2591531e-38
1.6846761 1.3855644 -0.77963841 2.2313872e-38
1.6653318 1.3815347 -0.76697695 2.2128766e-38
1.6505984 1.3797774 -0.76017594 2.2129483e-38
1.6326959 1.375265 -0.74676204 2.1392639e-38
1.6128887 1.3718181 -0.73526919 2.1483031e-38
1.6063061 1.3715111 -0.73326623 1.6141117e-38
1.5922333 1.3680633 -0.72293746 1.4108152e-38
1.5848763 1.3668429 -0.71879822 1.1338297e-38
1.5781133 1.3653628 -0.71421719 1.1979661e-38
1.5730386 1.3643447 -0.71098036 1.7050407e-38
1.5604612 1.3631791 -0.70589894 1.7234077e-38
1.5418732 1.3589447 -0.69294792 1.6219193e-38
1.535905 1.3597728 -0.69352901 1.9260955e-38
1.5226157 1.3567961 -0.6843797 1.861559e-38
1.5131727 1.3551719 -0.67894167 1.6035881e-38
1.4771557 1.3467685 -0.65341705 1.520541e-38
1.4680592 1.3445948 -0.64685965 1.5573836e-38
1.4539595 1.3420728 -0.63853049 1.6962571e-38
1.4511646 1.3422251 -0.63829213 9.4028752e-39
1.4534479 1.3442929 -0.64323568 8.3898261e-39
1.9766749 1.4451489 -0.96806407 1.578176e-39
1.9574835 1.4412794 -0.95578092 7.5701969e-39
1.9463925 1.4389362 -0.94845051 7.5673242e-39
1.9232719 1.4352539 -0.93577415 7.8435636e-39
1.9113028 1.4332746 -0.9290539 1.1624655e-38
1.8872597 1.4302404 -0.91759449 1.0607951e-38
1.8704425 1.4257265 -0.90439773 1.6498364e-38
1.8699597 1.427369 -0.90785772 1.5482037e-38
1.8553721 1.4240776 -0.89776289 1.4929204e-38
1.8455713 1.4220316 -0.89133877 1.4007976e-38
1.8273196 1.4177955 -0.87845248 2.0374878e-38
1.8107725 1.4156277 -0.87039316 2.1669588e-38
1.7903416 1.410751 -0.85567623 2.2867037e-38
1.7636405 1.4047788 -0.8373118 2.2316024e-38
1.7417127 1.4015363 -0.8258307 2.203693e-38
1.736227 1.4013656 -0.82434613 2.2958873e-38
1.720926 1.3980362 -0.81402397 2.3050708e-38
1.6982176 1.3921534 -0.79666466 2.2683366e-38
1.6859694 1.3896718 -0.78879887 2.3050708e-38
1.6654707 1.3847927 -0.77406335 2.1762139e-38
1.65257 1.3832909 -0.768188 2.2683366e-38
1.6306927 1.3780016 -0.75228322 2.231315e-38
1.6212293 1.3762343 -0.74653131 2.0098339e-38
1.6134256 1.3773634 -0.74739128 2.0012603e-38
1.5986617 1.3738062 -0.7366848 1.4201451e-38
1.5845542 1.370587 -0.7268433 1.4106345e-38
1.5810019 1.3701776 -0.72523493 9.9531806e-39
1.5692393 1.3672537 -0.71650982 1.6958218e-38
1.5604089 1.3669986 -0.71416241 1.8064553e-38
1.5378031 1.3615376 -0.69773799 1.7141511e-38
1.5281519 1.3596584 -0.69170541 1.5942962e-38
1.5202882 1.3576998 -0.68586397 1.5481627e-38
1.4729284 1.3495027 -0.658481 1.575967e-38
1.4621718 1.3465756 -0.64995408 1.7511061e-38
1.4593625 1.3467287 -0.64971459 1.4657313e-38
1.4687899 1.3505542 -0.65991777 8.2043194e-39
1.9661423 1.4476073 -0.97124887 6.5567512e-39
1.9583615 1.4461414 -0.96649176 6.8333451e-39
1.9425037 1.4425737 -0.95553988 5.9099539e-39
1.9214735 1.4393566 -0.94429648 9.5030947e-39
1.9037951 1.4348034 -0.93083966 1.2361912e-38
1.9171138 1.4395673 -0.94386691 1.1345889e-38
1.8896418 1.4364837 -0.93160325 1.5206521e-38
1.8702768 1.4319344 -0.91781229 1.5667873e-38
1.8509743 1.4273678 -0.90399635 1.4653699e-38
1.836738 1.42413 -0.89408892 1.3362613e-38
1.8229594 1.4210342 -0.88458216 1.8900857e-38
1.7959157 1.4160305 -0.8682462 2.1299709e-38
1.7795109 1.4120669 -0.85632557 2.1945801e-38
1.7636138 1.407871 -0.84400499 2.2312796e-38
1.7453889 1.4045302 -0.83306378 2.102674e-38
1.7445245 1.40456 -0.83295262 2.1948682e-38
1.7157048 1.4003372 -0.81794709 2.1762499e-38
1.7083715 1.3987336 -0.81298286 2.194617e-38
1.7040751 1.3981953 -0.81094337 2.341805e-38
1.6771213 1.3915502 -0.79106981 2.2129842e-38
1.6682783 1.3895357 -0.78490859 2.3142544e-38
1.6556751 1.3881791 -0.77940816 2.3234379e-38
1.6380258 1.3838602 -0.76646507 2.3326215e-38
1.6246237 1.3807074 -0.7569114 2.1574873e-38
1.5677879 1.3692192 -0.72047263 1.4841387e-38
1.5722247 1.3720348 -0.72747397 8.2029041e-39
1.5711106 1.3718766 -0.72690475 1.6130966e-38
1.5534589 1.3693148 -0.71776783 1.6773814e-38
1.5377756 1.3653234 -0.70593351 1.6957118e-38
1.5290239 1.3632544 -0.69967288 1.6863846e-38
1.5163924 1.3600432 -0.69014883 1.6494705e-38
1.4686933 1.352119 -0.66328818 1.5298005e-38
1.4661541 1.3519454 -0.66239607 1.013934e-38
1.9701411 1.4527774 -0.9832617 6.18981e-39
1.9677198 1.452752 -0.98271435 2.8757825e-39
1.9641544 1.4526494 -0.98176736 5.2678873e-39
1.9560196 1.4506661 -0.9758175 7.5698591e-39
1.9396162 1.4460552 -0.96249503 7.3840091e-39
1.9307548 1.4466095 -0.96189487 1.1622846e-38
1.9150299 1.4429916 -0.95086122 1.106749e-38
1.8820568 1.4353579 -0.92762297 1.3456984e-38
1.8422818 1.4295279 -0.90690947 1.3639923e-38
1.827462 1.4264935 -0.89732373 1.1978938e-38
1.8161213 1.4236039 -0.88875914 1.6962243e-38
1.7911327 1.4182878 -0.87216383 1.9453997e-38
1.7704052 1.413265 -0.85707033 2.092949e-38
1.7725856 1.4152957 -0.86191243 2.2224189e-38
1.7515037 1.409861 -0.8458544 2.2129842e-38
1.7353652 1.4059037 -0.8340016 2.1853977e-38
1.687137 1.3967651 -0.80440283 2.1485557e-38
1.6798761 1.396283 -0.80188292 2.3142544e-38
1.6637346 1.3922728 -0.78991455 2.2313154e-38
1.6496512 1.3900307 -0.78219515 2.2037289e-38
1.6309872 1.3854026 -0.76837581 2.1944375e-38
1.6201745 1.3837757 -0.76265389 2.258902e-38
1.6147468 1.3825102 -0.75880909 2.2683366e-38
1.6031339 1.3794988 -0.74992579 2.1854694e-38
1.5921688 1.376958 -0.74219263 1.5308489e-38
1.5733712 1.3731558 -0.73013574 1.4476224e-38
1.5663066 1.3741971 -0.7309556 1.0600372e-38
1.5584244 1.372368 -0.72539109 1.2627549e-38
1.5493885 1.3714136 -0.72148687 1.6682342e-38
1.5287465 1.3660965 -0.70577335 1.714332e-38
1.5252395 1.3659111 -0.70465875 1.6772007e-38
1.5168337 1.363994 -0.69879735 1.7324114e-38
1.461171 1.3518485 -0.66117316 1.566965e-38
1.4749185 1.357643 -0.67652005 1.3085995e-38
1.4684922 1.3567719 -0.67332697 8.8496917e-39
1.4647931 1.3556585 -0.67016298 8.1114344e-39
1.958396 1.4543543 -0.98429054 1.0712068e-38
1.9662074 1.4572002 -0.99204284 4.7768723e-40
1.9552132 1.4552907 -0.98567206 2.8686682e-39
1.9500208 1.4539636 -0.98174191 7.9361095e-39
1.9213647 1.4487737 -0.96467501 1.2817037e-38
1.9057026 1.4451371 -0.95361334 1.1983278e-38
1.9000572 1.4441519 -0.95033163 1.428562e-38
1.8626703 1.4351909 -0.92332101 1.4562253e-38
1.8655376 1.4360539 -0.92577308 1.5760789e-38
