# .PCD v0.7 - Point Cloud Data file format
VERSION 0.7
FIELDS x y z rgb
SIZE 4 4 4 4
TYPE F F F F
COUNT 1 1 1 1
WIDTH 1023
HEIGHT 1
VIEWPOINT 0 0 0 1 0 0 0
POINTS 1023
DATA ascii
1.1006032 0.43641704 -0.11830122 1.0217115e-38
1.1002907 0.44013509 -0.11686677 1.0033446e-38
1.1001281 0.44389793 -0.11535881 1.0033087e-38
1.0991428 0.44705358 -0.11440418 1.1599691e-38
1.0989289 0.45036757 -0.11310194 9.941966e-39
1.0975332 0.45502111 -0.11167333 9.8508507e-39
1.0984707 0.45911628 -0.10962527 1.0126359e-38
1.0919209 0.46500465 -0.10956449 1.1784798e-38
1.0966496 0.46849704 -0.10638298 9.5735422e-39
1.0935301 0.47096056 -0.10649613 1.0033801e-38
1.0924124 0.47450039 -0.10542984 9.7582964e-39
1.0908728 0.47829527 -0.10441148 1.0033432e-38
1.0905451 0.48207799 -0.10295552 1.0033801e-38
1.0904789 0.48594829 -0.10136764 9.9423331e-39
1.086 0.4969556 -0.098418452 1.0127078e-38
1.085927 0.50085115 -0.096822515 1.0127445e-38
1.0839183 0.50452769 -0.096024655 9.9434107e-39
1.0835813 0.50834924 -0.094555989 9.9437751e-39
1.0825171 0.51193106 -0.093452737 1.0219279e-38
1.0826156 0.51591706 -0.0917565 1.0402955e-38
1.0814918 0.51948231 -0.090681836 1.0402958e-38
1.079276 0.52448016 -0.089409314 1.0497295e-38
1.0795681 0.52856439 -0.087601475 1.0404745e-38
1.0782392 0.53245914 -0.086464524 1.2431252e-38
1.075492 0.53548825 -0.086206093 1.1048678e-38
1.0751443 0.53935331 -0.084723145 1.0404385e-38
1.0747947 0.54322481 -0.083238266 1.0772085e-38
1.0730374 0.54655713 -0.082492001 1.0680255e-38
1.0730643 0.55101949 -0.08062353 9.9441282e-39
1.0732992 0.5550403 -0.07886298 9.6679014e-39
1.0692664 0.55820996 -0.079015426 1.2155391e-38
1.0698504 0.56275505 -0.076909073 1.0404396e-38
1.0687795 0.56743544 -0.07535059 1.0313272e-38
1.067919 0.57114208 -0.074120976 1.0404393e-38
1.0667875 0.57473624 -0.073037133 1.03122e-38
1.0647477 0.57863355 -0.072158739 1.2154677e-38
1.0654062 0.58283192 -0.070169501 1.0404387e-38
1.0622704 0.58594704 -0.070017114 1.0128525e-38
1.0593109 0.58926094 -0.069717556 1.0311837e-38
1.0592017 0.59331524 -0.068068773 1.0404743e-38
1.0582259 0.59698308 -0.066897392 1.0587698e-38
1.0590259 0.60147744 -0.064733222 1.0312912e-38
1.0584986 0.60536778 -0.063305356 1.0312548e-38
1.0570444 0.60938644 -0.062162533 1.0128169e-38
1.0579051 0.6134879 -0.060139898 9.4828053e-39
1.057521 0.61736178 -0.058666587 9.2994762e-39
1.0514276 0.61707032 -0.061013188 9.4835116e-39
1.0502945 0.62067574 -0.059925273 9.4845962e-39
1.0505172 0.62495518 -0.05806141 9.4831486e-39
1.050393 0.6290729 -0.056391679 9.2065617e-39
1.0492563 0.63268864 -0.055300727 8.931051e-39
1.0470387 0.63635546 -0.054583285 8.5622755e-39
1.0483857 0.64107466 -0.0521257 8.1931301e-39
1.0473129 0.64462233 -0.051039822 8.1938391e-39
1.0429848 0.64794594 -0.051236015 8.7463067e-39
1.0418478 0.65156585 -0.050143443 8.8366988e-39
1.0425969 0.65621048 -0.04793527 8.929256e-39
1.0435914 0.66100949 -0.045573261 8.7455892e-39
1.0422547 0.66672891 -0.043679096 1.0220359e-38
1.1317667 0.34333608 -0.14569117 1.307951e-38
1.1250719 0.34685299 -0.14667118 1.0866808e-38
1.1237911 0.35417816 -0.14408778 1.1511461e-38
1.1243767 0.35791749 -0.14231643 1.1327794e-38
1.1199714 0.36090979 -0.14267877 1.1235589e-38
1.119686 0.36451995 -0.14127931 1.1234873e-38
1.1178892 0.36789086 -0.14053138 1.1235591e-38
1.1179593 0.36954838 -0.13981545 1.0500162e-38
1.1174916 0.37272328 -0.13866378 1.114303e-38
1.1172572 0.37658548 -0.13714065 1.0866075e-38
1.1150461 0.37978217 -0.13661662 1.0773162e-38
1.1086859 0.38634133 -0.13620725 1.0679185e-38
1.1085622 0.39000404 -0.13472687 1.040367e-38
1.1082718 0.39364147 -0.13331783 1.0405102e-38
1.1092772 0.39754552 -0.13132453 1.022107e-38
1.1065166 0.40098679 -0.13089928 1.0311466e-38
1.105414 0.4044753 -0.12984888 1.0127442e-38
1.1054523 0.41183898 -0.1267678 9.6661022e-39
1.1005647 0.41356924 -0.12783197 1.0402228e-38
1.1020234 0.41921288 -0.12494855 1.0127438e-38
1.1008685 0.42228258 -0.12409174 9.481348e-39
1.0986388 0.42466512 -0.12391356 1.0125993e-38
1.0976684 0.42819378 -0.1227982 1.0125633e-38
1.0972337 0.43185166 -0.12143334 1.0034163e-38
1.0958631 0.43965968 -0.11868164 1.0033803e-38
1.0947553 0.44316781 -0.117625 1.0033799e-38
1.0936401 0.44607794 -0.1168201 1.1783366e-38
1.0942814 0.45012277 -0.11490113 1.1599694e-38
1.0935615 0.45341694 -0.11379191 1.0034157e-38
1.0933917 0.45719621 -0.11227979 9.9423191e-39
1.0922796 0.46072009 -0.11121815 9.7586551e-39
1.0950533 0.46435571 -0.10869091 9.3887964e-39
1.0900764 0.46730569 -0.10927964 9.2058303e-39
1.085817 0.46942511 -0.10995233 1.0126359e-38
1.0875369 0.47377583 -0.10751207 1.0218558e-38
1.0855453 0.47742188 -0.10672078 1.0310034e-38
1.0852255 0.48119086 -0.10526767 1.0217837e-38
1.0849036 0.48496628 -0.10381262 1.0401871e-38
1.0847161 0.48879132 -0.1022879 1.0218916e-38
1.0848349 0.49272338 -0.10060672 1.0219636e-38
1.0848657 0.49724323 -0.098712847 9.664663e-39
1.0804285 0.49982291 -0.099258743 1.0404746e-38
1.0771772 0.50242752 -0.099361204 1.2155388e-38
1.0780166 0.50829089 -0.096612461 1.0774597e-38
1.0768998 0.51183492 -0.095544137 1.1233061e-38
1.077001 0.51580566 -0.09385325 1.1048681e-38
1.076795 0.51967937 -0.092314988 1.0864643e-38
1.0749661 0.52383929 -0.091250189 9.9451932e-39
1.0746022 0.52756482 -0.089831278 1.0312186e-38
1.0746057 0.53143311 -0.088218801 1.0127078e-38
1.0677223 0.53343517 -0.089898586 1.0497658e-38
1.0673859 0.53727639 -0.088421509 1.068133e-38
1.0682074 0.54157192 -0.086332276 1.0772443e-38
1.0678656 0.54543149 -0.084849536 1.0680253e-38
1.0666645 0.54904842 -0.08378163 1.2247591e-38
1.0664871 0.55338454 -0.08204031 1.0679895e-38
1.065731 0.55683744 -0.080878146 9.8504752e-39
1.0604153 0.56085706 -0.081145167 1.0313275e-38
1.0617791 0.56545329 -0.078732692 1.0404746e-38
1.0590636 0.56835008 -0.078517713 1.0312558e-38
1.0598973 0.57274902 -0.076381043 1.0405118e-38
1.0598023 0.57676417 -0.07474333 1.0405099e-38
1.0559675 0.57967842 -0.074929923 1.0037059e-38
1.0583857 0.58480096 -0.071913116 9.6671882e-39
1.052348 0.58713251 -0.073146887 9.9434107e-39
1.0531607 0.59158295 -0.070996389 9.7600971e-39
1.0530579 0.59563011 -0.069348164 1.0035605e-38
1.0526975 0.59956765 -0.067839682 1.0127812e-38
1.053336 0.60398448 -0.065766871 9.943761e-39
1.0509394 0.60860449 -0.06471771 9.48315e-39
1.0512854 0.61315829 -0.062694669 8.7470213e-39
1.0451534 0.61922175 -0.062408336 8.9299777e-39
1.0456487 0.62362236 -0.060394529 9.2051226e-39
1.0445188 0.6272198 -0.059308674 9.0221691e-39
1.043389 0.63081729 -0.05822292 8.929972e-39
1.0424672 0.63513023 -0.056763034 8.8377834e-39
1.0420933 0.63912719 -0.055234775 8.8377848e-39
1.0418171 0.64318573 -0.053645216 8.9296203e-39
1.1198124 0.32749167 -0.1566563 1.2801126e-38
1.1191444 0.33171162 -0.15514252 1.1419258e-38
1.1208453 0.33487982 -0.15320176 1.3536884e-38
1.1182377 0.33764714 -0.15300131 1.1511101e-38
1.1173937 0.34223023 -0.15140057 1.132671e-38
1.1169883 0.34599802 -0.14997928 1.0682058e-38
1.1170286 0.34899443 -0.14871648 1.335357e-38
1.1182592 0.35148987 -0.14722767 1.0957557e-38
1.1123663 0.3596116 -0.14599679 1.2339059e-38
1.1160789 0.36217248 -0.14357439 1.0219995e-38
1.115262 0.36559135 -0.14244857 9.9448428e-39
1.1104643 0.36810926 -0.14315188 1.2337983e-38
1.1089921 0.37177208 -0.14216386 1.0404392e-38
1.1096971 0.37554505 -0.14033487 1.0312199e-38
1.1086007 0.37901273 -0.13929088 1.0220002e-38
1.1081538 0.38259813 -0.1379607 1.0586981e-38
1.1037234 0.38593271 -0.13818969 1.0402591e-38
1.1027629 0.38942122 -0.13708743 1.0034169e-38
1.1019479 0.39293551 -0.13592121 1.1785164e-38
1.1004019 0.39659625 -0.13496107 9.9434009e-39
1.1010872 0.40042719 -0.13311514 1.0125636e-38
1.1009569 0.40410346 -0.13163145 1.0126716e-38
1.1006685 0.40775323 -0.13021657 1.012672e-38
1.0999155 0.41120604 -0.12905338 9.5738883e-39
1.0954838 0.41303 -0.12991208 1.0217835e-38
1.0953461 0.41671681 -0.12842666 1.0218549e-38
1.0938151 0.41923034 -0.12793882 1.0218191e-38
1.093854 0.42415246 -0.12587449 1.0218196e-38
1.0928961 0.42767105 -0.12475868 1.012564e-38
1.0924613 0.43131509 -0.12339962 1.0033806e-38
1.0939004 0.43543246 -0.12115912 9.9416058e-39
1.0933071 0.44164175 -0.11878943 9.5724576e-39
1.0899713 0.44517067 -0.11853779 1.0310383e-38
1.0903268 0.44905472 -0.11679018 1.0401864e-38
1.0864817 0.45217428 -0.11689497 1.0033803e-38
1.0870999 0.45614216 -0.11501652 9.849776e-39
1.0842755 0.45916873 -0.11478733 1.0034536e-38
1.0851734 0.4632346 -0.1127659 9.9430534e-39
1.0848523 0.46650133 -0.11152242 9.7582866e-39
1.0851519 0.47032309 -0.10982117 9.6643015e-39
1.0823624 0.47296149 -0.1097409 1.0586263e-38
1.0808165 0.47672725 -0.10873696 1.0863569e-38
1.0797094 0.48024121 -0.10767761 1.0864647e-38
1.0793959 0.48400268 -0.10622534 1.0863931e-38
1.0782878 0.48751992 -0.10516497 1.0864654e-38
1.0779715 0.4912912 -0.10370967 1.095684e-38
1.076167 0.49423546 -0.10314234 1.2432691e-38
1.0767083 0.49705961 -0.10176826 1.0404742e-38
1.0745924 0.50014848 -0.10125446 1.003632e-38
1.077273 0.50484091 -0.098321021 1.012922e-38
1.0707296 0.50660288 -0.099976622 1.0957556e-38
1.0702536 0.51034224 -0.098592915 1.0865005e-38
1.0699314 0.5141415 -0.097128138 1.0956121e-38
1.0697311 0.51799196 -0.095597491 1.0589137e-38
1.0670612 0.52140456 -0.095151022 1.0496947e-38
1.0671595 0.52537531 -0.09346123 1.0588782e-38
1.0674568 0.52943099 -0.091663428 1.0956121e-38
1.061852 0.53208953 -0.092602797 1.0589137e-38
1.0607423 0.53561592 -0.091539286 1.0405464e-38
1.0620923 0.54009444 -0.089180857 1.0772461e-38
1.0632153 0.54450828 -0.086932316 1.0588424e-38
1.0628786 0.54836404 -0.085449174 1.0588784e-38
1.0601683 0.54944402 -0.085989162 9.9441296e-39
1.0591278 0.55237043 -0.085150242 1.0588782e-38
1.0600836 0.55719298 -0.082792446 9.9426904e-39
1.0529337 0.55848324 -0.084866092 1.1971006e-38
1.0536029 0.56297374 -0.082751296 1.0219999e-38
1.0524898 0.56651509 -0.081682727 1.0219282e-38
1.0533295 0.57089502 -0.079551727 1.0035966e-38
1.0530969 0.57482976 -0.077997766 1.0218927e-38
1.050292 0.57816792 -0.07763166 9.7600971e-39
1.0499481 0.58206201 -0.0761353 9.4831542e-39
1.0459083 0.59440428 -0.072469711 9.2065659e-39
1.0466866 0.59884942 -0.070333973 9.2058611e-39
1.0467274 0.60296732 -0.068603866 9.1140102e-39
1.0446788 0.60666722 -0.067810893 8.8385051e-39
1.0447142 0.61080092 -0.066076174 9.0221733e-39
1.0435916 0.61438012 -0.064995304 8.9296161e-39
1.1301115 0.29848 -0.16497923 1.1234512e-38
1.1262717 0.30538359 -0.16350591 1.1328863e-38
1.1266683 0.30895817 -0.16187225 1.1144111e-38
1.1213369 0.31292114 -0.1621685 1.0867519e-38
1.1185812 0.31725842 -0.16136828 1.0959365e-38
1.1166042 0.32431942 -0.1591492 1.1328146e-38
1.1172558 0.32846245 -0.15718551 1.0774255e-38
1.1156125 0.33451518 -0.15526453 1.2798953e-38
1.1143682 0.33756483 -0.15444875 1.0865726e-38
1.112457 0.34089094 -0.15376122 1.0772455e-38
1.1110915 0.34562382 -0.15228856 1.0220362e-38
1.1123456 0.34939358 -0.1502604 1.0587707e-38
1.1106083 0.35204738 -0.14978945 1.2062119e-38
1.1132492 0.35471526 -0.14771381 9.8508564e-39
1.1104727 0.35727131 -0.14766307 1.0312202e-38
1.1072053 0.36123583 -0.147205 9.4831528e-39
1.1076225 0.3643032 -0.14577499 1.0128518e-38
1.102553 0.36729392 -0.14638059 1.031003e-38
1.100789 0.37086764 -0.14553626 1.0310748e-38
1.1010114 0.37452954 -0.14392975 1.0127438e-38
1.100744 0.3781155 -0.14253372 1.0035957e-38
1.1011524 0.38183156 -0.14083681 1.0310393e-38
1.0968107 0.38880789 -0.13951655 1.0310746e-38
1.0958649 0.39228246 -0.1384147 1.0403293e-38
1.0931112 0.39567992 -0.1380052 1.02182e-38
1.0949419 0.39972389 -0.13565226 1.0310387e-38
1.0937076 0.40314698 -0.13467716 1.0217835e-38
1.09343 0.4067755 -0.13326718 1.0126717e-38
1.0921162 0.41008252 -0.13236952 9.2980287e-39
1.0889044 0.41467687 -0.13162875 1.0217837e-38
1.0877272 0.41839153 -0.13051143 1.206032e-38
1.0879381 0.4222177 -0.12884076 1.1968478e-38
1.0878067 0.42588177 -0.12736253 1.0217837e-38
1.087664 0.42958152 -0.12587361 1.0308956e-38
1.0865698 0.43305367 -0.12482699 9.8501361e-39
1.0862817 0.436728 -0.12340178 9.9423275e-39
1.0832902 0.44007704 -0.12309927 1.2062114e-38
1.0848171 0.44377038 -0.12100332 9.9416058e-39
1.082893 0.447743 -0.12005123 1.1047243e-38
1.0801216 0.45112526 -0.11965451 1.0771731e-38
1.0796752 0.45478067 -0.11829501 1.1049037e-38
1.0813996 0.45816979 -0.11625366 1.0310748e-38
1.0779641 0.46028328 -0.11662795 1.0866435e-38
1.0773747 0.46339205 -0.11554825 1.261781e-38
1.0770531 0.46717104 -0.11409167 1.2524171e-38
1.077335 0.47040406 -0.11264212 1.0680959e-38
1.0805163 0.47507632 -0.10953422 1.0588768e-38
1.074272 0.47844994 -0.11040933 1.2616011e-38
1.0702937 0.48068616 -0.11093074 1.0865012e-38
1.0706213 0.48461315 -0.10917541 1.0957914e-38
1.0703174 0.48835638 -0.10772727 1.0773887e-38
1.0712378 0.49250674 -0.10566239 1.10494e-38
1.0715432 0.49613395 -0.10404003 1.0404387e-38
1.0681219 0.49800351 -0.10451079 1.0864652e-38
1.0690341 0.50218219 -0.10243718 1.0956847e-38
1.0636468 0.50444102 -0.10346364 1.2614927e-38
1.0632324 0.50871462 -0.10183492 1.0773529e-38
1.0627582 0.51243526 -0.10045835 1.0864287e-38
1.0616562 0.51593858 -0.099401556 1.0681339e-38
1.0600779 0.51971501 -0.098404989 1.0589147e-38
1.0603843 0.52373719 -0.096617751 1.0589858e-38
1.0592804 0.52724856 -0.09555836 1.0773173e-38
1.0574328 0.5345484 -0.093192503 1.2432331e-38
1.0584137 0.53725153 -0.091708399 1.0218912e-38
1.0554373 0.53941524 -0.091894038 1.0589849e-38
1.0537181 0.54269028 -0.091157809 1.0404746e-38
1.0532112 0.54692626 -0.089578532 1.0404756e-38
1.0528853 0.55076301 -0.088099375 1.058771e-38
1.0525576 0.5546065 -0.086618148 1.0404044e-38
1.0549862 0.55992335 -0.083516732 9.6679014e-39
1.0467412 0.56502485 -0.08440274 9.6668238e-39
1.047398 0.56930906 -0.082378395 9.3906013e-39
1.0473226 0.57329077 -0.080747478 9.849783e-39
1.0464659 0.57746965 -0.079319738 9.2065687e-39
1.0467273 0.58162314 -0.077494271 9.297691e-39
1.0456141 0.5851711 -0.076422945 9.2065701e-39
1.0452719 0.58907109 -0.074923553 9.2069205e-39
1.0422052 0.5937137 -0.074109674 9.2058457e-39
1.0410913 0.59726483 -0.073037311 9.0221761e-39
1.041615 0.60159248 -0.071043469 8.9299791e-39
1.1343143 0.27427095 -0.17352802 1.0590942e-38
1.1167423 0.30106911 -0.16878311 1.1327067e-38
1.1136883 0.31251886 -0.1651292 1.031399e-38
1.1149246 0.31645823 -0.16303696 1.2063912e-38
1.1137663 0.31975845 -0.16208529 1.0496584e-38
1.1114113 0.32412571 -0.16112618 1.0221081e-38
1.1119971 0.32773173 -0.15941027 1.0312562e-38
1.1119236 0.33126736 -0.1579645 1.0772454e-38
1.1059569 0.33359087 -0.15917565 1.2797868e-38
1.1066799 0.33698657 -0.15749724 1.0496226e-38
1.1066003 0.34053156 -0.15604971 1.0403667e-38
1.1058149 0.34439796 -0.15472609 1.2245781e-38
1.1051561 0.3488138 -0.1531274 1.0036328e-38
1.1048895 0.35152978 -0.15209353 1.2245781e-38
1.106732 0.35418984 -0.15031263 9.6664539e-39
1.104319 0.35679096 -0.15011041 1.0403663e-38
1.0970075 0.36326218 -0.15008505 1.0401876e-38
1.0942626 0.36665151 -0.14967568 1.0678455e-38
1.094313 0.37025464 -0.14815649 1.0310753e-38
1.0932362 0.37366918 -0.14712746 1.0218921e-38
1.0936538 0.37735152 -0.14544123 1.0035958e-38
1.0943706 0.38110229 -0.14361717 1.021784e-38
1.0950834 0.38486773 -0.14178851 1.0310386e-38
1.0933634 0.38846037 -0.14092018 9.573545e-39
1.0895891 0.39158666 -0.14099637 1.0402941e-38
1.0883212 0.39526293 -0.13992806 1.0310032e-38
1.08724 0.3986932 -0.13889417 1.0035249e-38
1.0879885 0.40208447 -0.13720825 1.2060314e-38
1.0884047 0.40378404 -0.13634838 9.2976798e-39
1.0878522 0.40710121 -0.13516843 1.0034878e-38
1.0860825 0.41055685 -0.13437539 1.1877006e-38
1.0866337 0.41466174 -0.13246427 9.7579363e-39
1.0869836 0.41834378 -0.13080285 9.7572104e-39
1.085009 0.42178607 -0.13009021 1.086284e-38
1.0822446 0.42516473 -0.12969239 1.0679894e-38
1.0819683 0.42881405 -0.12827329 1.0678821e-38
1.0824797 0.43266672 -0.1264818 1.0955759e-38
1.0821981 0.43633258 -0.12505771 1.0865359e-38
1.0828595 0.44024932 -0.12318476 1.086464e-38
1.0786316 0.44324937 -0.12347914 1.1324899e-38
1.0785767 0.4464438 -0.12216866 1.0772085e-38
1.0715978 0.45419568 -0.12148841 1.114195e-38
1.0705105 0.45765096 -0.12044629 1.1049754e-38
1.0708672 0.46151915 -0.11870484 1.1141587e-38
1.0718025 0.46557093 -0.11667562 1.1233062e-38
1.0688672 0.46887434 -0.11637159 1.1233424e-38
1.0704503 0.4731454 -0.11401445 1.1140881e-38
1.0722159 0.4770183 -0.11175653 1.0311823e-38
1.0643662 0.47957817 -0.1135569 1.1048679e-38
1.0640738 0.48329633 -0.11211498 1.0956847e-38
1.0681747 0.48760939 -0.10882087 1.0312552e-38
1.0643936 0.48944148 -0.10943861 1.0682781e-38
1.0614723 0.49273184 -0.10913488 1.077317e-38
1.0609733 0.49640378 -0.10778768 1.0772815e-38
1.0607948 0.50019008 -0.10627576 1.0773177e-38
1.0611894 0.50474465 -0.10423456 1.0219623e-38
1.0570064 0.50665104 -0.10496815 1.2524171e-38
1.0567174 0.50986296 -0.1037358 1.0497308e-38
1.0553337 0.51450473 -0.1023077 1.0589139e-38
1.0552329 0.51785707 -0.10094818 1.1973169e-38
1.0532646 0.52070189 -0.10048207 1.0496596e-38
1.0535743 0.52470905 -0.098699838 1.0588423e-38
1.0547267 0.52904952 -0.096471146 1.0589149e-38
1.0548426 0.53213787 -0.095142402 1.0403669e-38
1.0509654 0.53525764 -0.095258839 9.6668224e-39
1.0490071 0.53779298 -0.094918028 1.0036324e-38
1.0488015 0.54164195 -0.093389906 1.0037045e-38
1.0474002 0.54550755 -0.092291489 9.7590195e-39
1.0464772 0.54908359 -0.091139123 9.9419744e-39
1.0459821 0.55283511 -0.089757301 9.3906013e-39
1.0456619 0.55666625 -0.08827848 9.3898782e-39
1.0465206 0.561001 -0.086159363 9.2065687e-39
1.042821 0.56698489 -0.085017979 9.1150864e-39
1.0430757 0.5724144 -0.082663439 9.3905915e-39
1.1239157 0.26977974 -0.17919618 1.335466e-38
1.1214168 0.27357969 -0.17852591 1.142035e-38
1.1206783 0.27697322 -0.17738213 1.1790916e-38
1.1176023 0.28741387 -0.17415667 1.0957924e-38
1.116534 0.2907953 -0.17313835 1.0684211e-38
1.112829 0.2941424 -0.1730973 1.06817e-38
1.1127843 0.29760212 -0.17167251 1.0589499e-38
1.1122332 0.30192479 -0.17007327 1.0681697e-38
1.1129199 0.30783015 -0.16736281 9.9434093e-39
1.113481 0.30901262 -0.16666532 1.0405827e-38
1.1080358 0.31231624 -0.16727778 1.0220715e-38
1.1074284 0.31574795 -0.16607025 1.012888e-38
1.1060798 0.31930315 -0.16508192 1.0403314e-38
1.1060162 0.32280454 -0.16364674 9.7600957e-39
1.1049455 0.32619604 -0.16262512 1.0219991e-38
1.1051654 0.32974315 -0.16106732 1.0586975e-38
1.0979824 0.33979821 -0.15950233 1.0311827e-38
1.098362 0.34338579 -0.15786938 1.0403307e-38
1.0981207 0.34689525 -0.15649572 1.0219279e-38
1.0962155 0.3504025 -0.15573063 1.0218923e-38
1.099735 0.35359171 -0.15311699 9.757932e-39
1.0976846 0.35623431 -0.15276501 1.0403303e-38
1.0966098 0.35964233 -0.15173805 1.0402944e-38
1.0933567 0.36345434 -0.15133823 9.9419632e-39
1.0898478 0.36569992 -0.15168431 1.233689e-38
1.0886589 0.36913261 -0.15068865 1.1694759e-38
1.0873621 0.37313816 -0.1494938 1.0218914e-38
1.0875608 0.37676388 -0.1479111 1.0402943e-38
1.088609 0.38055781 -0.14594805 1.0402939e-38
1.0891725 0.38427699 -0.1441931 1.0770649e-38
1.0901839 0.38773438 -0.14238371 1.2337612e-38
1.0875241 0.38944003 -0.14264458 9.7579377e-39
1.0865099 0.39277741 -0.14162478 9.5735492e-39
1.0816938 0.39745447 -0.1414355 1.2523809e-38
1.0817271 0.40268871 -0.13924317 1.0864643e-38
1.0832435 0.40667069 -0.13703083 1.1048314e-38
1.0821631 0.41010159 -0.13599636 1.0772092e-38
1.0802776 0.41340613 -0.13530849 1.3352488e-38
1.0809089 0.4174872 -0.1333781 1.1233777e-38
1.0807222 0.42108795 -0.13194644 1.0403297e-38
1.072588 0.42714313 -0.13239482 1.1509656e-38
1.0737822 0.43113059 -0.13029784 1.1233429e-38
1.0725445 0.4354707 -0.12894212 1.1418183e-38
1.0732166 0.4393568 -0.127078 1.1508933e-38
1.0697656 0.44273174 -0.12693249 1.0588054e-38
1.0695051 0.44617602 -0.12559299 1.1049769e-38
1.0692315 0.44983369 -0.12416939 1.0866089e-38
1.0648485 0.45299354 -0.12445386 1.1141236e-38
1.0645752 0.45665488 -0.12302863 1.1141595e-38
1.0634946 0.4600921 -0.1219916 1.123271e-38
1.0647817 0.46422118 -0.11980174 1.1048318e-38
1.0620149 0.46754843 -0.11942618 1.0865719e-38
1.0637218 0.47183648 -0.11701683 1.0589859e-38
1.0634373 0.47553775 -0.11557902 1.0773533e-38
1.0599766 0.47834238 -0.11567459 1.0494787e-38
1.0613568 0.48247287 -0.11345016 1.0586977e-38
1.0576582 0.48353919 -0.11435667 1.2616009e-38
1.0569389 0.48654521 -0.11336734 1.1140879e-38
1.0566527 0.49025798 -0.11192538 1.1140876e-38
1.05601 0.49427959 -0.11048499 1.086501e-38
1.0564545 0.49826029 -0.10866459 1.1048329e-38
1.0553651 0.50172955 -0.10761736 1.0864305e-38
1.0558456 0.50534195 -0.10593729 1.0311826e-38
1.0504 0.51229781 -0.10502867 1.0036684e-38
1.0493109 0.51576632 -0.10398164 1.0036688e-38
1.0482211 0.51968604 -0.10274702 9.759388e-39
1.0471315 0.52315867 -0.10169847 9.6668322e-39
1.047995 0.52660722 -0.099946745 9.1125767e-39
1.0472718 0.52935445 -0.099066511 9.3905999e-39
1.0477226 0.53302407 -0.097373404 1.0957553e-38
1.0461717 0.53809744 -0.095826693 8.8374135e-39
1.0449804 0.54102659 -0.09504164 9.6675343e-39
1.0430224 0.54369843 -0.094643719 1.1417812e-38
1.0418059 0.54721296 -0.09362413 1.1234147e-38
1.0410799 0.55044299 -0.09254384 9.2994776e-39
1.0422522 0.55487496 -0.090269797 9.4838703e-39
1.0423316 0.55887347 -0.088575259 9.4835102e-39
1.0412323 0.56238091 -0.087515786 9.3913159e-39
1.1196362 0.24432047 -0.19136329 1.1051567e-38
1.119433 0.24767157 -0.19004172 1.0775699e-38
1.1218815 0.251109 -0.18771581 1.086717e-38
1.114825 0.26995447 -0.18244317 1.0682063e-38
1.112959 0.27341279 -0.18168408 1.0682778e-38
1.1150131 0.27694207 -0.17946394 1.105156e-38
1.1145151 0.28033778 -0.17823149 1.0590935e-38
1.1142972 0.2837567 -0.17688701 1.0314001e-38
1.107798 0.28703895 -0.17789327 1.012888e-38
1.1089487 0.29055536 -0.17600839 1.0312565e-38
1.1063582 0.29396656 -0.17553355 1.0587701e-38
1.1061345 0.29690662 -0.17439061 1.1697639e-38
1.106382 0.29865801 -0.17357074 1.0035601e-38
1.1044843 0.30158567 -0.17304426 1.0404392e-38
1.1061203 0.30519149 -0.17094494 1.0312553e-38
1.1059676 0.31244242 -0.16798051 9.7593754e-39
1.1017913 0.31552944 -0.16821992 1.0311486e-38
1.1011254 0.31906867 -0.16698885 1.2153586e-38
1.0998399 0.32249299 -0.16603199 1.0219635e-38
1.0987756 0.32586616 -0.16501568 1.0311467e-38
1.0985471 0.32934058 -0.16365193 1.0403299e-38
1.0983164 0.33282146 -0.16228627 1.0495143e-38
1.0965708 0.33611348 -0.16155255 1.0403301e-38
1.097676 0.33951113 -0.1597338 9.8504962e-39
1.0918456 0.34306946 -0.16038081 1.252236e-38
1.0901948 0.3464357 -0.15958153 1.0771727e-38
1.0932293 0.34961256 -0.15715015 1.0035957e-38
1.0917106 0.35222664 -0.15661597 1.0495857e-38
1.0899715 0.35550946 -0.1558837 1.0495504e-38
1.0917029 0.35933548 -0.15365776 1.0771005e-38
1.0888647 0.36195409 -0.15360352 1.2337616e-38
1.0875099 0.3645153 -0.15303147 9.7582866e-39
1.0874461 0.36991706 -0.15080482 9.5746212e-39
1.0825791 0.37279782 -0.1513823 9.7579433e-39
1.0821764 0.3763009 -0.15007021 9.9434107e-39
1.0814536 0.37911943 -0.14916022 1.2245782e-38
1.0846945 0.38190693 -0.14681564 9.9419688e-39
1.082889 0.38441175 -0.14643165 1.2430535e-38
1.0829149 0.39037973 -0.14393637 1.2799312e-38
1.0804344 0.39309186 -0.14371252 1.0955759e-38
1.0813459 0.39580834 -0.14224817 1.0219635e-38
1.0809869 0.39927098 -0.14093702 1.0036327e-38
1.0754421 0.40554643 -0.14034803 1.160113e-38
1.075644 0.40923467 -0.13873807 1.141746e-38
1.076207 0.41301557 -0.13695763 1.1325989e-38
1.0726333 0.41617292 -0.13694765 1.1417459e-38
1.0725104 0.41980797 -0.13547836 1.1417453e-38
1.0728977 0.42357284 -0.13376884 1.1142308e-38
1.0661771 0.42986172 -0.13360362 1.1233073e-38
1.0662146 0.43448895 -0.13166256 1.1049395e-38
1.0659535 0.43811318 -0.13024835 1.1140861e-38
1.0633218 0.44146708 -0.12981243 1.1140872e-38
1.0636959 0.44527125 -0.12809132 1.1049754e-38
1.0634307 0.44891319 -0.12667118 1.0774612e-38
1.0587902 0.455699 -0.12553939 1.095828e-38
1.0594509 0.45961979 -0.123665 1.0957923e-38
1.0593002 0.46331984 -0.12217889 1.1048686e-38
1.0565336 0.46662924 -0.12181079 1.0957207e-38
1.0562621 0.47030091 -0.12038057 1.0957565e-38
1.0576377 0.47401479 -0.11833127 1.0311832e-38
1.0561061 0.47540718 -0.11831064 1.2708205e-38
1.0505753 0.48524067 -0.11623453 1.0679891e-38
1.0520124 0.48949781 -0.11393657 1.068062e-38
1.0493498 0.49283427 -0.11351919 1.0403308e-38
1.0496852 0.49675331 -0.11176427 1.0402953e-38
1.0504286 0.50082797 -0.1097957 1.0035969e-38
1.0501416 0.50455958 -0.10834615 1.0220352e-38
1.0498527 0.50829804 -0.10689447 1.0036327e-38
1.0468755 0.51121908 -0.1067651 9.1129256e-39
1.0471903 0.51508123 -0.10504138 9.4806291e-39
1.0422063 0.51575589 -0.10658051 1.1232723e-38
1.0428247 0.51990455 -0.10462666 1.1141598e-38
1.0429929 0.52343017 -0.10309671 9.2994762e-39
1.0419075 0.52689362 -0.10205047 9.4831598e-39
1.0425075 0.53100461 -0.10011903 9.5757016e-39
1.0432113 0.53517556 -0.098124705 9.8512095e-39
1.1252936 0.22424352 -0.19765979 1.0499112e-38
1.1274246 0.22757518 -0.19549391 1.0776057e-38
1.1260358 0.23091228 -0.19461112 1.1328156e-38
1.1158782 0.24101572 -0.19411214 1.0682433e-38
1.1155843 0.24437039 -0.19282225 1.2618174e-38
1.1159674 0.24777092 -0.19126597 1.2435215e-38
1.1147407 0.2511498 -0.19030647 1.095829e-38
1.1162997 0.25383306 -0.18861955 1.0129237e-38
1.1139712 0.25639752 -0.18840177 1.0498398e-38
1.1130499 0.25916272 -0.18758637 1.2064636e-38
1.1087524 0.26212335 -0.18792266 1.0220721e-38
1.108294 0.26653025 -0.18625447 1.0220723e-38
1.1055837 0.26992095 -0.1858319 1.0219646e-38
1.1064171 0.27334636 -0.18410079 9.9437737e-39
1.1053665 0.27667472 -0.18309818 1.0127079e-38
1.1060399 0.28011081 -0.18142101 9.8522899e-39
1.1061689 0.28352711 -0.17995094 1.0220715e-38
1.101685 0.28830013 -0.1796003 9.850862e-39
1.0983558 0.29303476 -0.17884406 1.2522732e-38
1.1001981 0.29846632 -0.1759088 1.0035241e-38
1.0982662 0.30137882 -0.17540124 1.0312206e-38
1.0980561 0.30479646 -0.1740544 1.0311472e-38
1.1004399 0.30847213 -0.17165285 1.0219985e-38
1.0980841 0.31172913 -0.1711566 1.169441e-38
1.0981594 0.31539196 -0.16960344 9.7579447e-39
1.0962108 0.31878665 -0.16890104 1.0495143e-38
1.0920792 0.32200113 -0.16907097 1.0494781e-38
1.0918629 0.32544941 -0.16771367 1.0402953e-38
1.0903556 0.32874733 -0.16689044 1.0219276e-38
1.0911458 0.3323302 -0.16510953 1.0311123e-38
1.0892516 0.33580023 -0.16435593 1.0587337e-38
1.0891871 0.33929306 -0.16292459 1.0495864e-38
1.0880142 0.3420516 -0.16220395 1.003488e-38
1.0845238 0.34724388 -0.16131589 1.2153226e-38
1.0835853 0.35146004 -0.15990251 1.0311462e-38
1.0825267 0.35482007 -0.15888955 1.0219279e-38
1.0849479 0.35873556 -0.15637447 1.0403303e-38
1.08375 0.36145428 -0.15567948 1.187736e-38
1.0817361 0.36441571 -0.15518151 9.6660923e-39
1.0804012 0.3681047 -0.15413241 1.0497665e-38
1.0816356 0.37093472 -0.15250286 8.9285427e-39
1.0777901 0.37417302 -0.15255833 9.0196509e-39
1.077906 0.37766671 -0.15106085 9.6653749e-39
1.0781708 0.38056824 -0.14975557 1.0771732e-38
1.0771056 0.38395131 -0.1487354 1.0956122e-38
1.0788162 0.38831359 -0.14629374 1.049514e-38
1.0737778 0.39076418 -0.14711294 1.1233078e-38
1.0735394 0.39431509 -0.14572103 1.1510013e-38
1.0715142 0.39750031 -0.14513385 1.114266e-38
1.0728819 0.40139925 -0.14301038 1.1325261e-38
1.0681921 0.40453684 -0.14341617 1.1325265e-38
1.0689027 0.40831444 -0.1415832 1.1416028e-38
1.0696093 0.41210693 -0.1397455 1.1416743e-38
1.0668559 0.41543177 -0.13936612 1.1049755e-38
1.0667369 0.41904983 -0.13790253 1.1233784e-38
1.0664872 0.42264512 -0.13649626 1.1142303e-38
1.0654184 0.42604634 -0.13546987 1.1233429e-38
1.0628687 0.43085444 -0.13439828 1.058806e-38
1.0604787 0.43365386 -0.13410509 1.0957207e-38
1.060349 0.43729544 -0.13263562 1.0865371e-38
1.0575923 0.44059753 -0.13226695 1.1140879e-38
1.0577701 0.44433182 -0.1306466 1.0773537e-38
1.0581442 0.44813064 -0.12892766 1.095757e-38
1.0578849 0.45176601 -0.12750812 1.1325985e-38
1.0556632 0.45890015 -0.12534797 1.0588776e-38
1.0539188 0.4624432 -0.12450919 1.0588434e-38
1.051255 0.46670073 -0.12370864 1.0680973e-38
1.0509911 0.47035998 -0.12228086 1.0220715e-38
1.0514573 0.47425425 -0.12048856 1.0587696e-38
1.0505699 0.47773558 -0.11936253 1.0588053e-38
1.0503002 0.48141587 -0.11792811 1.0311106e-38
1.0484924 0.48515886 -0.1170293 9.4809948e-39
1.0456696 0.48817629 -0.11680334 9.7593796e-39
1.0427845 0.49130628 -0.11655323 1.1418189e-38
1.0427345 0.49518222 -0.11495701 1.0310397e-38
1.0439768 0.49940377 -0.11274497 1.0033801e-38
1.0436994 0.50311691 -0.11129962 9.7586607e-39
1.0426217 0.5065552 -0.11026111 9.7586621e-39
1.0407468 0.51015282 -0.10944728 9.6671868e-39
1.0424259 0.51419109 -0.10715212 9.2062226e-39
1.0427474 0.51805562 -0.10542504 9.11365e-39
1.0380294 0.53403074 -0.10049396 9.2976854e-39
1.126509 0.2176895 -0.19994584 1.0221804e-38
1.1176986 0.22115918 -0.20171815 1.0037788e-38
1.117517 0.22445671 -0.20041099 1.0407276e-38
1.1185973 0.227763 -0.19863935 1.0591304e-38
1.1184103 0.23107854 -0.19732656 1.0682778e-38
1.1154466 0.23437338 -0.1970365 1.0776048e-38
1.1147723 0.23768401 -0.19590379 1.0590225e-38
1.1100439 0.24114241 -0.19619003 1.0128539e-38
1.1097046 0.24445489 -0.19493419 1.0129251e-38
1.1102816 0.24779782 -0.19333112 1.0312573e-38
1.1130214 0.25071439 -0.19111574 9.5742765e-39
1.1071717 0.25307736 -0.19226778 1.0311833e-38
1.1080264 0.25644904 -0.1905513 9.9448512e-39
1.1056911 0.25905836 -0.1903172 1.2063557e-38
1.1069448 0.2619985 -0.18863477 9.5757044e-39
1.1069701 0.26709682 -0.18650201 9.7583048e-39
1.0999639 0.26991704 -0.18788582 1.0219996e-38
1.0997742 0.27327111 -0.18655802 1.0128159e-38
1.1010168 0.2767154 -0.18466966 1.0219275e-38
1.1011596 0.28011057 -0.18320328 1.0218921e-38
1.100112 0.28343305 -0.18220207 1.0403669e-38
1.0994859 0.28624406 -0.1812598 1.1326356e-38
1.0967762 0.28907996 -0.18106806 1.0310754e-38
1.0993662 0.29176247 -0.17900492 9.7590237e-39
1.0995476 0.29510432 -0.17754674 9.9434107e-39
1.0945311 0.29770279 -0.17829646 1.1879873e-38
1.0932556 0.30127823 -0.17727292 1.0220355e-38
1.0930533 0.30468354 -0.17592841 1.0679171e-38
1.0947044 0.30827588 -0.17382915 1.0771365e-38
1.0955707 0.31181023 -0.17204066 1.0494428e-38
1.0920981 0.31510219 -0.17193761 1.0679531e-38
1.0912336 0.31839573 -0.17088151 9.9426862e-39
1.0844193 0.3249661 -0.17063326 1.0587338e-38
1.0855702 0.32944068 -0.16834919 1.0312549e-38
1.0837762 0.33550379 -0.1664789 1.0402948e-38
1.0839502 0.33901107 -0.16495457 1.0312186e-38
1.0838349 0.34190571 -0.16379091 1.0035234e-38
1.08165 0.34418967 -0.16363746 1.0587696e-38
1.0818548 0.34843794 -0.16179323 9.8501277e-39
1.0762655 0.35317999 -0.16185917 1.0588416e-38
1.0776895 0.35691148 -0.1597849 1.0680606e-38
1.0760225 0.36052617 -0.15888804 1.2431612e-38
1.0760354 0.36394295 -0.15746015 1.0773878e-38
1.0758129 0.36744055 -0.15608455 1.0495863e-38
1.0759195 0.37127692 -0.15444773 1.2982983e-38
1.0747443 0.37467423 -0.15346183 1.2799316e-38
1.0730132 0.37727609 -0.15301031 1.0496568e-38
1.0705305 0.37965417 -0.15292643 1.1048679e-38
1.0681882 0.38276747 -0.15248503 1.1049397e-38
1.0689349 0.3860904 -0.15082827 1.2708918e-38
1.0673341 0.39001352 -0.14977884 1.1049402e-38
1.0662775 0.39337558 -0.14876425 1.1141592e-38
1.066179 0.396938 -0.14731641 1.1050472e-38
1.0659468 0.40048119 -0.14592539 1.123415e-38
1.0625941 0.40748909 -0.14423081 1.1049042e-38
1.0623585 0.41104749 -0.14283468 1.095721e-38
1.0609185 0.41391951 -0.1421643 1.2709294e-38
1.0595944 0.41677544 -0.14145826 1.0956847e-38
1.0600193 0.4216992 -0.1392522 1.0958282e-38
1.0591429 0.42512852 -0.1381439 1.105048e-38
1.0566729 0.42765546 -0.13799335 1.3076263e-38
1.0566196 0.42990565 -0.13707559 1.0405106e-38
1.0549145 0.43302587 -0.13639858 1.0495874e-38
1.0536842 0.43619788 -0.1355267 1.1048678e-38
1.0522839 0.43983877 -0.13452157 1.0955763e-38
1.051223 0.44322133 -0.13350007 1.0956489e-38
1.0507872 0.44677553 -0.13217881 1.0680269e-38
1.050539 0.45038873 -0.13076448 1.0773164e-38
1.0502886 0.45400873 -0.12934808 1.0681327e-38
1.0485678 0.45710212 -0.12868801 1.1695491e-38
1.0465422 0.4585036 -0.12884399 9.4824354e-39
1.0469115 0.46221423 -0.12716356 9.8519325e-39
1.0442464 0.46518213 -0.12690058 1.1693344e-38
1.0424759 0.46847874 -0.12617402 9.6675427e-39
1.0451773 0.47303513 -0.12328973 9.8515724e-39
1.0461386 0.47707868 -0.12125443 9.851571e-39
1.0458757 0.48074937 -0.11982155 9.6671868e-39
1.0439113 0.48428673 -0.11906544 9.7586635e-39
1.0440794 0.48815787 -0.11739171 9.0214488e-39
1.0430733 0.49150154 -0.11636642 9.298393e-39
1.0391248 0.49474233 -0.11645845 9.7590181e-39
1.0394627 0.49864355 -0.11471009 9.4820668e-39
1.0392923 0.50238287 -0.11321478 9.5739051e-39
1.0379099 0.50663781 -0.11194741 9.2984014e-39
1.0372317 0.51065433 -0.11052207 9.0221705e-39
1.1325005 0.17285451 -0.21643268 1.0315796e-38
1.1314626 0.17613831 -0.21544391 1.0406552e-38
1.1297618 0.17952296 -0.21465527 1.0407631e-38
1.1301702 0.18273591 -0.21316782 1.0223243e-38
1.1230161 0.1922486 -0.21181813 9.6697063e-39
1.1167563 0.19735426 -0.21197757 1.0407641e-38
1.1156735 0.1999242 -0.21130244 1.21572e-38
1.116972 0.20204334 -0.20994571 9.3923879e-39
1.1163093 0.20474453 -0.20906253 1.0590225e-38
1.1167186 0.20798695 -0.20756257 1.0498395e-38
1.1183312 0.21121858 -0.20562765 1.0498389e-38
1.1153741 0.21462657 -0.20528796 1.0222163e-38
1.1125941 0.21800356 -0.20489664 1.0128885e-38
1.111221 0.22106081 -0.20412464 1.1695493e-38
1.1100816 0.22466718 -0.20303862 1.0035979e-38
1.111544 0.22795309 -0.20113592 9.7601139e-39
1.1113678 0.23124798 -0.19982781 1.0035622e-38
1.109272 0.23452972 -0.19922625 9.9437793e-39
1.1082342 0.23781811 -0.1982355 1.0129238e-38
1.109084 0.23911729 -0.19738409 9.2076477e-39
1.101671 0.24439736 -0.19789192 1.1694779e-38
1.0999006 0.24874052 -0.1967295 1.0128162e-38
1.1010766 0.25313592 -0.1944692 1.0311473e-38
1.1019384 0.25649118 -0.19275695 1.0128161e-38
1.1012614 0.25906637 -0.19193156 1.1971007e-38
1.0994911 0.2621502 -0.19129355 1.0127447e-38
1.1004915 0.26580697 -0.18940505 1.1787329e-38
1.1001543 0.26849562 -0.18840839 9.3909502e-39
1.0961521 0.2733646 -0.18784185 1.0404022e-38
1.0955676 0.27669218 -0.18666928 1.0311829e-38
1.0949256 0.28002253 -0.18551651 1.0312199e-38
1.0947946 0.28339088 -0.18416145 1.0311837e-38
1.0940768 0.28608412 -0.18330179 1.2154314e-38
1.0929193 0.28943086 -0.18233047 1.242983e-38
1.0942906 0.29297805 -0.18035215 1.1971367e-38
1.090777 0.29472053 -0.1809095 9.9437596e-39
1.0924065 0.2981672 -0.17887877 9.8512095e-39
1.0876299 0.30112237 -0.17939228 1.0035606e-38
1.0875961 0.30452698 -0.17798652 1.040438e-38
1.0874006 0.30792469 -0.17664266 1.1047235e-38
1.0846744 0.31126693 -0.17624617 1.0955402e-38
1.0840782 0.31462833 -0.1750638 1.0679895e-38
1.0834342 0.31798944 -0.17389894 1.0679893e-38
1.0827228 0.32134649 -0.1727605 1.0772081e-38
1.0781879 0.32770389 -0.17176853 1.0219637e-38
1.07859 0.33156279 -0.17001437 1.0865005e-38
1.0766386 0.33931497 -0.16749802 1.1233784e-38
1.0774201 0.34289831 -0.16572013 1.1233778e-38
1.0763719 0.34623152 -0.16471455 1.1325254e-38
1.0748851 0.34949905 -0.16389649 1.1324895e-38
1.0713878 0.35637456 -0.16230989 1.1418175e-38
1.0708982 0.35979643 -0.16106334 1.1141594e-38
1.0684445 0.36315054 -0.16056231 1.1234141e-38
1.068276 0.36663443 -0.15917276 1.1142303e-38
1.0690335 0.37028831 -0.15737413 1.1693687e-38
1.0686322 0.37374711 -0.15608007 1.1417456e-38
1.0678694 0.380294 -0.15363175 1.0495868e-38
1.064936 0.38266596 -0.15371497 1.0957916e-38
1.0638845 0.38601261 -0.152705 1.0866447e-38
1.0614218 0.38819692 -0.15269457 1.0956132e-38
1.0603714 0.39154035 -0.15168554 1.0865366e-38
1.0608282 0.39637098 -0.14950661 1.0956485e-38
1.0606039 0.39990014 -0.14811853 1.0957563e-38
1.0603775 0.40343598 -0.14672849 1.0957563e-38
1.0589063 0.4052853 -0.14649546 1.0404378e-38
1.0607079 0.40919131 -0.14421056 1.0220361e-38
1.0547795 0.41290838 -0.14482728 1.2525613e-38
1.0556519 0.41763735 -0.14253899 1.0865364e-38
1.0557703 0.4204841 -0.14131005 1.2339782e-38
1.0552691 0.42254463 -0.14063479 1.022143e-38
1.0535462 0.4252679 -0.1401297 1.0958632e-38
1.052004 0.42828661 -0.1394355 1.3075544e-38
1.0505599 0.43212017 -0.13836609 1.1049394e-38
1.0512092 0.43626216 -0.13640375 1.0312189e-38
1.0474603 0.43859485 -0.1368012 1.2154664e-38
1.047281 0.44281414 -0.13510919 1.0034892e-38
1.0471517 0.44644386 -0.13364461 1.0033818e-38
1.0460933 0.44982082 -0.13262449 1.0034887e-38
1.0458499 0.45343095 -0.13120967 9.8515766e-39
1.0429982 0.45597404 -0.13119182 1.1510027e-38
1.0432273 0.45979029 -0.12951863 1.1785174e-38
1.043187 0.46181399 -0.12869042 9.2980399e-39
1.0428804 0.46532652 -0.1273393 9.297677e-39
1.0395309 0.4720107 -0.12577839 9.6675371e-39
1.0401933 0.47594345 -0.12389839 9.5753457e-39
1.0382704 0.49072495 -0.11844382 9.5749883e-39
1.1334226 0.15995964 -0.221467 1.0314357e-38
1.1233478 0.17025246 -0.22085904 9.3020098e-39
1.1196347 0.17379016 -0.22074141 1.0130683e-38
1.1181324 0.17706227 -0.21992713 9.762625e-39
1.1196536 0.18017125 -0.21807659 1.0222537e-38
1.1194977 0.18338113 -0.21679655 1.0407284e-38
1.1192075 0.18660337 -0.21556042 1.0222164e-38
1.1186867 0.1898423 -0.21440156 1.0222167e-38
1.1147606 0.19328727 -0.21440031 1.0314731e-38
1.1129498 0.1966273 -0.21367033 1.0222527e-38
1.1108248 0.20017456 -0.2129689 1.1788419e-38
1.1111296 0.20235899 -0.21194774 9.2083596e-39
1.1089571 0.20508435 -0.21160594 1.0129964e-38
1.1088008 0.20831683 -0.21031664 1.0128889e-38
1.1089478 0.21155003 -0.20891623 9.9448583e-39
1.1100318 0.21447976 -0.20730007 1.15129e-38
1.1079507 0.21834362 -0.20645069 9.2061988e-39
1.1050998 0.22150855 -0.20617355 1.0127809e-38
1.1040388 0.22452332 -0.2053052 1.1970282e-38
1.1033012 0.22813831 -0.20406891 1.003669e-38
1.1038842 0.23141398 -0.20249155 1.0127442e-38
1.1039076 0.23469488 -0.20111647 1.0036688e-38
1.1025939 0.23776744 -0.20031641 1.206355e-38
1.1002924 0.24133663 -0.1996702 9.9444939e-39
1.1016028 0.24421827 -0.19799146 9.2069247e-39
1.09462 0.24895541 -0.19856836 1.1879167e-38
1.094206 0.25211927 -0.19740169 1.0310771e-38
1.0943881 0.2554267 -0.19595756 1.031148e-38
1.0956544 0.25878662 -0.19409567 1.0128525e-38
1.0948393 0.26221809 -0.19296397 1.0311116e-38
1.0946637 0.26554146 -0.19164383 1.0127806e-38
1.0964681 0.26919821 -0.18946183 1.1786966e-38
1.0929831 0.27166203 -0.18970826 9.4835172e-39
1.0884726 0.2774058 -0.18896303 1.0403313e-38
1.0883143 0.28249007 -0.18690318 1.1785888e-38
1.0871356 0.28546709 -0.18609355 1.0403664e-38
1.0884877 0.28798631 -0.18455045 9.7583048e-39
1.0876328 0.2907905 -0.18369471 1.0586991e-38
1.0855448 0.29417813 -0.18304619 1.0311827e-38
1.0857487 0.29757929 -0.18155505 1.0126722e-38
1.0827093 0.30458507 -0.17974693 1.0128157e-38
1.0822462 0.30778161 -0.17858456 1.1140516e-38
1.0791376 0.31107149 -0.17834952 1.1325619e-38
1.0781002 0.31437027 -0.17735434 1.1510371e-38
1.0770632 0.31766903 -0.17635903 1.1326697e-38
1.0761492 0.32098308 -0.17531243 1.1325982e-38
1.0758071 0.32521409 -0.17367506 1.1417102e-38
1.0753635 0.32880649 -0.17234071 1.1418538e-38
1.0739563 0.33238247 -0.1713652 1.0588056e-38
1.0749724 0.3356483 -0.16963376 1.1417818e-38
1.0720831 0.33911458 -0.16924511 1.1509663e-38
1.0710417 0.34242862 -0.168245 1.160185e-38
1.070843 0.34586528 -0.16688617 1.1510372e-38
1.0707825 0.3493306 -0.16546483 1.1602933e-38
1.0705796 0.35278141 -0.16410157 1.1417466e-38
1.0682162 0.35596648 -0.16363803 1.0680974e-38
1.0650256 0.35930777 -0.16341144 1.1325988e-38
1.0622964 0.36259833 -0.16303752 1.1234151e-38
1.0630641 0.36622393 -0.161247 1.1049762e-38
1.0629901 0.36971688 -0.15981917 1.1325269e-38
1.0625042 0.37314236 -0.1585699 1.1141234e-38
1.0657636 0.37650305 -0.15597969 1.0219286e-38
1.0623082 0.37801942 -0.15660995 1.2800038e-38
1.0616484 0.38308561 -0.1547408 1.0311829e-38
1.056999 0.38807184 -0.1543618 1.3352858e-38
1.0556612 0.39111528 -0.15358268 1.1142315e-38
1.0551687 0.39573798 -0.15183702 1.1233791e-38
1.0549531 0.399252 -0.15045214 1.1324906e-38
1.0523498 0.40150955 -0.15046245 1.2525251e-38
1.0511878 0.40486911 -0.14948754 1.2616729e-38
1.0514638 0.40855786 -0.14785023 1.2525254e-38
1.0532199 0.41507378 -0.14449489 1.0129234e-38
1.046819 0.41702351 -0.14602037 9.9437694e-39
1.0457727 0.42035997 -0.14501272 9.5760687e-39
1.0495023 0.42488405 -0.14176632 1.0219639e-38
1.0480242 0.42813379 -0.1409525 9.9441296e-39
1.0465195 0.43171698 -0.14000949 9.666814e-39
1.0462897 0.43529075 -0.13860489 9.9430492e-39
1.0466615 0.44077134 -0.13618627 9.2973266e-39
1.0414267 0.44796461 -0.13510185 9.8512137e-39
1.0405785 0.45138532 -0.13398685 9.7604516e-39
1.0394667 0.45543501 -0.13270603 1.178624e-38
1.0405695 0.45751557 -0.13143669 9.0228851e-39
1.039654 0.46097627 -0.13032956 1.0035961e-38
1.039206 0.46453515 -0.12901075 9.7593768e-39
1.0381489 0.46791312 -0.12798978 9.9434079e-39
1.1223717 0.15770628 -0.22644122 9.8544591e-39
1.1217371 0.16091047 -0.22533831 9.9462918e-39
1.1199985 0.16419689 -0.22460434 9.9462876e-39
1.1179824 0.16749731 -0.2239659 9.946296e-39
1.1166612 0.17080027 -0.2230726 1.0222158e-38
1.1147797 0.17416617 -0.22235768 1.1880595e-38
1.1132884 0.17744297 -0.22153744 9.9444897e-39
1.1128526 0.18064331 -0.22036363 9.8519466e-39
1.111999 0.18386856 -0.21933192 9.8533815e-39
1.1120653 0.18705407 -0.21798085 9.4846018e-39
1.1119165 0.19025563 -0.21670172 9.7601083e-39
1.1090645 0.19364108 -0.21633308 9.7615586e-39
1.1113465 0.19609441 -0.21447793 9.2080107e-39
1.1118958 0.19920786 -0.21298048 9.299849e-39
1.1069428 0.20157559 -0.21380301 1.1511476e-38
1.1030821 0.20538783 -0.21362495 1.0036701e-38
1.1035171 0.20859274 -0.21213123 9.5767974e-39
1.1030979 0.21182093 -0.21093969 9.9441436e-39
1.102541 0.21505606 -0.20979553 9.8523039e-39
1.1012057 0.21840179 -0.20888962 1.0219286e-38
1.1022015 0.22173993 -0.20713551 9.4824354e-39
1.1000464 0.22490744 -0.20660321 9.3888034e-39
1.0949236 0.22832192 -0.20705175 1.0036336e-38
1.0962201 0.23157674 -0.20522259 1.0128165e-38
1.0960653 0.23483309 -0.20392272 1.0037047e-38
1.0957296 0.23809206 -0.20268799 9.9445009e-39
1.093032 0.24143723 -0.20227976 1.0127808e-38
1.0925795 0.2455088 -0.20074904 1.012745e-38
1.0927213 0.24885195 -0.1993048 9.7593698e-39
1.0890539 0.25220409 -0.19924785 1.0219283e-38
1.0880299 0.25545648 -0.19826713 1.0312195e-38
1.0878688 0.25874195 -0.19695742 1.0220714e-38
1.0851643 0.26212773 -0.19653478 1.1879883e-38
1.0886468 0.26563331 -0.19380291 1.1787326e-38
1.0883212 0.26883969 -0.19258632 1.0128161e-38
1.0872916 0.27211252 -0.19159915 1.0312197e-38
1.0892535 0.27499411 -0.18968232 9.4824284e-39
1.0842514 0.27821568 -0.19016716 9.7597341e-39
1.0868642 0.28135872 -0.18790388 9.8508507e-39
1.0830239 0.28464019 -0.18793954 9.8512207e-39
1.0793082 0.28670549 -0.18843617 1.3076631e-38
1.076926 0.28937864 -0.18819273 1.1418183e-38
1.0780722 0.29390216 -0.18588997 1.1509303e-38
1.0793549 0.29737222 -0.18397617 1.1325626e-38
1.0808536 0.30088052 -0.18196762 1.1418532e-38
1.0791371 0.30429703 -0.18117139 1.1419257e-38
1.0734193 0.30727625 -0.1820185 1.1510734e-38
1.0749929 0.31040379 -0.18014112 1.3261737e-38
1.0733771 0.31424502 -0.17913128 1.1327426e-38
1.0723447 0.31753132 -0.17813957 1.1143757e-38
1.07305 0.32053277 -0.17663176 1.3261018e-38
1.07242 0.32221735 -0.17616013 1.0589143e-38
1.0715431 0.32509503 -0.17528179 1.1325996e-38
1.071797 0.32857752 -0.17373846 1.3260305e-38
1.0690427 0.33215666 -0.17325351 1.0497658e-38
1.0666569 0.33513007 -0.17288631 1.1326358e-38
1.0653471 0.33842045 -0.17199409 1.3261027e-38
1.0645359 0.3419379 -0.17082526 1.1509659e-38
1.0649142 0.34543905 -0.16922879 1.1417826e-38
1.0647224 0.34886605 -0.16787137 1.095829e-38
1.0631198 0.35208109 -0.16711757 1.1418186e-38
1.0610768 0.35526735 -0.16653647 1.3351786e-38
1.0637859 0.35911894 -0.16394289 1.0773544e-38
1.0563991 0.3620843 -0.16540527 1.1325629e-38
1.0553648 0.36537999 -0.16441025 1.1233791e-38
1.0565505 0.36907139 -0.16243964 1.1509297e-38
1.0552167 0.37317717 -0.1612166 1.1050117e-38
1.0564057 0.37689787 -0.15923266 1.1141948e-38
1.0568864 0.38050267 -0.15755558 1.0958283e-38
1.0544298 0.38382936 -0.15706712 1.0958287e-38
1.0557768 0.38737616 -0.15509781 1.0496597e-38
1.0501543 0.3906408 -0.15579133 1.1878436e-38
1.0504107 0.39411271 -0.15425155 1.0219988e-38
1.0499254 0.39755175 -0.1529963 1.0405094e-38
1.0488837 0.40087456 -0.15199274 1.0220704e-38
1.0528238 0.40456033 -0.14901862 1.0035236e-38
1.0495516 0.40663844 -0.14934801 9.4827983e-39
1.0463456 0.41129485 -0.14857936 9.5746268e-39
1.0470043 0.41420943 -0.14712477 9.2058457e-39
1.0442624 0.42108616 -0.14526178 9.297691e-39
1.04245 0.42374924 -0.14481437 1.0035248e-38
1.043057 0.42750433 -0.14302863 9.8512249e-39
1.0411935 0.43008256 -0.14263523 1.1141967e-38
1.0410162 0.43455258 -0.14083815 1.0127447e-38
1.0418501 0.43760592 -0.13926184 1.1694409e-38
1.0401356 0.44035369 -0.13874345 9.9434149e-39
1.0419369 0.44369981 -0.13669193 9.2980455e-39
1.1254307 0.13091607 -0.23648281 1.1971729e-38
1.122304 0.13501832 -0.23591596 9.5775107e-39
1.1286329 0.13747716 -0.23258056 9.3934795e-39
1.1227616 0.140607 -0.23342107 1.1326714e-38
1.1234262 0.14326933 -0.2320694 9.7619075e-39
1.1233552 0.14737581 -0.23038493 9.6707853e-39
1.1157514 0.15387517 -0.23045458 1.1327796e-38
1.1146113 0.15838517 -0.2289924 9.3938369e-39
1.1124954 0.16167928 -0.22839297 9.4856766e-39
1.1116542 0.16487394 -0.22736958 9.5768058e-39
1.1128414 0.16793303 -0.22566186 9.6682756e-39
1.1117549 0.17120858 -0.22469428 9.9437737e-39
1.1113905 0.17427577 -0.22354981 9.0221803e-39
1.1057934 0.17794952 -0.22406355 1.1326347e-38
1.1046717 0.18119611 -0.22312088 1.1510387e-38
1.1045336 0.18435262 -0.22185659 9.8519382e-39
1.1035208 0.18756428 -0.22088873 9.6679028e-39
1.1063421 0.19061941 -0.21858583 9.7597439e-39
1.1049815 0.19400615 -0.21767209 1.1419271e-38
1.1030529 0.19719347 -0.21704881 9.7604712e-39
1.1020626 0.199664 -0.21638139 8.8385233e-39
1.1019133 0.20277712 -0.21513927 9.1158165e-39
1.0983986 0.20566173 -0.21522127 1.0128532e-38
1.0982596 0.20886651 -0.21393718 9.760467e-39
1.0983088 0.21207322 -0.21258354 9.7604642e-39
1.0962178 0.21541308 -0.21195598 9.8519368e-39
1.0972242 0.21862358 -0.21025121 1.0035973e-38
1.095332 0.22186285 -0.20959301 1.0034904e-38
1.094314 0.22509535 -0.2086184 1.0219656e-38
1.0897492 0.23174396 -0.20751601 1.0036341e-38
1.0904752 0.23499182 -0.20589812 1.0036329e-38
1.0911514 0.23791721 -0.2044327 1.1695136e-38
1.0919669 0.23929569 -0.20356064 9.2987602e-39
1.0883845 0.24238221 -0.20358334 1.0311476e-38
1.0879445 0.24563414 -0.20238954 1.031184e-38
1.0869247 0.24887499 -0.20141205 1.0312555e-38
1.0849282 0.25866956 -0.19806148 9.3898852e-39
1.0822334 0.26206538 -0.19763112 1.0496589e-38
1.0826535 0.26537648 -0.19609854 1.0864647e-38
1.0804048 0.26871541 -0.19552904 1.0772098e-38
1.0805006 0.27202427 -0.1941158 1.0774612e-38
1.0819683 0.27486286 -0.19239752 1.022142e-38
1.0800279 0.27665913 -0.19235793 1.2894038e-38
1.076609 0.28188986 -0.19142772 1.1417467e-38
1.0778359 0.28458956 -0.18985519 1.0497659e-38
1.0756202 0.28665254 -0.18980505 1.3261737e-38
1.0725121 0.29044315 -0.18936118 1.1235596e-38
1.0723503 0.29376668 -0.18803598 1.1418546e-38
1.0719001 0.29707178 -0.18682377 1.1694058e-38
1.0723947 0.30046666 -0.18522908 1.1417114e-38
1.071447 0.30324474 -0.18441796 1.3444699e-38
1.070712 0.307448 -0.1829357 1.0957921e-38
1.0712087 0.31078568 -0.18136407 1.077317e-38
1.0668218 0.31392169 -0.18165988 1.1051915e-38
1.0667911 0.31729934 -0.18026426 1.0959728e-38
1.0657357 0.3199614 -0.17954089 1.3076631e-38
1.0689524 0.32219946 -0.17743395 1.031363e-38
1.0652975 0.32473654 -0.1777119 1.1325635e-38
1.0669113 0.3283411 -0.17562117 1.1325991e-38
1.0644698 0.3316654 -0.17512812 1.114232e-38
1.0646182 0.33532661 -0.17354894 1.0129248e-38
1.0654821 0.33878425 -0.17179328 1.0496229e-38
1.058042 0.34144595 -0.17340164 1.1418188e-38
1.0588406 0.34498933 -0.17163411 1.1602227e-38
1.0583757 0.34835672 -0.17040125 1.1141954e-38
1.058062 0.35175157 -0.16910186 1.1325986e-38
1.0588505 0.35532984 -0.16732341 1.1693327e-38
1.0552788 0.35846275 -0.16732284 1.1326349e-38
1.0499318 0.36456212 -0.16673496 1.2614925e-38
1.049324 0.36912599 -0.16505595 1.0864285e-38
1.050191 0.37275615 -0.16322726 1.0588776e-38
1.0509607 0.37638462 -0.16143486 1.0681693e-38
1.0508866 0.37986794 -0.16001105 1.0589493e-38
1.0481529 0.3831214 -0.15965421 1.0127802e-38
