# .PCD v0.7 - Point Cloud Data file format
VERSION 0.7
FIELDS x y z rgb
SIZE 4 4 4 4
TYPE F F F F
COUNT 1 1 1 1
WIDTH 1027
HEIGHT 1
VIEWPOINT 0 0 0 1 0 0 0
POINTS 1027
DATA ascii
-1.2441359 0.46877918 0.90092915 1.2944256e-39
-1.2424787 0.47402453 0.90188122 1.3866087e-39
-1.240301 0.48133093 0.90316391 2.2163875e-39
-1.2391646 0.48666903 0.90394914 1.1125511e-39
-1.2374263 0.49205112 0.90493882 1.5713741e-39
-1.2352854 0.49568835 0.90593046 1.295492e-39
-1.2346965 0.50058264 0.90649891 1.5702923e-39
-1.2338123 0.50636184 0.90723324 1.5735419e-39
-1.2184697 0.5307647 0.91421437 8.3596282e-40
-1.2167363 0.53614074 0.91520196 8.3704041e-40
-1.1997141 0.56465715 0.92305702 5.6262694e-40
-1.197732 0.56997573 0.92412323 9.3141366e-40
-1.195645 0.57185477 0.92496359 7.4304832e-40
-1.1949075 0.57716149 0.92561299 1.0182031e-39
-1.1928222 0.58223963 0.92669547 1.1103931e-39
-1.189538 0.5872283 0.92817199 9.2780111e-40
-1.1864742 0.59220129 0.92957377 1.3869674e-39
-1.1802636 0.59419918 0.93180144 1.48027e-39
-1.1772748 0.59904897 0.93316871 8.3489222e-40
-1.1747082 0.60365552 0.93437636 4.6754884e-40
-1.1720053 0.60813016 0.93561959 4.6754744e-40
-1.1702962 0.61344653 0.93659437 4.6719011e-40
-1.1683624 0.61956728 0.93770558 1.0189205e-39
-1.1666518 0.62489426 0.93868172 2.8316038e-40
-1.1664612 0.63157618 0.93925261 4.6682437e-40
-1.1572081 0.63887632 0.9429 5.5722914e-40
-1.1575178 0.64798445 0.94348794 4.6574677e-40
-1.1525152 0.65829229 0.9459427 3.731896e-40
-1.314733 0.30881688 0.86518645 1.650341e-38
-1.3140135 0.31460059 0.86586612 1.2908509e-38
-1.3112687 0.32312441 0.86743081 7.6533499e-39
-1.3067394 0.32763493 0.86928719 8.3236428e-40
-1.3049952 0.33301353 0.87027854 1.939788e-39
-1.3022403 0.33796132 0.87157506 1.9397908e-39
-1.3004985 0.34333426 0.87256527 2.307137e-39
-1.2920729 0.35229787 0.87606215 1.755401e-39
-1.2903348 0.35765964 0.87705022 2.0309033e-39
-1.2880778 0.36312425 0.87821954 1.8472379e-39
-1.2863387 0.36849201 0.87920839 1.7554052e-39
-1.2845995 0.37385985 0.88019729 1.6628452e-39
-1.2828599 0.3792277 0.88118631 1.6632054e-39
-1.2811207 0.38459557 0.88217515 1.755401e-39
-1.2752231 0.39472136 0.88491529 1.5713727e-39
-1.2732369 0.39918178 0.88591784 1.6646291e-39
-1.2740557 0.40280226 0.88591886 1.3916687e-39
-1.2678689 0.40566227 0.88820422 1.2054684e-39
-1.2661341 0.41102481 0.88919121 1.0214289e-39
-1.2643994 0.41638744 0.89017814 1.2036649e-39
-1.2626648 0.42175013 0.89116514 1.1125511e-39
-1.2611035 0.4276883 0.892138 1.1129112e-39
-1.2571231 0.43186691 0.89378554 1.2962165e-39
-1.2554665 0.43711251 0.8947376 1.388059e-39
-1.2526962 0.44280821 0.89609605 1.1125497e-39
-1.2509602 0.44818279 0.8970843 1.021796e-39
-1.2492242 0.45355743 0.89807272 7.4484619e-40
-1.2458156 0.4579303 0.89954406 1.1139888e-39
-1.2440826 0.46329352 0.90053052 1.1125511e-39
-1.2397248 0.46762493 0.90231603 1.1114805e-39
-1.237996 0.47298211 0.90330064 1.5702937e-39
-1.2370839 0.4778637 0.90397614 1.2962109e-39
-1.2344036 0.48081228 0.90509588 2.0334298e-39
-1.2307262 0.48412183 0.9065764 8.3704322e-40
-1.2286335 0.49119031 0.90781248 1.6624865e-39
-1.1994421 0.55536276 0.9224422 1.0181863e-39
-1.197801 0.5606029 0.92338872 1.018552e-39
-1.1922313 0.56324685 0.92545116 4.6754744e-40
-1.1889471 0.56736779 0.92686182 3.7643081e-40
-1.1872323 0.57270056 0.92783988 4.6753903e-40
-1.1855178 0.57803339 0.92881781 1.2940725e-39
-1.1822387 0.58300251 0.93029112 6.5157716e-40
-1.1805253 0.58833575 0.93126881 8.3560548e-40
-1.1796738 0.59488302 0.93205047 1.2947774e-39
-1.1698627 0.60137731 0.93582314 9.2672492e-40
-1.1681554 0.6066944 0.93679756 9.2780392e-40
-1.1654695 0.61116475 0.93803465 9.2565152e-40
-1.161069 0.61513412 0.93980694 7.4304972e-40
-1.1593679 0.62043774 0.9407782 3.7392108e-40
-1.1589897 0.62692392 0.94139707 6.5014223e-40
-1.1572857 0.63223773 0.94237006 5.5866267e-40
-1.151036 0.63781881 0.94488287 8.3415514e-40
-1.1494188 0.64301831 0.94581813 5.5756965e-40
-1.1494955 0.64959139 0.94629151 6.4941776e-40
-1.1462065 0.65454513 0.94776726 4.6574256e-40
-1.3176206 0.29806256 0.86340493 2.3509886e-38
-1.3157737 0.30295813 0.86439383 2.0560371e-38
-1.3053974 0.31296629 0.86862212 1.3837318e-39
-1.3033003 0.31999841 0.86985713 1.8450771e-39
-1.3018391 0.32574046 0.87078154 1.4809721e-39
-1.3000994 0.33111402 0.87177098 1.6646389e-39
-1.2965772 0.33573163 0.87329894 1.7564744e-39
-1.2948407 0.34109396 0.87428635 1.6639242e-39
-1.2919419 0.34594575 0.87562376 2.0305501e-39
-1.2895426 0.35178182 0.87686878 1.4791714e-39
-1.2864594 0.35619032 0.87823415 1.7557611e-39
-1.2853895 0.36137271 0.87898523 2.4933388e-39
-1.2814648 0.366559 0.88069081 1.8472421e-39
-1.280984 0.37251568 0.88130379 1.3884247e-39
-1.2779951 0.37728456 0.88266492 1.2969424e-39
-1.2762603 0.3826474 0.88365191 1.480619e-39
-1.2762601 0.38887376 0.88412464 1.205467e-39
-1.2717668 0.38970929 0.88569015 1.3887695e-39
-1.2701107 0.39495501 0.88664198 1.5720831e-39
-1.2684542 0.40020069 0.88759392 1.2058173e-39
-1.2639812 0.40418476 0.88939148 1.11327e-39
-1.2611349 0.40895647 0.89070529 1.1136245e-39
-1.259405 0.4143132 0.89169014 1.2036719e-39
-1.2576752 0.41966996 0.89267516 9.2888432e-40
-1.2555091 0.42527333 0.89382464 1.0207184e-39
-1.2537776 0.430637 0.8948105 1.2043852e-39
-1.2537342 0.43695867 0.89530492 1.755038e-39
-1.2442988 0.4450936 0.89907658 1.2051111e-39
-1.2425709 0.45045096 0.90006089 1.1125595e-39
-1.2408427 0.45580834 0.9010452 1.1125567e-39
-1.2402632 0.46206489 0.90171391 1.574981e-39
-1.2358373 0.46615705 0.90350401 1.1118378e-39
-1.2341104 0.47151482 0.90448809 1.4781022e-39
-1.2315452 0.47533685 0.90563577 1.2036593e-39
-1.2288935 0.47786951 0.90671432 1.2983969e-39
-1.2268366 0.48264545 0.90776455 9.2780812e-40
-1.1871699 0.55883861 0.92680842 4.6790617e-40
-1.1844592 0.56338781 0.92805982 4.6719011e-40
-1.1798559 0.56847632 0.92998487 6.5193589e-40
-1.1770715 0.5722658 0.93120331 1.8472519e-39
-1.1752536 0.57698578 0.93216926 7.4305673e-40
-1.1735504 0.58229619 0.93314177 7.427008e-40
-1.1718467 0.58760649 0.93411452 1.4784554e-39
-1.1712883 0.59386092 0.93477589 8.3668589e-40
-1.1638966 0.60129452 0.93781114 5.590242e-40
-1.1622795 0.60649419 0.93874645 5.5830393e-40
-1.1598994 0.61013228 0.93981826 6.508639e-40
-1.1554945 0.61408365 0.94159061 6.5049536e-40
-1.1537977 0.61938018 0.9425599 6.5049816e-40
-1.1524069 0.62494051 0.94344693 1.2007937e-39
-1.1507108 0.63024002 0.94441622 5.5830113e-40
-1.1476996 0.63406903 0.94571346 8.366985e-40
-1.1470435 0.64168119 0.94651073 5.5758086e-40
-1.1424198 0.64514846 0.94831955 2.8171424e-40
-1.1394509 0.64887178 0.94959462 9.2673473e-40
-1.1378229 0.65361255 0.95049876 6.4940795e-40
-1.3140056 0.2842207 0.86356235 2.1205373e-38
-1.3122691 0.28958353 0.86455011 1.8624261e-38
-1.3124504 0.2956636 0.86495107 1.346059e-38
-1.3100849 0.30079573 0.86613125 9.0366487e-39
-1.30588 0.30521855 0.86787277 1.7550465e-39
-1.3003504 0.31102002 0.87016159 2.1241821e-39
-1.2986176 0.3163763 0.87114739 1.8479595e-39
-1.2966219 0.32263032 0.87228924 2.4015089e-39
-1.2946351 0.32795757 0.87335783 3.0443461e-39
-1.2919014 0.33208495 0.87458509 1.5724489e-39
-1.2888972 0.33690071 0.87595481 1.2969396e-39
-1.2880751 0.34448418 0.87680531 1.481328e-39
-1.2866889 0.34926742 0.87763184 2.492973e-39
-1.2828398 0.35193118 0.87912065 1.571723e-39
-1.2811886 0.35716593 0.88007015 1.3873331e-39
-1.2783246 0.36432633 0.88157094 1.8511951e-39
-1.2750725 0.36822075 0.8829537 1.2969368e-39
-1.2755604 0.37317216 0.88316655 1.4802434e-39
-1.2734827 0.377253 0.88417095 9.2852138e-40
-1.2706276 0.38206136 0.88549024 1.7546793e-39
-1.2673599 0.38705641 0.88696188 1.0207156e-39
-1.2656313 0.39241359 0.88794637 1.7553982e-39
-1.2639029 0.39777097 0.88893074 1.3869744e-39
-1.2589781 0.40213025 0.89090806 1.1129084e-39
-1.2572503 0.40748757 0.89189219 1.6635585e-39
-1.2555225 0.41284508 0.89287663 1.0207142e-39
-1.2537946 0.41820246 0.89386082 9.2887871e-40
-1.2505168 0.423195 0.89533556 9.2888152e-40
-1.24879 0.42855284 0.89631939 1.1114735e-39
-1.2470633 0.43391073 0.8973034 1.2969438e-39
-1.2426939 0.43746549 0.89903396 1.0199925e-39
-1.2369925 0.44975662 0.90187281 1.2036733e-39
-1.2352699 0.45510823 0.90285492 1.4788197e-39
-1.2321007 0.45957863 0.9042536 1.1121924e-39
-1.2302659 0.46544215 0.90531212 1.2937208e-39
-1.228319 0.47089213 0.90637672 1.5724657e-39
-1.2250053 0.47517985 0.90780991 1.2029461e-39
-1.189925 0.54771125 0.92504269 5.6046053e-40
-1.1767572 0.56476986 0.93073928 8.3523694e-40
-1.1736907 0.56980956 0.93214697 1.4781008e-39
-1.1679177 0.57272792 0.93429828 1.0185674e-39
-1.1662239 0.57801497 0.93526578 7.4198473e-40
-1.1645298 0.58330196 0.93623346 1.2933522e-39
-1.1628361 0.58858919 0.93720108 7.4413152e-40
-1.1611421 0.5938763 0.93816882 4.682649e-40
-1.1582713 0.59832627 0.93946624 1.0182031e-39
-1.1574126 0.6023317 0.94005722 4.6755024e-40
-1.1521311 0.60458052 0.94199342 1.0214555e-39
-1.1489115 0.60816097 0.94334143 4.6683418e-40
-1.1449161 0.61137915 0.94492137 3.7499307e-40
-1.1432346 0.61663806 0.94588268 1.0171255e-39
-1.1425174 0.62276119 0.94658732 5.5866126e-40
-1.1423222 0.62939453 0.94715613 6.5014223e-40
-1.1380572 0.6331616 0.94886768 1.0178331e-39
-1.1357498 0.63895565 0.9500789 8.3272722e-40
-1.135178 0.64527553 0.95074987 8.3273002e-40
-1.1326818 0.65094638 0.9520148 4.6538243e-40
-1.1309924 0.6562379 0.95298117 2.8207297e-40
-1.1293029 0.66152936 0.95394772 1.8879134e-40
-1.3171732 0.27271533 0.8616302 1.9547658e-38
-1.3121902 0.2773279 0.86364585 1.6595246e-38
-1.3104243 0.28257179 0.86463439 1.1709258e-38
-1.3072057 0.28768504 0.8660984 6.6381386e-39
-1.305474 0.29304203 0.86708397 2.4904311e-39
-1.3037424 0.29839909 0.86806947 1.5695678e-39
-1.3013895 0.30518827 0.86937135 1.5742397e-39
-1.2974509 0.30986643 0.87104321 1.6649906e-39
-1.2938592 0.31431702 0.87258166 1.6639186e-39
-1.2922131 0.3195408 0.87352848 2.1230919e-39
-1.2857792 0.32360339 0.87598753 2.0316263e-39
-1.2868774 0.33012724 0.87611574 1.296578e-39
-1.283877 0.33493534 0.87748367 1.5717272e-39
-1.2818854 0.34015366 0.8785457 1.389131e-39
-1.2801613 0.34549472 0.87952733 1.296934e-39
-1.2784361 0.35116774 0.88053477 1.9383475e-39
-1.2767104 0.3565191 0.88151795 1.7553996e-39
-1.2739253 0.36012635 0.88272268 1.3873331e-39
-1.2692943 0.36328158 0.88451028 1.7553982e-39
-1.2686901 0.36915892 0.88515848 1.296578e-39
-1.266965 0.37450647 0.886141 1.2043936e-39
-1.2656349 0.38004479 0.88700616 1.938716e-39
-1.2623627 0.38503358 0.88847876 1.8472365e-39
-1.2606392 0.390385 0.8894611 2.122387e-39
-1.2556891 0.3946771 0.8914417 1.3869744e-39
-1.2525046 0.39931542 0.89285821 1.1129112e-39
-1.2507845 0.40465704 0.89383876 1.8483141e-39
-1.2481302 0.40949643 0.89509332 7.4557206e-40
-1.2473443 0.41534051 0.89579976 1.2051027e-39
-1.2460102 0.4204118 0.8966307 1.668243e-39
-1.2423487 0.42566031 0.89825314 1.1118392e-39
-1.2403698 0.43718717 0.89978963 1.0199981e-39
-1.2347747 0.44275534 0.90208262 1.2958451e-39
-1.232196 0.44774559 0.90332353 1.1114735e-39
-1.2299428 0.45277327 0.9044584 1.4791784e-39
-1.2282245 0.45811573 0.9054383 1.478461e-39
-1.1886822 0.53420156 0.92443246 1.0181947e-39
-1.1853935 0.53915 0.92590755 6.5193309e-40
-1.1836898 0.54446906 0.92688072 6.5229743e-40
-1.1809992 0.54902899 0.92812634 1.2947914e-39
-1.1792985 0.55434203 0.92909813 1.0203527e-39
-1.1751821 0.55835223 0.93077862 1.297678e-39
-1.1719974 0.56277913 0.93217927 6.5193589e-40
-1.1673406 0.56637359 0.93400878 7.4341126e-40
-1.1640621 0.57128841 0.93547773 9.2708645e-40
-1.1609571 0.57723951 0.93696749 6.5157996e-40
-1.1592679 0.58252215 0.93793333 1.2940683e-39
-1.1575791 0.58780479 0.9388988 7.4449166e-40
-1.15589 0.59308749 0.9398644 6.5193589e-40
-1.1492161 0.59547156 0.94227636 6.5157015e-40
-1.1460302 0.59980267 0.94367009 4.671859e-40
-1.1418207 0.60385573 0.94538498 1.01785e-39
-1.138841 0.60794622 0.94669157 9.2564452e-40
-1.1371669 0.61318982 0.94764918 9.2528999e-40
-1.1354926 0.61843354 0.94860703 7.4376719e-40
-1.135113 0.62487072 0.94922256 6.5085409e-40
-1.1323535 0.62994033 0.95052975 1.84581e-39
-1.129606 0.63405585 0.95176065 9.2492145e-40
-1.1296058 0.6407004 0.95226508 8.3272161e-40
-1.1239928 0.64674336 0.95460021 4.6501949e-40
-1.1232203 0.65289176 0.95532519 2.8206737e-40
-1.3062502 0.27158847 0.86519587 1.8809366e-38
-1.3046074 0.27679926 0.86614054 1.4105943e-38
-1.3029646 0.28201011 0.86708528 4.5212573e-39
-1.2965199 0.29731867 0.87040186 1.9408628e-39
-1.2953714 0.30288249 0.87120801 1.4820483e-39
-1.2907968 0.30754834 0.87309146 2.4940394e-39
-1.287552 0.31207284 0.87451959 1.4809693e-39
-1.2846907 0.31693232 0.87584496 1.3884191e-39
-1.2799032 0.32144254 0.87778771 2.0352361e-39
-1.2792143 0.32706144 0.87844455 1.2051083e-39
-1.2784674 0.33280757 0.87913036 1.6639214e-39
-1.2740296 0.33694968 0.8809284 1.4806134e-39
-1.2707785 0.34190449 0.88239133 1.4806134e-39
-1.2708057 0.34801179 0.88284582 1.939079e-39
-1.2703539 0.35391679 0.88344514 1.4806176e-39
-1.2686005 0.35799834 0.88434112 1.47917e-39
-1.2628431 0.35953507 0.88638228 2.5840897e-39
-1.2613982 0.36417094 0.88721734 1.6635641e-39
-1.2613995 0.37032682 0.88768405 1.1125497e-39
-1.2593119 0.37738228 0.88891757 1.2047453e-39
-1.2574748 0.38190797 0.88987529 1.5746195e-39
-1.2546946 0.38596863 0.89111286 1.6624921e-39
-1.2529781 0.39130571 0.89209181 1.6624921e-39
-1.2509533 0.39563814 0.89309752 1.2951473e-39
-1.2406318 0.40417513 0.89719588 8.3668168e-40
-1.2400005 0.41007304 0.89785475 1.1125539e-39
-1.2395253 0.4160642 0.89846826 1.5713699e-39
-1.2379156 0.42195621 0.8994537 1.1121924e-39
-1.2348639 0.42980468 0.90106976 9.3212973e-40
-1.2292819 0.44033334 0.9037348 1.0181961e-39
-1.1859747 0.52647918 0.92475104 8.3524255e-40
-1.181064 0.53078932 0.92671996 1.2944256e-39
-1.1785238 0.53546059 0.92792368 6.5158417e-40
-1.1768297 0.54076105 0.92889237 8.3596282e-40
-1.1751354 0.54606169 0.92986125 6.5265336e-40
-1.1720892 0.55031037 0.93120193 6.5157436e-40
-1.1712304 0.55625635 0.93194044 4.6862223e-40
-1.1659594 0.55960846 0.93395692 5.5974167e-40
-1.1633984 0.56684041 0.93536198 9.2600325e-40
-1.156988 0.56904578 0.93767226 6.5193729e-40
-1.1543536 0.5735262 0.93889296 6.5193729e-40
-1.1526737 0.57879144 0.93985432 7.4341406e-40
-1.1509936 0.58405668 0.94081557 6.5157996e-40
-1.1493136 0.58932203 0.94177693 1.2940697e-39
-1.1460392 0.59421194 0.94324261 7.4377699e-40
-1.1423364 0.59790719 0.94476098 1.0181947e-39
-1.1355397 0.5996294 0.9471637 1.0218198e-39
-1.1329225 0.60465461 0.94842005 1.2937124e-39
-1.1312554 0.60988379 0.94937426 6.5014223e-40
-1.1303781 0.61583549 0.95011938 7.4305392e-40
-1.1299953 0.62226021 0.95073497 8.3345169e-40
-1.1283226 0.62750483 0.9516924 1.3848234e-39
-1.1257614 0.63489461 0.95310938 8.3309015e-40
-1.1249384 0.64155412 0.95389014 7.4088752e-40
-1.1179339 0.64318413 0.95635521 4.6538383e-40
-1.1162637 0.64842945 0.95731181 2.8171284e-40
-1.1145935 0.65367496 0.95826823 2.8135271e-40
-1.3116367 0.25893989 0.86243504 1.8897966e-38
-1.3077632 0.26534322 0.86421597 1.3276546e-38
-1.3037372 0.26989472 0.86590719 1.7536003e-39
-1.3012685 0.27747527 0.86730802 1.1096658e-39
-1.2975855 0.28001571 0.86873204 1.9368986e-39
-1.2998724 0.28638455 0.86845112 2.3074944e-39
-1.2965757 0.29114115 0.86991411 1.9408642e-39
-1.288594 0.29431102 0.87282282 2.1241751e-39
-1.2857367 0.29918346 0.87414789 1.1125511e-39
-1.2840254 0.30449432 0.87512308 1.2054586e-39
-1.280782 0.30944538 0.8765831 1.2051055e-39
-1.279072 0.31475657 0.87755799 1.2047523e-39
-1.2774677 0.31964174 0.87846512 1.2965752e-39
-1.272067 0.32421261 0.88061738 1.2047425e-39
-1.2718842 0.3301802 0.88113153 1.5713713e-39
-1.2718788 0.33543503 0.88153231 1.3862583e-39
-1.2680175 0.33652481 0.88290584 1.2040293e-39
-1.2663066 0.34184277 0.88388133 1.2040293e-39
-1.2634888 0.34665427 0.88518852 1.5713755e-39
-1.2630463 0.35254416 0.88578355 1.1118336e-39
-1.2620207 0.35808674 0.88654727 1.4791686e-39
-1.2549393 0.36147374 0.88917154 1.6632096e-39
-1.2547264 0.3675074 0.88970071 1.2965808e-39
-1.2517614 0.37221673 0.89104939 1.2965738e-39
-1.2499844 0.37826359 0.89210242 1.9419572e-39
-1.2497333 0.38395891 0.89261889 1.8458015e-39
-1.248022 0.38929057 0.89359552 1.0203569e-39
-1.2433777 0.39309698 0.89543706 1.4788155e-39
-1.2416714 0.3984094 0.8964107 1.2965836e-39
-1.2358549 0.40720937 0.89902294 1.2947788e-39
-1.2353277 0.41181752 0.89954907 1.2040293e-39
-1.2308162 0.41508093 0.90130484 1.2984039e-39
-1.2309984 0.42154431 0.90173465 1.5749838e-39
-1.2302414 0.42635706 0.90235317 1.4788197e-39
-1.1904905 0.50418949 0.9215495 1.0199953e-39
-1.1749382 0.52650845 0.92844272 1.6642928e-39
-1.1717504 0.53080142 0.92983413 9.2996892e-40
-1.170784 0.5376671 0.93067843 7.4340705e-40
-1.1669644 0.54131699 0.9322322 7.4413433e-40
-1.165282 0.54658908 0.93319488 8.3561109e-40
-1.1639872 0.55394781 0.9341864 7.4377699e-40
-1.1597137 0.55806488 0.93592751 7.4376999e-40
-1.1550668 0.56175792 0.93776119 1.0185506e-39
-1.1521881 0.56683284 0.93910873 4.6898517e-40
-1.149702 0.57142711 0.9402886 7.4376859e-40
-1.1480263 0.57668799 0.941248 8.3560969e-40
-1.1471529 0.58263093 0.94199121 6.5157716e-40
-1.1439763 0.586613 0.94335532 1.3873471e-39
-1.1387677 0.58982426 0.94534022 8.3560829e-40
-1.1369275 0.59490943 0.9463414 6.5122263e-40
-1.1357069 0.60054743 0.94717741 8.3417476e-40
-1.1268687 0.60977447 0.95083219 8.3380902e-40
-1.125204 0.61500472 0.9517858 6.5122123e-40
-1.123539 0.62023503 0.95273942 4.6683277e-40
-1.1202648 0.62509018 0.95420253 2.8351351e-40
-1.1198745 0.63152796 0.95482165 2.8279464e-40
-1.1182081 0.63676906 0.95577669 2.824289e-40
-1.1099952 0.65150124 0.95964038 2.8135691e-40
-1.3100755 0.25140187 0.86238468 1.9725924e-38
-1.3050579 0.25556079 0.86437756 9.4987297e-39
-1.3032404 0.25850835 0.86520886 1.3459878e-38
-1.3005134 0.26231983 0.86640984 1.3862555e-39
-1.2942109 0.26647207 0.86883187 1.1121882e-39
-1.2943022 0.27241307 0.86925232 1.9394307e-39
-1.2900736 0.27726525 0.8710342 1.9401426e-39
-1.2903199 0.28313261 0.8713972 2.031262e-39
-1.2853073 0.28711364 0.87337512 1.480612e-39
-1.2820458 0.29183266 0.87482363 2.1238234e-39
-1.2776905 0.29634473 0.87662196 1.4806162e-39
-1.2759871 0.30163997 0.87759334 1.4813266e-39
-1.2753859 0.30737743 0.87822992 1.298013e-39
-1.2736808 0.31267947 0.87920237 1.1129042e-39
-1.2719754 0.31798157 0.88017499 1.7557569e-39
-1.2685314 0.32517207 0.88187212 1.754315e-39
-1.2647866 0.3289746 0.88341254 1.6628452e-39
-1.2615268 0.3339102 0.88487691 1.2955088e-39
-1.2598237 0.33921266 0.88584882 1.4791784e-39
-1.2593886 0.3450872 0.88644028 1.295869e-39
-1.2565899 0.34989032 0.88774025 1.112191e-39
-1.2548875 0.35519448 0.88871211 2.0298327e-39
-1.2470361 0.36420628 0.89202082 1.1129126e-39
-1.2453364 0.36950266 0.89299101 1.4784638e-39
-1.2451171 0.37553999 0.89352274 1.2036719e-39
-1.2403737 0.37972781 0.89542621 1.8461631e-39
-1.240147 0.38578403 0.8959617 8.3596982e-40
-1.2384458 0.3910909 0.89693332 1.6624893e-39
-1.2352781 0.39561853 0.89833581 1.2962235e-39
-1.2335796 0.40091559 0.89930582 1.2043866e-39
-1.2324178 0.40599605 0.90007979 1.1103875e-39
-1.2241096 0.42434049 0.90424967 2.3085832e-39
-1.1714367 0.52830458 0.92974943 1.4759344e-39
-1.1698427 0.53348112 0.93067533 1.2937012e-39
-1.1638615 0.5356577 0.93283981 1.0189205e-39
-1.1625507 0.54121691 0.93370008 4.6898377e-40
-1.1593417 0.54529363 0.93508226 1.0199995e-39
-1.1550673 0.54939914 0.93682271 8.3596702e-40
-1.1549135 0.55587155 0.93736553 1.2022314e-39
-1.1532363 0.56113797 0.938326 7.4377279e-40
-1.1443576 0.56876135 0.94187272 8.3632715e-40
-1.1426868 0.57401162 0.94282973 4.693439e-40
-1.1398742 0.57829875 0.94409531 1.1103945e-39
-1.1382053 0.58354104 0.94505113 1.1100414e-39
-1.1351134 0.58708644 0.94635391 9.3033186e-40
-1.131561 0.59003538 0.94776523 6.5121422e-40
-1.1297427 0.59510791 0.94875818 4.682663e-40
-1.1280814 0.60033423 0.94971019 1.2015125e-39
-1.128175 0.60535324 0.95005995 1.1096812e-39
-1.1220332 0.60816485 0.95232648 1.4770036e-39
-1.1223328 0.61499685 0.9527449 1.3848136e-39
-1.1189479 0.61810511 0.95411241 4.6681876e-40
-1.1145549 0.62191296 0.95587003 2.8351351e-40
-1.1132479 0.62745577 0.95672768 6.5084989e-40
-1.1136122 0.63462287 0.95714998 6.5084989e-40
-1.1119498 0.63985991 0.95810336 6.4905903e-40
-1.1102875 0.64509696 0.9590565 4.6430763e-40
-1.1045514 0.6462965 0.96106499 5.5614874e-40
-1.104133 0.65277088 0.96169645 3.7246373e-40
-1.1033185 0.66038895 0.96254694 5.5830674e-40
-1.103421 0.66368419 0.96276283 8.305538e-40
-1.2992913 0.24726242 0.86567521 9.2185442e-39
-1.2950184 0.25176728 0.86744553 4.3365143e-39
-1.2954015 0.25575659 0.86762035 1.4755715e-39
-1.2920029 0.25953427 0.86904317 2.3067657e-39
-1.2866632 0.26374188 0.87114763 2.0327053e-39
-1.2865325 0.26957938 0.87163436 1.3887793e-39
-1.2858047 0.27522418 0.87230611 1.3891338e-39
-1.2841014 0.28052324 0.87327778 1.8483085e-39
-1.2786281 0.28494534 0.87544298 1.7568289e-39
-1.2759602 0.28953892 0.87668365 1.2962207e-39
-1.2727095 0.29446617 0.87814438 1.2040279e-39
-1.2710109 0.29975578 0.87911373 1.6650018e-39
-1.2693124 0.30504543 0.88008296 1.7561128e-39
-1.268574 0.31004861 0.88070977 2.0352361e-39
-1.2688034 0.3132486 0.880876 1.5720817e-39
-1.2664222 0.31744727 0.88199073 1.8476008e-39
-1.2629564 0.32300249 0.88357097 1.203302e-39
-1.2583215 0.32639366 0.88537771 1.2962263e-39
-1.2574875 0.33213171 0.88609207 2.5844428e-39
-1.2548704 0.33727372 0.88735735 1.9383503e-39
-1.2531722 0.3425706 0.88832706 1.2951459e-39
-1.2527403 0.34844956 0.88891792 1.0203499e-39
-1.2510399 0.35375464 0.88988882 1.4795316e-39
-1.2493395 0.35905963 0.89085996 1.8461561e-39
-1.2447882 0.36325595 0.89269996 1.4788071e-39
-1.2431755 0.3684428 0.89363289 1.0199995e-39
-1.241563 0.37362966 0.89456576 1.3873373e-39
-1.2365127 0.37828696 0.89660752 1.3873415e-39
-1.2354769 0.38557544 0.89750689 1.2958676e-39
-1.232532 0.39023373 0.89884508 1.4781022e-39
-1.2308357 0.39553136 0.89981419 1.5706594e-39
-1.2303816 0.40149245 0.90041852 1.3869842e-39
-1.2271005 0.40642527 0.90188986 1.1125567e-39
-1.1730077 0.50531381 0.92747897 1.3866171e-39
-1.1646968 0.52598584 0.93182629 5.590256e-40
-1.1647574 0.53110856 0.93219495 7.4161479e-40
-1.1584269 0.53093207 0.93429774 8.3668308e-40
-1.1567552 0.53618973 0.93525565 6.5301069e-40
-1.1536976 0.54246187 0.93675387 1.0192765e-39
-1.1515355 0.54663193 0.9377932 1.0239638e-39
-1.1491288 0.55079526 0.9389137 1.4773778e-39
-1.1474596 0.55604649 0.93987042 8.3560689e-40
-1.1457902 0.56129771 0.94082713 6.5193589e-40
-1.1424395 0.564192 0.94216692 1.0192737e-39
-1.1343322 0.57331669 0.94556969 1.2025971e-39
-1.1326705 0.57854503 0.94652206 7.4377559e-40
-1.1315475 0.58247924 0.94719619 1.0185548e-39
-1.1297703 0.58643734 0.94809061 8.3885089e-40
-1.1251148 0.58807653 0.9497714 5.5973886e-40
-1.1242023 0.59608746 0.95068455 7.4269239e-40
-1.1214174 0.60029876 0.95193511 6.5121983e-40
-1.1190248 0.60429674 0.95303839 1.020738e-39
-1.1171166 0.60944241 0.95406693 1.0207352e-39
-1.1136345 0.61315286 0.95551264 1.0171227e-39
-1.1095728 0.61755425 0.95720446 6.5159678e-40
-1.1089377 0.62340862 0.95786113 4.6647264e-40
-1.1072861 0.62862605 0.95880938 5.5830113e-40
-1.1053946 0.63362724 0.95982134 7.4053299e-40
-1.1037416 0.63884217 0.96076977 4.6538663e-40
-1.0997444 0.64231896 0.96236986 7.4052738e-40
-1.0981838 0.6474368 0.96328008 5.5613472e-40
-1.0986136 0.65369618 0.9636116 3.721106e-40
-1.0961806 0.65771937 0.96473032 8.323853e-40
-1.292529 0.24441922 0.86771983 3.503504e-39
-1.2959181 0.24982092 0.866997 3.5067186e-39
-1.2877643 0.25209844 0.86989546 1.8490301e-39
-1.2835479 0.25669181 0.87165368 2.3071328e-39
-1.2823333 0.26115173 0.8723982 2.5866078e-39
-1.2794037 0.26513299 0.87367976 1.3891324e-39
-1.2764083 0.26994318 0.87504631 1.389131e-39
-1.2767739 0.27780762 0.875521 1.4813294e-39
-1.2759612 0.28261563 0.87615776 2.127782e-39
-1.2723151 0.28525987 0.87757725 1.3880422e-39
-1.2673968 0.29129714 0.87967962 1.3009066e-39
-1.2654519 0.2965253 0.8807267 2.0355976e-39
-1.2648757 0.3001391 0.8811937 1.2043852e-39
-1.2635015 0.30441129 0.88197726 1.2965836e-39
-1.2607071 0.30924144 0.88327801 1.938709e-39
-1.259016 0.31451651 0.88424385 1.6639158e-39
-1.2581882 0.32001886 0.88493836 1.3913058e-39
-1.2576144 0.32682154 0.88564658 1.2940641e-39
-1.2544458 0.33132139 0.88704741 1.294776e-39
-1.2468961 0.34002942 0.89023209 1.5713741e-39
-1.245205 0.34531194 0.89119834 1.8468777e-39
-1.2447789 0.35118628 0.89178687 1.4798889e-39
-1.2430855 0.3564769 0.8927545 1.1118364e-39
-1.2410454 0.36139819 0.89381015 1.9433978e-39
-1.2383407 0.3668026 0.8951245 1.6632039e-39
-1.2355726 0.37156054 0.89641094 1.2043894e-39
-1.2311598 0.37772956 0.89835447 1.0199925e-39
-1.2277756 0.38831568 0.90028936 1.4784596e-39
-1.1706723 0.49849901 0.92774224 1.5702951e-39
-1.1652101 0.50391227 0.92997903 1.3909429e-39
-1.15948 0.52524918 0.93351424 9.2672912e-40
-1.1521944 0.5337103 0.93659204 1.1118224e-39
-1.1506172 0.53885627 0.93750989 7.4483778e-40
-1.1472558 0.54345405 0.93898255 6.5229463e-40
-1.1439673 0.54831398 0.94045067 1.2940641e-39
-1.1415129 0.55291253 0.94162041 8.3524955e-40
-1.1398506 0.5581497 0.94257361 6.5159117e-40
-1.1374037 0.56273335 0.94373947 6.5193589e-40
-1.1345943 0.56701094 0.94500327 6.5157996e-40
-1.1296624 0.56979328 0.94686306 1.2025873e-39
-1.1291081 0.57354021 0.94733292 1.479554e-39
-1.1275134 0.57773256 0.94818419 5.5974447e-40
-1.1220499 0.58066177 0.95023292 7.4413152e-40
-1.1204001 0.58587056 0.9511798 4.6754884e-40
-1.1187503 0.59107941 0.95212674 6.508597e-40
-1.1171004 0.59628856 0.95307374 6.5049816e-40
-1.1146935 0.60080302 0.95422101 6.5049956e-40
-1.1123742 0.60455716 0.95528132 6.5049816e-40
-1.1089334 0.61092192 0.95691472 1.0171213e-39
-1.1065356 0.61542261 0.95805788 8.3273282e-40
-1.1032542 0.62024391 0.95952076 1.0164066e-39
-1.1023507 0.62616652 0.96027231 4.6575237e-40
-1.1004159 0.62999153 0.9612096 8.3236428e-40
-1.0997349 0.63332325 0.96169013 1.0178556e-39
-1.0985165 0.63783586 0.96243989 4.6539084e-40
-1.0978075 0.64547622 0.96325707 1.1086135e-39
-1.0921233 0.64675415 0.96525413 5.5649065e-40
-1.2905958 0.2400212 0.86803216 1.6603229e-39
-1.2860744 0.24670154 0.87005061 1.3880464e-39
-1.2828429 0.25132596 0.87148201 1.9397838e-39
-1.2769678 0.25300103 0.87357301 2.678802e-39
-1.2766819 0.25878349 0.87410754 3.5046012e-39
-1.2727188 0.26269478 0.87572926 1.6642801e-39
-1.2710348 0.26795074 0.8766911 1.9397866e-39
-1.2717655 0.27408496 0.87691277 1.6639214e-39
-1.2672174 0.27850676 0.87876862 2.1227388e-39
-1.2655317 0.28376949 0.87973166 1.2965794e-39
-1.263238 0.2876195 0.88079059 1.2947774e-39
-1.2638113 0.29360941 0.88105369 1.1118182e-39
-1.2565297 0.30170843 0.88410264 1.755038e-39
-1.2546464 0.30689296 0.8851257 1.8472337e-39
-1.2518779 0.31170034 0.8864162 1.4802504e-39
-1.2525585 0.31796244 0.88666403 1.2962137e-39
-1.2493005 0.32286626 0.8881253 1.5702937e-39
-1.2487079 0.3286179 0.88876015 1.5706496e-39
-1.2470205 0.33389568 0.88972491 1.9394321e-39
-1.2404319 0.33740863 0.89219397 1.2033146e-39
-1.2404422 0.3434599 0.89265001 1.112191e-39
-1.2400208 0.34933165 0.89323652 1.4784582e-39
-1.237275 0.35411441 0.89451748 8.3560829e-40
-1.2343277 0.35878479 0.89585721 1.3880562e-39
-1.2315526 0.36043394 0.89691007 1.7539604e-39
-1.2315345 0.36552987 0.89730293 1.1129098e-39
-1.1633292 0.50276423 0.93052059 8.3272021e-40
-1.1532969 0.52206248 0.93533921 8.3632575e-40
-1.1508354 0.52669066 0.93651336 8.3668448e-40
-1.1467323 0.53064466 0.9381851 1.2069202e-39
-1.1450949 0.53616053 0.93915123 8.3631734e-40
-1.1426272 0.54140764 0.94037443 1.2022286e-39
-1.1368717 0.54428327 0.94251662 1.2937096e-39
-1.135588 0.54979849 0.94336444 1.2015153e-39
-1.1333854 0.55628532 0.94459319 7.4413292e-40
-1.1305791 0.56055743 0.9458555 8.3632435e-40
-1.1293243 0.56610304 0.94669604 1.0178443e-39
-1.1235286 0.56928718 0.94887501 7.4268678e-40
-1.1215107 0.57443172 0.9499402 7.4305813e-40
-1.1182256 0.57925653 0.95140451 5.590256e-40
-1.1145476 0.58266377 0.95289266 6.5014784e-40
-1.1129045 0.5878585 0.95383632 1.2929949e-39
-1.1125286 0.59420264 0.95444357 7.4304832e-40
-1.110883 0.59940791 0.95538884 1.1096756e-39
-1.1075974 0.60422873 0.95685303 8.3345309e-40
-1.1043957 0.60771692 0.95818818 8.3452648e-40
-1.1028465 0.61281824 0.95909327 9.2491724e-40
-1.097653 0.61889434 0.9612906 8.3237409e-40
-1.097252 0.62529427 0.96191049 4.6503351e-40
-1.0956088 0.63050056 0.96285498 4.6574957e-40
-1.0939652 0.63570678 0.96379977 4.6574817e-40
-1.092322 0.64091337 0.96474421 7.3981272e-40
-1.0897456 0.64646339 0.96602684 3.7247074e-40
-1.0868338 0.65054172 0.96730977 4.6429923e-40
-1.2887272 0.23264112 0.86809653 1.1085714e-39
-1.2847471 0.23720238 0.86977327 2.3078349e-39
-1.279932 0.24159718 0.87171638 2.6759027e-39
-1.2771301 0.2464893 0.87302434 1.941223e-39
-1.274086 0.25085527 0.87437332 1.6650004e-39
-1.2724926 0.25598866 0.8752957 2.1241695e-39
-1.2675822 0.26080716 0.87730306 1.3898485e-39
-1.2672086 0.26652104 0.87786156 2.0305473e-39
-1.2637684 0.2711322 0.87936169 1.8465162e-39
-1.26394 0.27749497 0.87978733 2.7695571e-39
-1.2594157 0.28171965 0.88162041 2.3103796e-39
-1.2571709 0.28650132 0.88273382 1.2951445e-39
-1.2582787 0.29154459 0.8827464 1.7532388e-39
-1.2575799 0.29601017 0.8833189 1.6628438e-39
-1.2503767 0.29834542 0.88590407 1.8511979e-39
-1.250101 0.30327567 0.88637054 1.2958592e-39
-1.2463259 0.30955651 0.88810933 1.3877059e-39
-1.2446491 0.31480229 0.88906807 1.2040335e-39
-1.2426553 0.31912896 0.89006305 1.943039e-39
-1.2413758 0.32373372 0.89084023 1.0210771e-39
-1.2407922 0.32947075 0.89147091 1.7539675e-39
-1.2411251 0.3345291 0.89174348 1.7536017e-39
-1.2350411 0.34015366 0.89420438 1.5746209e-39
-1.2331495 0.34454963 0.89517039 1.385908e-39
-1.2336856 0.34938934 0.89535862 1.2947802e-39
-1.2316034 0.35340941 0.89635974 2.0301956e-39
-1.2183815 0.37840647 0.9026773 1.4788169e-39
-1.2167013 0.38367993 0.9036392 1.6628494e-39
-1.1756636 0.46401408 0.92345566 1.111119e-39
-1.1725365 0.46900141 0.92487973 1.0196408e-39
-1.1708696 0.47425058 0.92583531 9.2780532e-40
-1.1653124 0.49127984 0.92898583 1.20223e-39
-1.1601949 0.49484822 0.93096727 1.2947886e-39
-1.1585337 0.50008589 0.93192029 8.3632855e-40
-1.1523087 0.50334895 0.93424886 1.4780952e-39
-1.1452897 0.52396083 0.93815988 9.2852138e-40
-1.1436343 0.5291881 0.93911004 9.2744518e-40
-1.139183 0.53312445 0.94089693 7.4521473e-40
-1.135488 0.53650498 0.94238865 1.2018643e-39
-1.1321034 0.54381716 0.94407511 1.2930005e-39
-1.1304524 0.5490371 0.94502336 7.4341546e-40
-1.1288013 0.55425674 0.94597155 6.5121703e-40
-1.1271504 0.55947667 0.94691956 7.4377279e-40
-1.1242113 0.56360406 0.94821543 1.2018783e-39
-1.120923 0.56842923 0.94968104 8.3524955e-40
-1.1182475 0.57307512 0.95092785 1.1100302e-39
-1.1111051 0.57495904 0.95345849 8.3453349e-40
-1.1083339 0.57914543 0.95470262 6.5050657e-40
-1.1066974 0.58432269 0.9556427 1.1089652e-39
-1.1063199 0.59064609 0.95624906 9.2565573e-40
-1.1058072 0.59685826 0.95689201 1.2929893e-39
-1.1008631 0.60186625 0.95892489 8.3525096e-40
-1.1003451 0.60809845 0.95957118 1.1089638e-39
-1.0982348 0.61356872 0.96069187 9.2527878e-40
-1.0938286 0.61749697 0.96246302 8.3237269e-40
-1.0921894 0.62269402 0.96340537 5.5830253e-40
-1.0905502 0.62789094 0.9643479 5.568662e-40
-1.0889112 0.63308811 0.96529031 5.5793819e-40
-1.087272 0.63828546 0.96623278 1.8880115e-40
-1.2815899 0.22439915 0.86985654 1.3840751e-39
-1.2799079 0.22965616 0.8708179 1.8479497e-39
-1.2772717 0.23460965 0.8720752 2.400755e-39
-1.2740287 0.2394937 0.87352997 2.3989655e-39
-1.2719805 0.24462567 0.87460428 2.3071314e-39
-1.2703017 0.24987519 0.87556398 1.3894925e-39
-1.2699358 0.25557461 0.87611902 1.3894897e-39
-1.2619877 0.25875768 0.87901741 1.2969382e-39
-1.2593766 0.2636613 0.88026249 1.9397866e-39
-1.2584126 0.26914653 0.88100129 1.7546765e-39
-1.2567387 0.27438313 0.88195831 1.2058089e-39
-1.2550646 0.27961969 0.88291538 1.8461631e-39
-1.2503285 0.28544125 0.88494051 1.8479483e-39
-1.249899 0.29094592 0.88550198 1.2951333e-39
-1.2434294 0.29532349 0.88799703 1.6664536e-39
-1.2449213 0.30128461 0.88795078 1.4795358e-39
-1.243247 0.30653438 0.88890898 1.38698e-39
-1.2424809 0.31217062 0.88959301 1.2036719e-39
-1.2398982 0.31703401 0.89082557 1.0192821e-39
-1.2351524 0.32125515 0.8927325 1.3862653e-39
-1.2358636 0.32756183 0.89297348 1.7546877e-39
-1.2352805 0.33330819 0.89360458 1.2040307e-39
-1.2358205 0.33834681 0.89380652 1.2025873e-39
-1.2123141 0.37901434 0.90475154 1.203302e-39
-1.1749864 0.45685124 0.92313832 1.4824252e-39
-1.1588457 0.48800966 0.9308992 1.0181933e-39
-1.137861 0.52627981 0.94081903 8.3489503e-40
-1.1326778 0.52603471 0.94253314 1.202223e-39
-1.1340396 0.53235495 0.94255775 9.2744518e-40
-1.1295801 0.53623724 0.94434309 7.4304552e-40
-1.1277845 0.54130387 0.94532806 1.8486952e-39
-1.1253253 0.5465703 0.94654989 6.5157856e-40
-1.122919 0.55114686 0.94770169 1.2937068e-39
-1.1212748 0.55635273 0.94864649 8.3524675e-40
-1.1196307 0.56155878 0.9495914 6.5157856e-40
-1.1163369 0.56637919 0.95105827 9.2529279e-40
-1.1139455 0.57093334 0.95220339 6.508639e-40
-1.1003572 0.58235192 0.95761245 8.3561109e-40
-1.0999811 0.58865941 0.95821708 6.5013943e-40
-1.0995994 0.59498721 0.95882511 1.3848262e-39
-1.0943381 0.59793741 0.96080762 7.4341126e-40
-1.0927095 0.60310674 0.96174449 1.2940697e-39
-1.0934373 0.6105153 0.96206373 4.6682577e-40
-1.0849006 0.62470722 0.9659946 4.661069e-40
-1.0832675 0.62989199 0.96693426 7.4124765e-40
-1.0827365 0.63617796 0.96758896 3.73191e-40
-1.076108 0.64750522 0.97066456 4.6465516e-40
-1.2759659 0.22242691 0.87158674 1.6635515e-39
-1.2733415 0.22737898 0.87284011 1.939781e-39
-1.2703433 0.23220159 0.87420833 1.8483015e-39
-1.269165 0.23749259 0.87500381 2.9546588e-39
-1.2638816 0.24178651 0.87709594 1.4809693e-39
-1.2622132 0.24701022 0.87805027 1.2047467e-39
-1.2620876 0.25276744 0.87852925 1.3880548e-39
-1.2540227 0.26169249 0.88190269 1.9390734e-39
-1.2536609 0.26739195 0.88245642 1.7539604e-39
-1.2519915 0.27262411 0.88341159 1.296578e-39
-1.2481769 0.27878612 0.88515455 1.204388e-39
-1.2465086 0.28401843 0.88610935 1.5710195e-39
-1.24484 0.28925076 0.8870644 1.3869842e-39
-1.2446165 0.29472831 0.887555 1.6614033e-39
-1.2379271 0.3044889 0.89053208 1.7539604e-39
-1.2362574 0.3097297 0.89148802 1.2036761e-39
-1.2345876 0.31497064 0.89244413 1.1118392e-39
-1.2208816 0.34109917 0.89900917 1.5710083e-39
-1.2192137 0.34634054 0.89996469 9.2887451e-40
-1.2175459 0.35158199 0.90092015 1.3862625e-39
-1.2142709 0.35644424 0.90238398 1.3862639e-39
-1.214046 0.36241195 0.90291214 1.1118364e-39
-1.2123762 0.3676638 0.90386909 1.1111148e-39
-1.2107067 0.37291577 0.90482587 9.2780952e-40
-1.194316 0.39960647 0.9123311 1.0199953e-39
-1.1926532 0.40484354 0.91328454 1.2040279e-39
-1.1912073 0.41020134 0.91417456 1.4784526e-39
-1.1511621 0.48979267 0.93360293 1.2072789e-39
-1.1465801 0.49124724 0.93524504 5.5757806e-40
-1.1297832 0.52411163 0.94335473 8.3489503e-40
-1.1289054 0.52992219 0.94408929 1.0199967e-39
-1.1272622 0.53512853 0.94503373 1.1100372e-39
-1.124308 0.54002953 0.94639337 7.4233226e-40
-1.1182984 0.54254395 0.94859302 6.508583e-40
-1.1179388 0.5487982 0.94918811 1.5695748e-39
-1.1166961 0.55432492 0.95002317 6.5121703e-40
-1.1137832 0.55844074 0.95130926 5.59027e-40
-1.1096126 0.56085092 0.95288634 9.3033606e-40
-1.1073686 0.56497037 0.95394921 7.4305392e-40
-1.105617 0.57002759 0.95491862 6.5121422e-40
-1.1028485 0.57420689 0.95616132 7.4304412e-40
-1.1012183 0.57773465 0.95697409 8.3488241e-40
-1.0981398 0.58326805 0.95842326 5.5937452e-40
-1.093787 0.5857746 0.96006858 1.1093183e-39
-1.0925726 0.5906201 0.96084237 7.4340985e-40
-1.0894071 0.59394711 0.96215302 1.0225275e-39
-1.0885797 0.59919482 0.96282816 6.5049956e-40
-1.0876691 0.6050458 0.96357661 5.59027e-40
-1.0860432 0.61021686 0.96451271 5.5830533e-40
-1.0840176 0.61723548 0.96572256 5.5831094e-40
-1.0772215 0.62402797 0.96851003 6.4869609e-40
-1.0755863 0.62736911 0.96931022 4.6609569e-40
-1.0757862 0.63334799 0.96969736 4.6538243e-40
-1.0713887 0.63701773 0.97144586 5.5721793e-40
-1.0704569 0.64290428 0.97220433 1.8951721e-40
-1.0688323 0.64807606 0.97314 4.6429923e-40
-1.0610141 0.66060734 0.97670478 3.7210079e-40
-1.2696314 0.2202453 0.87353867 1.8504651e-39
-1.2666349 0.22506604 0.87490618 1.8479511e-39
-1.2640315 0.22999428 0.87615061 1.7553954e-39
-1.2608203 0.23471168 0.87758225 2.2160078e-39
-1.2585145 0.23985916 0.87874365 1.8475896e-39
-1.2568511 0.24507381 0.87969577 1.9394293e-39
-1.2567221 0.25081894 0.88017493 1.2043866e-39
-1.2541336 0.25572184 0.88141233 1.389138e-39
-1.2459309 0.26604253 0.88493782 1.6632025e-39
-1.245182 0.27159721 0.88560981 1.2965794e-39
-1.2410257 0.2760956 0.88734066 1.6632025e-39
-1.2393668 0.28130841 0.88829088 1.8458001e-39
-1.237708 0.28652129 0.88924128 1.38698e-39
-1.2360491 0.29173419 0.8901915 1.5702937e-39
-1.2380742 0.29845554 0.89002472 1.3880632e-39
-1.2357256 0.30328923 0.89117682 1.1103875e-39
-1.2229137 0.32388994 0.8970235 1.4788155e-39
-1.2227169 0.32978579 0.89753681 1.6635571e-39
-1.2210526 0.33502281 0.89849079 1.2040279e-39
-1.2183815 0.34012136 0.89977062 1.2029405e-39
-1.2168092 0.34525922 0.90068638 1.4795245e-39
-1.2152367 0.35039699 0.90160203 1.2940655e-39
-1.208989 0.35430941 0.90398759 7.4376578e-40
-1.207327 0.35954228 0.90494025 8.3632295e-40
-1.2056646 0.36477518 0.90589327 1.0207156e-39
-1.2045772 0.37030834 0.90667683 7.4377139e-40
-1.2029146 0.37554622 0.90763015 9.2744518e-40
-1.1996293 0.38040271 0.90909708 8.3668729e-40
-1.1970285 0.38871357 0.91059744 8.3632015e-40
-1.1269583 0.5218966 0.94413096 1.2976766e-39
-1.1094465 0.54663336 0.95186245 7.4269099e-40
-1.108475 0.55361217 0.95271701 8.3561249e-40
-1.1051593 0.55572432 0.95398581 4.6682577e-40
-1.1044052 0.56019431 0.95457721 1.114363e-39
-1.1010462 0.56303847 0.95591599 1.1093197e-39
-1.0980505 0.56919295 0.95738465 7.4305392e-40
-1.0951747 0.57322842 0.9586522 4.671873e-40
-1.0930507 0.57711518 0.95965731 8.3813763e-40
-1.0911778 0.58218199 0.96066815 7.470196e-40
-1.0874879 0.58584112 0.96217924 5.5901719e-40
-1.0858694 0.5909903 0.9631111 6.5085129e-40
-1.0825822 0.59574604 0.964571 2.8315197e-40
-1.0809646 0.60089552 0.96550262 3.742672e-40
-1.0793471 0.60604542 0.96643436 6.5014083e-40
-1.0777292 0.61119527 0.96736604 3.7463014e-40
-1.076627 0.61685669 0.96816427 5.5722213e-40
-1.0706435 0.61828834 0.97027314 8.3236989e-40
-1.0695291 0.62161309 0.97089803 7.4414554e-40
-1.0705873 0.62829375 0.97105157 9.2492705e-40
-1.0663412 0.63210392 0.97276008 5.568606e-40
-1.0635331 0.63602138 0.97399622 9.7684516e-41
-1.0625995 0.64188409 0.97475332 7.4088752e-40
-1.0609843 0.64703524 0.97568429 2.8063104e-40
-1.0603037 0.65317255 0.97637784 1.8879414e-40
-1.2586712 0.22809459 0.87779826 1.2050985e-39
-1.2560865 0.23300719 0.87903512 2.3996844e-39
-1.2545906 0.23759605 0.87988353 2.3103768e-39
-1.2519531 0.24476986 0.88130969 1.6635585e-39
-1.2502942 0.24998283 0.88226008 1.2051041e-39
-1.2487333 0.25567344 0.88321394 1.2962123e-39
-1.2469766 0.26040912 0.88416058 1.3877003e-39
-1.2429345 0.26525292 0.88587952 1.3884037e-39
-1.2389612 0.26928401 0.88751376 1.1121882e-39
-1.2198743 0.31685922 0.89750564 1.112191e-39
-1.2182171 0.32208189 0.8984561 1.5706566e-39
-1.2165599 0.32730466 0.89940655 1.2058257e-39
-1.2149028 0.33252761 0.90035707 1.2043866e-39
-1.2104999 0.33688942 0.90215987 2.4926059e-39
-1.2099711 0.34259459 0.9027698 1.2036621e-39
-1.208315 0.34781799 0.9037199 9.2744518e-40
-1.2034371 0.35204732 0.9056716 6.5120722e-40
-1.2017816 0.35727099 0.90662146 8.3596141e-40
-1.1979644 0.36985841 0.90885311 2.0323606e-39
-1.1839823 0.39326477 0.91530395 1.6621306e-39
-1.1151637 0.53310841 0.94892466 8.3525096e-40
-1.1127921 0.53768253 0.95006472 7.4305813e-40
-1.1111623 0.54286337 0.95100278 7.4485319e-40
-1.1058635 0.54595876 0.95300907 7.42698e-40
-1.1029675 0.54936707 0.95423579 7.4197072e-40
-1.1010684 0.55191714 0.95506424 4.7115017e-40
-1.0992771 0.55578935 0.955957 4.6646704e-40
-1.0950085 0.55970496 0.95768112 1.2926334e-39
-1.0933908 0.56485444 0.95861286 1.0174828e-39
-1.091773 0.57000399 0.95954442 6.5157296e-40
-1.0901556 0.57515383 0.96047616 4.6717609e-40
-1.0878272 0.57964802 0.96159559 4.6825789e-40
-1.0814897 0.58147907 0.963853 8.3344188e-40
-1.0820664 0.58960783 0.96427739 5.579452e-40
-1.077111 0.59279191 0.9661755 2.8315337e-40
-1.0754988 0.59793025 0.96710461 7.4125746e-40
-1.0733802 0.60423994 0.96829182 4.6646704e-40
-1.0717691 0.60937876 0.96922052 5.5757946e-40
-1.0711102 0.61545175 0.96990168 1.0163954e-39
-1.0635445 0.61641788 0.97250402 1.1078666e-39
-1.063612 0.62303233 0.97298372 1.107861e-39
-1.0600636 0.6276896 0.97452343 8.3489222e-40
-1.0561603 0.63774705 0.97659177 4.6538103e-40
-1.0554873 0.64386022 0.97728086 2.813499e-40
-1.0545461 0.64971858 0.9780401 1.895116e-40
-1.2685046 0.20793995 0.87298107 1.9361713e-39
-1.2652847 0.21271393 0.87441981 2.0319683e-39
-1.2626975 0.21765968 0.87566006 1.9401398e-39
-1.2587845 0.22218189 0.87731141 1.7561142e-39
-1.2564656 0.22733872 0.87847811 1.2954864e-39
-1.251003 0.2311973 0.880597 1.8461547e-39
-1.2460115 0.23432185 0.88250268 2.2181826e-39
-1.2542033 0.24026643 0.8802157 1.846505e-39
-1.2442424 0.24203987 0.88367999 1.8461547e-39
-1.243909 0.24768378 0.88422 1.3876989e-39
-1.2437738 0.25341627 0.88470024 1.478454e-39
-1.2421197 0.25862437 0.88564867 1.7546821e-39
-1.2275585 0.28271371 0.89234483 1.2029489e-39
-1.2265095 0.28815725 0.89310867 1.0199981e-39
-1.2248594 0.29336104 0.89405543 1.9379944e-39
-1.221058 0.29943714 0.89578742 1.2040321e-39
-1.2194091 0.3046411 0.8967337 1.2043838e-39
-1.2199122 0.3107782 0.89703137 1.3869758e-39
-1.2128937 0.31405574 0.89962643 1.5713628e-39
-1.2112453 0.31926003 0.90057242 1.4777449e-39
-1.2095973 0.32446444 0.9015184 1.0196408e-39
-1.2088059 0.33006778 0.90220839 1.3862667e-39
-1.208427 0.33587363 0.90277565 1.5702979e-39
-1.203881 0.34010696 0.90461671 1.203309e-39
-1.2034957 0.34593019 0.90518761 1.5702937e-39
-1.1961439 0.35648346 0.90844625 1.2033146e-39
-1.1680664 0.41625857 0.92236978 1.6624921e-39
-1.1381718 0.46939322 0.93639654 1.0189023e-39
-1.1125777 0.51972866 0.94877332 6.5157996e-40
-1.1109523 0.5249002 0.94970924 1.0182031e-39
-1.1070875 0.52985263 0.95137715 6.5121563e-40
-1.105467 0.53501213 0.9523105 6.508597e-40
-1.1038465 0.54017168 0.95324391 7.4377139e-40
-1.0982643 0.54359978 0.95537007 8.3308455e-40
-1.0955478 0.54762125 0.9565835 9.2634797e-40
-1.0937753 0.55293715 0.95757961 7.4054e-40
-1.0884446 0.55589914 0.95958632 8.3272862e-40
-1.0868348 0.56102878 0.96051383 7.4161339e-40
-1.0846347 0.56562513 0.96159816 9.2636338e-40
-1.083027 0.57075107 0.96252471 5.5866407e-40
-1.0814196 0.57587725 0.96345115 4.6646704e-40
-1.0787203 0.58115458 0.96475428 1.8987594e-40
-1.0762519 0.58522445 0.96588838 9.2492285e-40
-1.0703628 0.59001434 0.96822041 6.5230303e-40
-1.0676782 0.59431869 0.96944457 9.2419978e-40
-1.0672837 0.60061026 0.97005403 7.4125045e-40
-1.065681 0.60573298 0.97097886 2.813513e-40
-1.0640782 0.6108557 0.9719035 9.2348792e-40
-1.0614647 0.61626846 0.97318798 5.5614453e-40
-1.0598603 0.62139636 0.97411364 7.3980852e-40
-1.0583737 0.62679571 0.97502047 6.4616955e-40
-1.0541854 0.6260621 0.97636467 1.1089638e-39
-1.05235 0.63636935 0.97776091 5.5613612e-40
-1.0507441 0.64150161 0.97868735 2.813471e-40
-1.0486374 0.64778215 0.97986823 5.5612912e-40
-1.0488929 0.65491879 0.98032469 4.6285869e-40
-1.0437262 0.65764529 0.98225868 3.7139734e-40
-1.0422602 0.66372913 0.98321062 5.5432985e-40
-1.2659985 0.20691688 0.87374121 1.8479329e-39
-1.2598801 0.20964465 0.87599343 3.4123986e-39
-1.2632635 0.21466476 0.8752436 2.123445e-39
-1.2556212 0.21909243 0.87813419 1.8472323e-39
-1.248893 0.22345845 0.88071477 1.8494043e-39
-1.2518494 0.22814049 0.88008201 1.6621165e-39
-1.2502894 0.23324603 0.88099104 1.8450757e-39
-1.2465063 0.23761438 0.88258731 1.7543108e-39
-1.2229617 0.27422333 0.89323682 2.3082258e-39
-1.2232935 0.28022301 0.89358145 2.3082286e-39
-1.2242132 0.28391707 0.89355439 1.2940669e-39
-1.2221615 0.2880055 0.89455062 1.0199967e-39
-1.2205135 0.29321009 0.89549655 1.7536045e-39
-1.2172436 0.29803544 0.89695597 1.2040293e-39
-1.2155964 0.30324051 0.89790177 1.2965836e-39
-1.2139494 0.30844569 0.89884752 1.755401e-39
-1.2061498 0.31728834 0.90212601 1.569572e-39
-1.2045054 0.32248533 0.90307027 1.5688587e-39
-1.2041342 0.32827196 0.90363359 1.4780994e-39
-1.2023486 0.3330861 0.90459597 1.8490498e-39
-1.2000499 0.33870569 0.90579093 1.111112e-39
-1.198402 0.34391674 0.90673745 1.7536031e-39
-1.1891471 0.35992697 0.91104656 1.7543136e-39
-1.1872123 0.36456549 0.91204536 1.8461589e-39
-1.1065093 0.51814204 0.95068133 1.0182087e-39
-1.1036249 0.52227437 0.95195913 1.2937138e-39
-1.1012857 0.52682614 0.95308667 5.5974307e-40
-1.099672 0.53197199 0.95401669 6.508583e-40
-1.0980583 0.53711778 0.95494688 6.5156875e-40
-1.0957549 0.54212892 0.95609725 1.2965878e-39
-1.0921696 0.54617727 0.95760304 7.4305112e-40
-1.0886751 0.54997075 0.95905924 8.3236989e-40
-1.0846405 0.55452096 0.96075332 5.5793819e-40
-1.0824456 0.55912691 0.96183652 6.4977649e-40
-1.0808393 0.56425381 0.96276283 6.497807e-40
-1.0792333 0.569381 0.96368891 7.4268959e-40
-1.0759034 0.57453269 0.96519297 7.4268819e-40
-1.0726159 0.57925415 0.96665043 8.3309296e-40
-1.0695767 0.58386195 0.96801615 1.200065e-39
-1.0669394 0.58779097 0.96919614 8.3092375e-40
-1.0608943 0.59005278 0.9713884 9.2384945e-40
-1.0616112 0.59739834 0.97170645 6.4905763e-40
-1.0600151 0.60250741 0.97262788 5.5614733e-40
-1.059092 0.60829312 0.97337562 5.5650607e-40
-1.0508043 0.61776757 0.97686535 6.4653389e-40
-1.0511392 0.62465793 0.9772765 8.3056361e-40
-1.0507392 0.63084573 0.97787988 1.0149493e-39
-1.0445929 0.63330686 0.98012131 3.7281826e-40
-1.0429788 0.6375708 0.98098457 2.8206597e-40
-1.0424691 0.64384121 0.98163098 6.4761149e-40
-1.0408729 0.64895648 0.98255289 3.710274e-40
-1.0384907 0.6546858 0.98378408 4.628643e-40
-1.0368932 0.65980917 0.98470706 5.5505012e-40
-1.2584224 0.2082343 0.87637359 2.3989585e-39
-1.252987 0.21233067 0.87850142 1.5713657e-39
-1.2502809 0.21721445 0.87977684 1.8468721e-39
-1.2486315 0.22241448 0.88072294 1.7543178e-39
-1.2440501 0.2268142 0.88258839 2.2142141e-39
-1.2443554 0.2312039 0.88281971 1.9383503e-39
-1.2414794 0.23503681 0.88407195 2.1220269e-39
-1.2277422 0.25826049 0.89042705 2.0316446e-39
-1.2262906 0.26270026 0.89124924 1.570651e-39
-1.2246482 0.26788771 0.89219207 1.3884163e-39
-1.2241414 0.27220389 0.89268929 1.2022258e-39
-1.223322 0.27756709 0.89337033 1.8461449e-39
-1.2163607 0.27995643 0.89587867 1.662132e-39
-1.216017 0.28566188 0.89642662 1.294427e-39
-1.214376 0.29085258 0.89736927 1.4784568e-39
-1.2098176 0.29512373 0.89921725 1.7536087e-39
-1.2094656 0.30085495 0.89977002 1.7543192e-39
-1.2092781 0.30667749 0.90027475 1.0203569e-39
-1.2072015 0.3116886 0.90134931 1.3873359e-39
-1.2006795 0.32108739 0.90424293 1.5695748e-39
-1.199037 0.32628557 0.90518665 1.3859066e-39
-1.1986477 0.33438778 0.90593189 1.4780854e-39
-1.1921564 0.33683604 0.90828758 9.2744378e-40
-1.1632521 0.39820823 0.92260873 9.2671231e-40
-1.0988144 0.52008551 0.95340115 1.2929893e-39
-1.0961258 0.52434248 0.95462298 8.3381463e-40
-1.0955037 0.53029561 0.95528293 1.1093183e-39
-1.0949619 0.5363425 0.9559229 1.2018755e-39
-1.0915709 0.53997493 0.95733231 7.4125886e-40
-1.0872924 0.54387736 0.95905882 2.835051e-40
-1.0850998 0.54849625 0.96014237 4.671817e-40
-1.0734922 0.56127459 0.96499252 4.6611671e-40
-1.0718955 0.56637907 0.96591371 7.4197212e-40
-1.0702988 0.57148367 0.96683502 7.4053439e-40
-1.0658015 0.57505369 0.96860933 6.4834296e-40
-1.0654169 0.58129644 0.96921194 7.4125326e-40
-1.0619389 0.58459115 0.97062463 1.0167569e-39
-1.0539885 0.59664649 0.97419745 3.7389866e-40
-1.0530083 0.6046375 0.97513169 7.4124625e-40
-1.0516746 0.60921115 0.97592485 6.5015064e-40
-1.0513866 0.61212814 0.97624248 4.6429642e-40
-1.0466211 0.61452061 0.97801715 3.7247074e-40
-1.0460405 0.62065619 0.97867697 2.7991918e-40
-1.0462735 0.62767488 0.97913194 4.6357335e-40
-1.0384238 0.63305509 0.98216426 3.7390286e-40
