# .PCD v0.7 - Point Cloud Data file format
VERSION 0.7
FIELDS x y z rgb
SIZE 4 4 4 4
TYPE F F F F
COUNT 1 1 1 1
WIDTH 1049
HEIGHT 1
VIEWPOINT 0 0 0 1 0 0 0
POINTS 1049
DATA ascii
0.31378084 1.9791675 -1.4023236 5.7034865e-39
0.31208077 1.99661 -1.395516 5.0588444e-39
0.31262127 2.0038242 -1.3923573 4.9666502e-39
0.31183982 2.0112624 -1.3894697 5.1506799e-39
0.31230462 2.0228872 -1.3844917 4.6915024e-39
0.31296304 2.0299611 -1.3813589 4.7840554e-39
0.30695796 2.0441666 -1.3770903 4.9673676e-39
0.30735984 2.0564423 -1.3718581 4.5085489e-39
0.31123981 2.0632021 -1.3679667 4.6929373e-39
0.30488992 2.0789087 -1.3631673 4.875179e-39
0.30562559 2.0897102 -1.3584578 4.3252366e-39
0.30662844 2.0949562 -1.3559923 4.6000257e-39
0.30789384 2.0990596 -1.3539311 4.2319662e-39
0.30753917 2.105907 -1.3511723 4.323443e-39
0.30150169 2.149965 -1.3344585 3.221417e-39
0.3027423 2.1524353 -1.3330854 8.2651947e-40
0.32232893 1.7077163 -1.5132104 1.6493619e-38
0.324743 1.7081592 -1.5123593 1.6306334e-38
0.32242867 1.7133262 -1.5108423 8.5568553e-39
0.32283881 1.7248368 -1.5059271 7.4581098e-39
0.32163772 1.7572644 -1.4927304 8.1106777e-39
0.32198179 1.7653193 -1.4892749 5.9818867e-39
0.31757808 1.7759162 -1.4860697 5.1492618e-39
0.31553274 1.7873265 -1.4818742 7.2700822e-39
0.31672776 1.7917786 -1.479687 8.1941895e-39
0.31735834 1.7985721 -1.4766787 8.8384855e-39
0.31742293 1.807757 -1.472829 6.715856e-39
0.31814811 1.8174565 -1.4685822 5.7052956e-39
0.31731772 1.8277439 -1.4645196 5.6130874e-39
0.31569722 1.8304037 -1.4638574 6.6254414e-39
0.31404665 1.8451189 -1.4581741 6.5336003e-39
0.31226394 1.8530744 -1.4553474 6.6254358e-39
0.31225884 1.8666741 -1.449675 6.0733453e-39
0.3118501 1.8770519 -1.4454584 4.4134848e-39
0.31294093 1.8808258 -1.4435827 6.8116151e-39
0.31278354 1.8868587 -1.4411093 7.6399353e-39
0.31342596 1.8937624 -1.4380518 6.8098313e-39
0.30881608 1.9145136 -1.4306672 4.9680879e-39
0.30889857 1.9240396 -1.4266703 5.3350726e-39
0.30834937 1.9366633 -1.4215555 5.1521148e-39
0.30748865 1.9438341 -1.4188017 5.7031292e-39
0.30656424 1.9585426 -1.4129206 5.5198155e-39
0.30756146 1.9637733 -1.410463 5.3350712e-39
0.30581731 1.9833336 -1.4027843 4.9673732e-39
0.30824897 1.9809928 -1.4030894 5.2435916e-39
0.30766487 1.9868742 -1.400797 5.3343509e-39
0.3034465 2.0017791 -1.3957435 4.7829834e-39
0.30549645 2.0030472 -1.3946484 4.9673732e-39
0.30366197 2.0150895 -1.390131 5.2425168e-39
0.30452546 2.0231018 -1.3865499 4.8741042e-39
0.30340901 2.0373697 -1.3809059 4.8755321e-39
0.30041566 2.0442731 -1.3788521 5.1524736e-39
0.29896671 2.0527911 -1.3756986 5.0584871e-39
0.29713297 2.064708 -1.3712332 4.7833379e-39
0.2961908 2.0800655 -1.3650863 4.6922199e-39
0.29651338 2.0892408 -1.3611696 4.5085489e-39
0.29635915 2.1009936 -1.3563088 4.3238017e-39
0.29327589 2.1509049 -1.3363376 3.1288641e-39
0.2936368 2.1583412 -1.3331356 6.4284847e-40
0.31832951 1.717813 -1.5101024 7.4523266e-39
0.31505492 1.7241838 -1.5083487 7.4570168e-39
0.31425115 1.7310543 -1.5057045 7.3720336e-39
0.31369853 1.7424856 -1.5010878 7.7422581e-39
0.31432074 1.7492214 -1.4981058 8.0184806e-39
0.31440413 1.7580861 -1.4943848 8.4783784e-39
0.31282499 1.7727243 -1.4887137 5.8889638e-39
0.30963242 1.7788733 -1.4870298 4.5975145e-39
0.30943209 1.7871341 -1.4836388 6.7190636e-39
0.30943707 1.7926341 -1.4813429 8.1016421e-39
0.31007046 1.7994266 -1.4783343 8.4700757e-39
0.31070346 1.8062195 -1.4753256 6.1630424e-39
0.31045064 1.817018 -1.4708902 5.7974828e-39
0.3105056 1.8262504 -1.4670235 6.4403313e-39
0.30935079 1.8347813 -1.4637834 6.3488587e-39
0.30417824 1.847481 -1.4599133 6.441046e-39
0.30391434 1.8583612 -1.455447 6.6250743e-39
0.3045595 1.8652643 -1.452389 6.2573918e-39
0.30420992 1.8767978 -1.4476738 4.9655768e-39
0.30398998 1.8809626 -1.4459969 7.0882062e-39
0.30463967 1.8878742 -1.4429342 7.7314261e-39
0.30580074 1.8958861 -1.4392711 6.81019e-39
0.30632722 1.9032781 -1.4360417 4.8741028e-39
0.29974011 1.9193934 -1.4311373 5.1503282e-39
0.30078802 1.9279691 -1.4272704 5.1521148e-39
0.29976511 1.9396989 -1.4226593 5.1510386e-39
0.29999334 1.9447063 -1.4205071 5.5198155e-39
0.3000243 1.9545038 -1.4164112 5.6112993e-39
0.2985802 1.9675279 -1.4113764 5.3372207e-39
0.29912385 1.9744653 -1.408332 5.336862e-39
0.30070683 1.9818561 -1.4048116 5.517666e-39
0.29805133 1.9811683 -1.4058317 5.8875163e-39
0.29498377 1.9988773 -1.3992906 4.3241604e-39
0.29438162 2.0060892 -1.396448 5.3361446e-39
0.29501727 2.0189288 -1.390916 5.2446678e-39
0.29453757 2.0307827 -1.3861032 5.0599206e-39
0.29560301 2.0313399 -1.3855765 4.507114e-39
0.29131925 2.0394568 -1.3833729 4.7840554e-39
0.29293591 2.0493774 -1.3787878 5.0609968e-39
0.28967348 2.0609171 -1.3748742 4.6918611e-39
0.28834069 2.0828269 -1.3661017 4.6907906e-39
0.2894094 2.0832262 -1.36564 4.6911437e-39
0.2890591 2.0975974 -1.3597412 4.505679e-39
0.29206213 2.0951769 -1.3599219 4.5989495e-39
0.2922864 2.1000888 -1.3578107 3.8631921e-39
0.29264751 2.1074076 -1.3546578 4.5056818e-39
0.29217154 2.1188638 -1.3500098 4.1379811e-39
0.28541279 2.1592813 -1.335014 1.8367099e-40
0.30870473 1.711944 -1.5152082 1.8520114e-38
0.30688125 1.7168185 -1.5136782 7.8185784e-39
0.3060655 1.7236816 -1.5110401 7.6399703e-39
0.30610874 1.7418017 -1.5034686 7.5582354e-39
0.3055943 1.7633364 -1.4946266 8.1092441e-39
0.30512473 1.7736245 -1.4904641 5.7953318e-39
0.30486056 1.7759836 -1.4895529 5.3336474e-39
0.30298349 1.7865214 -1.4856749 7.5498962e-39
0.30215195 1.7934892 -1.4829977 8.3775045e-39
0.3027882 1.8002807 -1.4799886 8.471861e-39
0.3025046 1.8110665 -1.4755671 5.8864541e-39
0.30132335 1.8195828 -1.4723403 6.1641074e-39
0.30137309 1.8288053 -1.468479 6.2566715e-39
0.30136234 1.8385054 -1.4644351 6.441046e-39
0.29680169 1.84834 -1.4615915 6.1659024e-39
0.29651493 1.8592197 -1.4571317 6.4410418e-39
0.29716295 1.8661219 -1.4540733 6.1659024e-39
0.29592669 1.8749213 -1.4507436 4.8719476e-39
0.29717493 1.8793467 -1.4485526 7.2725877e-39
0.29723197 1.8887421 -1.4446173 7.6399381e-39
0.29788402 1.8956529 -1.4415542 6.9945701e-39
0.29787824 1.9055743 -1.4374167 4.9663041e-39
0.29419121 1.9144334 -1.4347386 5.1524848e-39
0.29258841 1.9243883 -1.4310281 5.059922e-39
0.29324695 1.931363 -1.4279364 5.1506841e-39
0.29330847 1.9409264 -1.4239297 5.6112923e-39
0.29179856 1.9508779 -1.4201947 5.4283388e-39
0.29181874 1.9606887 -1.4160963 5.4276213e-39
0.29031962 1.9650942 -1.4146724 5.5201869e-39
0.2908712 1.9719833 -1.4116459 5.6123685e-39
0.29087904 1.9920663 -1.4032654 5.5183806e-39
0.28575405 2.0013659 -1.4008007 4.9673676e-39
0.28550366 2.0313308 -1.3883686 4.8758909e-39
0.28670359 2.0350828 -1.3864721 4.6929373e-39
0.28727013 2.0420458 -1.3834107 5.1524736e-39
0.28231317 2.0709136 -1.372736 4.7837008e-39
0.2822459 2.0831099 -1.3676664 4.5063965e-39
0.2834653 2.0864117 -1.3659523 4.5060406e-39
0.28382766 2.0937307 -1.3627986 4.2301767e-39
0.28365561 2.1203275 -1.3517504 4.2301781e-39
0.27810124 2.1348994 -1.3472047 4.0468659e-39
0.28141135 2.14485 -1.3421395 3.2210597e-39
0.27621138 2.1652369 -1.3350698 4.5917748e-40
0.3015078 1.7127658 -1.5168525 1.7598885e-38
0.29889384 1.7426238 -1.5051177 7.5582354e-39
0.2995227 1.7493577 -1.5021348 7.9266536e-39
0.29921165 1.7599254 -1.497812 8.2943515e-39
0.29955149 1.7711264 -1.4930451 6.2545023e-39
0.29776499 1.7814894 -1.489215 5.4240438e-39
0.29352698 1.7873514 -1.4879394 7.5498991e-39
0.29448971 1.7927822 -1.4854078 8.2856648e-39
0.29551184 1.8011341 -1.4816414 8.1012918e-39
0.29418984 1.8133144 -1.4769249 6.2527185e-39
0.29300368 1.8212481 -1.4739425 6.0719201e-39
0.29301795 1.8340541 -1.4685961 6.3488545e-39
0.29305923 1.8433254 -1.4647167 6.3492119e-39
0.28907904 1.8507638 -1.4627124 6.257375e-39
0.28912151 1.8600777 -1.458815 6.5328829e-39
0.29000646 1.8662469 -1.455997 6.2570162e-39
0.28906035 1.8757987 -1.4522731 6.2562974e-39
0.28842354 1.8881339 -1.4473031 7.5481082e-39
0.28908178 1.8950636 -1.4442302 7.7314134e-39
0.28973979 1.9019934 -1.4411576 5.5194652e-39
0.28721601 1.9162847 -1.4358921 4.6922255e-39
0.28472358 1.9236326 -1.4335147 4.8769671e-39
0.28383544 1.9307814 -1.4307777 5.0592073e-39
0.28280962 1.9452149 -1.4250392 5.5194568e-39
0.28282571 1.9550024 -1.4209516 5.2443175e-39
0.28307709 1.9743303 -1.4128187 5.5173044e-39
0.28234214 1.9887946 -1.4069873 5.4297737e-39
0.27957481 2.0220876 -1.3938619 5.3361446e-39
0.27817604 2.0321813 -1.3900369 4.9673746e-39
0.27984202 2.0342913 -1.3886967 4.7851316e-39
0.28011897 2.0581498 -1.3786666 4.5996683e-39
0.27596492 2.1212461 -1.3534905 3.9553849e-39
0.26756838 2.1616149 -1.3389671 1.9296216e-39
0.29214066 1.7125283 -1.5195377 2.0090706e-38
0.29620841 1.715692 -1.5170947 6.9884702e-39
0.29136074 1.74476 -1.5063062 7.650431e-39
0.29016209 1.7531153 -1.5031515 8.2021657e-39
0.29015148 1.7656705 -1.4979165 8.4751456e-39
0.29043552 1.7706109 -1.495777 5.9789958e-39
0.29017508 1.7808639 -1.4915714 5.1485429e-39
0.28623897 1.7882061 -1.4895951 7.7342889e-39
0.28688467 1.7950034 -1.4865808 8.2853005e-39
0.28687173 1.8044047 -1.4826624 8.2863837e-39
0.28601068 1.8113937 -1.4799845 5.9779266e-39
0.28559619 1.8225708 -1.4754359 6.0711957e-39
0.28526568 1.8333344 -1.4710366 6.1644759e-39
0.28529745 1.8425922 -1.4671657 6.4403355e-39
0.2827428 1.8554606 -1.4625024 6.5343248e-39
0.28229082 1.8609706 -1.4603285 6.3495818e-39
0.28184551 1.8725117 -1.4556365 5.5173156e-39
0.28096491 1.8796086 -1.4529189 6.715835e-39
0.28100404 1.888993 -1.448993 7.5477425e-39
0.28166527 1.8959216 -1.4459199 7.3640659e-39
0.28040746 1.9046781 -1.442614 5.2428755e-39
0.28037384 1.9146309 -1.4384711 4.6925828e-39
0.27601278 1.9280795 -1.4340646 4.9655838e-39
0.27565056 1.9346975 -1.4314035 5.0584899e-39
0.27529559 1.9460801 -1.4267528 5.4272626e-39
0.27438772 1.9608165 -1.4208558 5.2435916e-39
0.26954225 1.9989817 -1.4062713 4.9662914e-39
0.27226478 2.022918 -1.3955337 5.2439503e-39
0.27185985 2.0323534 -1.391709 5.2428811e-39
0.26725972 2.0717204 -1.3765557 4.6915066e-39
0.26795036 2.0788691 -1.3733824 4.8751734e-39
0.26726088 2.0815034 -1.3724738 4.7826218e-39
0.26719755 2.0980723 -1.3655789 3.8646242e-39
0.26712957 2.1088841 -1.3610871 4.5067552e-39
0.26715818 2.1191096 -1.3568131 4.4145624e-39
0.26579866 2.1285825 -1.3532366 3.9561066e-39
0.26515931 2.1465921 -1.3458996 4.1376224e-39
0.28415847 1.713186 -1.5214671 2.0551334e-38
0.28344628 1.7412565 -1.5099531 7.6500639e-39
0.282125 1.7596328 -1.5026515 8.2932823e-39
0.28253472 1.7646918 -1.5004278 7.6464569e-39
0.28284273 1.7728226 -1.4969506 5.8882393e-39
0.2822344 1.7842706 -1.4923425 4.1379895e-39
0.28010163 1.7824149 -1.4937055 6.812341e-39
0.27820781 1.7940466 -1.4893758 7.9176082e-39
0.27794152 1.8044039 -1.4851284 8.2849488e-39
0.2782886 1.8113922 -1.4821171 6.9920688e-39
0.27791935 1.8174725 -1.4796823 5.8868058e-39
0.27756327 1.8282156 -1.4752988 6.2559414e-39
0.27760634 1.8406264 -1.4701092 6.1655423e-39
0.27754471 1.8503828 -1.4660559 6.0740613e-39
0.27634194 1.8587015 -1.4629176 6.4410446e-39
0.2715961 1.8690704 -1.459902 6.3484916e-39
0.27226126 1.8759971 -1.4568286 5.3339922e-39
0.272926 1.8829242 -1.4537551 6.6257932e-39
0.27359051 1.8898515 -1.4506818 7.4559056e-39
0.2742545 1.8967787 -1.4476082 7.2718744e-39
0.27298012 1.9055479 -1.4443018 4.9666558e-39
0.27292836 1.9155033 -1.4401628 4.6000313e-39
0.27259302 1.9210155 -1.4379557 5.2446678e-39
0.26848549 1.9343401 -1.433531 5.2428783e-39
0.26740468 1.9486494 -1.4278597 5.2435972e-39
0.2664066 1.9617354 -1.4226757 5.3357858e-39
0.26578185 1.973141 -1.41809 4.8755321e-39
0.26597273 1.9738377 -1.4177467 5.5194652e-39
0.26562381 2.0018759 -1.4061457 5.0599276e-39
0.26620719 2.0088043 -1.4030941 4.9680935e-39
0.26296961 2.0208097 -1.3989795 5.1513974e-39
0.2649779 2.022784 -1.3976012 4.68935e-39
0.26388246 2.036494 -1.392184 5.0599206e-39
0.26300806 2.0489717 -1.3872199 4.8748147e-39
0.26044381 2.0592177 -1.3836532 5.0606381e-39
0.26234505 2.0701871 -1.3785521 4.5060434e-39
0.25946155 2.0719945 -1.3785943 4.690785e-39
0.25870377 2.0853438 -1.3732343 4.7815443e-39
0.25886998 2.0878675 -1.3721355 4.4156372e-39
0.25874779 2.1026156 -1.3660163 4.139772e-39
0.25944975 2.1097949 -1.3628273 4.4145624e-39
0.25946653 2.1200049 -1.3585633 3.8642655e-39
0.27500099 1.7414987 -1.5121837 7.6500653e-39
0.27456892 1.7611666 -1.5040977 8.4783882e-39
0.27521864 1.7679393 -1.5010927 6.2591939e-39
0.27491659 1.7781808 -1.4969035 5.6098658e-39
0.27366632 1.7908405 -1.4919673 5.6120168e-39
0.27366436 1.78987 -1.4923726 8.1034372e-39
0.27156633 1.8017046 -1.4880147 8.3775045e-39
0.27222008 1.8085189 -1.4849913 6.8084034e-39
0.27021343 1.8198731 -1.4808084 5.7045739e-39
0.26983735 1.8306245 -1.4764268 5.7971297e-39
0.27049959 1.8374909 -1.4733795 6.2570233e-39
0.26853207 1.8486332 -1.4692742 6.3492175e-39
0.26846272 1.8584127 -1.4652134 6.5335975e-39
0.26337454 1.8698926 -1.4618289 6.2577365e-39
0.26404649 1.8768272 -1.4587504 4.874107e-39
0.26471803 1.8837622 -1.4556717 6.7183433e-39
0.26538932 1.8906972 -1.4525931 7.4555496e-39
0.26447472 1.8978159 -1.4498757 7.7321379e-39
0.26514807 1.9047503 -1.4467969 4.9652222e-39
0.26508012 1.9147056 -1.4426624 4.9666558e-39
0.26508924 1.9276695 -1.4372514 5.1521148e-39
0.26054487 1.9370692 -1.4345847 4.9666502e-39
0.26021942 1.9483033 -1.4299877 5.2443175e-39
0.25972232 1.9602884 -1.425125 5.0606381e-39
0.2567004 1.9680414 -1.4227248 5.1521246e-39
0.25656414 2.0169914 -1.4023409 4.5067552e-39
0.25557891 2.0257049 -1.3989778 5.0588444e-39
0.25556669 2.0370433 -1.3942508 5.1510386e-39
0.25508004 2.0487442 -1.3895037 4.7826218e-39
0.25402305 2.062968 -1.3838615 4.8740972e-39
0.25438875 2.0702817 -1.3807093 4.323443e-39
0.24900979 2.0780694 -1.3789455 4.4159959e-39
0.25076321 2.0854189 -1.3753952 4.8740972e-39
0.24879549 2.099618 -1.3700148 4.6897102e-39
0.24929862 2.1098905 -1.3655902 4.5042469e-39
0.24940501 2.1176822 -1.3623102 4.2308914e-39
0.25092274 2.1212304 -1.3604109 4.2305327e-39
0.26966855 1.7192663 -1.5229311 1.9814116e-38
0.26927188 1.7334107 -1.5171397 7.7386582e-39
0.26779175 1.7423388 -1.5138236 7.6500681e-39
0.26804113 1.7505455 -1.5103309 8.0184863e-39
0.26732019 1.762009 -1.5057476 8.2936326e-39
0.26797292 1.7687808 -1.5027423 6.3492161e-39
0.26765025 1.7790217 -1.4985589 5.7006293e-39
0.26759878 1.788379 -1.4946693 6.3488531e-39
0.26672387 1.7953663 -1.4919959 8.0101611e-39
0.26233396 1.8042704 -1.4894931 8.5619042e-39
0.26299599 1.8110911 -1.4864649 6.3474294e-39
0.26512831 1.8135468 -1.4848517 6.1641172e-39
0.2624926 1.8314815 -1.4780972 5.8896771e-39
0.26115096 1.8402547 -1.4748076 6.0733481e-39
0.26115876 1.8494911 -1.470952 6.5328801e-39
0.26182827 1.8563811 -1.4678926 6.3495692e-39
0.25595075 1.870754 -1.4635192 6.1651878e-39
0.25585228 1.8806186 -1.4594309 4.7822617e-39
0.25730014 1.8846215 -1.4573612 6.8109033e-39
0.25797433 1.8915558 -1.4542823 7.5473963e-39
0.25739557 1.9015588 -1.4502689 7.0874888e-39
0.25773075 1.9056082 -1.4484869 4.6893528e-39
0.25764459 1.9155661 -1.4443564 5.2421609e-39
0.25722009 1.9268543 -1.4397643 5.3339978e-39
0.2574954 1.9297432 -1.4384831 5.5191079e-39
0.25254285 1.9412675 -1.4350426 5.0584913e-39
0.25287688 1.950972 -1.4309016 5.3354299e-39
0.25114563 1.9613025 -1.4270699 5.2432343e-39
0.25230733 1.9670075 -1.4243689 5.7949773e-39
0.25180453 1.9781758 -1.4198486 5.7953248e-39
0.24807261 2.0171554 -1.404617 4.6900689e-39
0.24580193 2.0380967 -1.3965074 4.7808282e-39
0.24554284 2.0481119 -1.3924006 4.9666558e-39
0.24592936 2.0560191 -1.3889952 4.5067594e-39
0.24497545 2.0678105 -1.3843392 4.5985907e-39
0.24484286 2.0741191 -1.381744 4.8751734e-39
0.24230567 2.0790305 -1.3803955 4.23089e-39
0.24267285 2.086344 -1.3772429 3.863548e-39
0.2433521 2.0967548 -1.3727123 4.8737385e-39
0.24337481 2.101824 -1.3705909 4.782982e-39
0.24399322 2.1088719 -1.36748 4.5078342e-39
0.23978673 2.125037 -1.3618973 4.5989523e-39
0.23751719 2.1540639 -1.3504143 3.863548e-39
0.25989202 1.7174644 -1.526382 2.0274023e-38
0.26230362 1.7184732 -1.5252954 2.1011942e-38
0.26423872 1.7209433 -1.5237305 9.4748726e-39
0.26542535 1.7251329 -1.5216551 6.8109131e-39
0.25905508 1.7632804 -1.5074991 8.3879918e-39
0.25973248 1.773069 -1.5032284 5.9807937e-39
0.25771731 1.7809494 -1.5004972 5.5169597e-39
0.25728852 1.7915391 -1.4961977 6.3470553e-39
0.25876534 1.7984769 -1.4928955 8.1012876e-39
0.25435793 1.807403 -1.4903884 8.1002086e-39
0.25575638 1.8141185 -1.4872009 6.0722859e-39
0.25632867 1.8208294 -1.484243 6.2566743e-39
0.25615865 1.8304032 -1.4802958 6.0747942e-39
0.25311825 1.8434597 -1.4756881 5.9815098e-39
0.25379103 1.8503485 -1.4726285 6.3492119e-39
0.25259405 1.8641227 -1.4672124 6.5332444e-39
0.24853452 1.8809403 -1.4613171 5.148173e-39
0.24988788 1.8854806 -1.4590493 6.8116208e-39
0.25056496 1.8924139 -1.4559699 7.6395822e-39
0.25124177 1.8993471 -1.4528906 6.8105502e-39
0.24958132 1.9113193 -1.4483544 4.8744601e-39
0.24902225 1.9231465 -1.4435745 4.9670117e-39
0.24763864 1.9378983 -1.4378022 4.690792e-39
0.24496242 1.9450314 -1.4355652 5.5201869e-39
0.2430893 1.9509737 -1.4336032 5.4269123e-39
0.24445677 1.9554582 -1.4313549 5.3354271e-39
0.24585778 1.964687 -1.4271177 5.5194708e-39
0.24319117 1.9830478 -1.420194 5.3361446e-39
0.24260317 2.0018251 -1.4125227 4.781903e-39
0.24318485 2.0030429 -1.4118539 4.5067594e-39
0.24514341 2.0084264 -1.4090673 4.8737413e-39
0.23889324 2.021096 -1.4055074 4.8744587e-39
0.23594105 2.0429442 -1.3972075 4.8744601e-39
0.23563227 2.0575941 -1.391181 4.4152799e-39
0.23436537 2.0700591 -1.3863306 4.2312487e-39
0.23588485 2.0726347 -1.3848364 4.3223668e-39
0.23723905 2.0760598 -1.3830336 4.5053259e-39
0.23503579 2.0830436 -1.3807285 4.7851316e-39
0.23299144 2.1118066 -1.3692931 4.5046028e-39
0.23237857 2.1232128 -1.3647038 4.2294551e-39
0.2327534 2.1306043 -1.3615167 4.1365448e-39
0.23190418 2.1311071 -1.3615414 4.5989495e-39
0.25261813 1.7182939 -1.5280443 2.0550964e-38
0.25507683 1.7192965 -1.526947 2.1288882e-38
0.25256339 1.7438821 -1.5173842 7.5578724e-39
0.25214294 1.754169 -1.5132087 7.926655e-39
0.25141463 1.7654798 -1.508691 8.2035978e-39
0.25008029 1.7739702 -1.5055175 5.7038593e-39
0.250002 1.7833142 -1.5016408 4.9648747e-39
0.24998185 1.7923727 -1.497867 6.7190692e-39
0.25064921 1.7992078 -1.4948314 8.2860264e-39
0.24776535 1.8027523 -1.4941487 8.6548117e-39
0.24794853 1.8167371 -1.488264 6.6229275e-39
0.25032711 1.8186604 -1.4868047 5.9797175e-39
0.24712354 1.8321184 -1.4820747 5.796764e-39
0.24533926 1.8426312 -1.4781815 6.1651765e-39
0.24452694 1.8547338 -1.4733567 6.5328801e-39
0.24520501 1.8616576 -1.470281 6.2570134e-39
0.24586764 1.8719153 -1.4658185 5.7981961e-39
0.24186511 1.877355 -1.4646543 5.0574263e-39
0.24173695 1.8817927 -1.4628383 5.9789972e-39
0.24032198 1.8907315 -1.4594998 7.2711584e-39
0.24032116 1.9000896 -1.455596 7.6384975e-39
0.24169512 1.9046131 -1.4533294 5.7938941e-39
0.23992966 1.9211406 -1.4469217 4.4131303e-39
0.24029134 1.9282888 -1.4438397 4.5056846e-39
0.23822086 1.9402958 -1.4394021 5.0599206e-39
0.23891725 1.9473257 -1.4362769 4.9684466e-39
0.23559204 1.9518354 -1.4353137 5.4272626e-39
0.23697554 1.9563305 -1.4330564 5.1513974e-39
0.23464641 1.9924427 -1.4186338 5.1513974e-39
0.23527381 2.0052464 -1.413119 4.5996683e-39
0.23428048 2.0129035 -1.4101987 5.3347152e-39
0.22756876 2.0366476 -1.402146 4.7822631e-39
0.22748101 2.0490687 -1.3969883 4.5993082e-39
0.22721153 2.067101 -1.3895397 3.7720741e-39
0.2282249 2.0733638 -1.3866471 4.5989509e-39
0.23124336 2.0714986 -1.3865919 4.5067552e-39
0.22402875 2.0912759 -1.3803329 5.1496037e-39
0.22431606 2.1058791 -1.3741612 5.0588444e-39
0.22768918 2.1113827 -1.3709338 4.4152813e-39
0.22512256 2.1234672 -1.366601 4.2290977e-39
0.24495228 1.7174851 -1.5304981 2.0273655e-38
0.24657509 1.7196405 -1.529151 1.8060256e-38
0.24984749 1.7181216 -1.5288811 6.9902597e-39
0.25026047 1.7269007 -1.5251045 7.6378137e-39
0.24972703 1.7364517 -1.5212672 7.4627887e-39
0.24495208 1.7460933 -1.5185632 7.5585927e-39
0.24414411 1.7575036 -1.5140259 8.202523e-39
0.24480931 1.7642804 -1.5110149 7.9259389e-39
0.24204014 1.7773408 -1.506331 5.4272668e-39
0.24271144 1.7841588 -1.5033013 4.8726623e-39
0.24268122 1.7932057 -1.4995352 6.9041835e-39
0.24335144 1.8000398 -1.4964992 8.1941867e-39
0.2411935 1.8036208 -1.4956011 8.2881745e-39
0.24266325 1.8154702 -1.4902517 5.5183918e-39
0.23857662 1.8221875 -1.4885775 5.334718e-39
0.23941097 1.8307422 -1.4847783 5.7056501e-39
0.23723537 1.8389481 -1.4819554 6.0726278e-39
0.23750685 1.8504037 -1.4771014 6.3488601e-39
0.23818836 1.8573103 -1.4740318 6.624361e-39
0.23886962 1.8642172 -1.4709623 6.3492091e-39
0.23637013 1.8736176 -1.4677305 6.1630326e-39
0.2357017 1.8840086 -1.46358 6.7187049e-39
0.23206617 1.8945504 -1.4601859 7.3630023e-39
0.23300636 1.9008071 -1.4573162 7.5463075e-39
0.23370077 1.9077607 -1.4542233 5.3332761e-39
0.23299201 1.9195874 -1.4494849 4.6911479e-39
0.23153779 1.9286518 -1.4461049 4.782982e-39
0.23071179 1.9411614 -1.4411142 4.876251e-39
0.23141122 1.9481902 -1.4379886 5.1517561e-39
0.22601336 1.9603779 -1.4343944 5.0599234e-39
0.22866237 1.9603148 -1.4336894 5.2432329e-39
0.22876169 1.9697164 -1.4297397 4.7829834e-39
0.22674578 1.992375 -1.4208434 5.1503212e-39
0.22608848 2.012289 -1.4127169 4.6000271e-39
0.22630633 2.021404 -1.4088541 4.7840582e-39
0.21897754 2.0421369 -1.402228 4.4127701e-39
0.22037883 2.0456519 -1.4003747 4.6889913e-39
0.22237517 2.0436716 -1.4006495 4.8755321e-39
0.21963719 2.0601339 -1.3945376 4.1379811e-39
0.21978073 2.0637019 -1.3930094 4.2323249e-39
0.21589004 2.110677 -1.3744861 4.4138449e-39
0.22032104 2.112241 -1.3726101 4.5081902e-39
0.21713006 2.1225643 -1.3691844 4.2305313e-39
0.23570257 1.7197908 -1.5320901 2.0458766e-38
0.23823471 1.7209194 -1.5309201 2.0919744e-38
0.24183446 1.7187827 -1.5308176 7.0817364e-39
0.24171728 1.7396449 -1.5221466 7.6489751e-39
0.23774049 1.746942 -1.5202001 7.5585941e-39
0.23645078 1.7598616 -1.5151663 8.0184905e-39
0.23593041 1.7682323 -1.5118178 7.7411791e-39
0.23429389 1.7797306 -1.5074726 5.6105903e-39
0.23497079 1.7865566 -1.504438 4.5060476e-39
0.23502648 1.7953583 -1.5007507 6.8105572e-39
0.23495981 1.7979085 -1.4997051 7.4580776e-39
0.23600069 1.803208 -1.4972068 8.1016323e-39
0.23468576 1.8155715 -1.492412 7.0853504e-39
0.23082177 1.8230757 -1.4903482 5.4261934e-39
0.22904937 1.8370466 -1.485009 5.3372334e-39
0.22941475 1.8414099 -1.4830878 6.0729893e-39
0.22925559 1.851172 -1.479059 6.257019e-39
0.22994404 1.8580868 -1.4759842 6.2570148e-39
0.22815196 1.8680884 -1.4723063 6.4406942e-39
0.22897026 1.8744531 -1.4694252 5.7935438e-39
0.22832283 1.8861475 -1.464725 5.2421567e-39
0.22491409 1.891289 -1.4635211 7.2711626e-39
0.22655363 1.9044899 -1.4575613 4.8737469e-39
0.22575571 1.9199003 -1.4513525 4.6918682e-39
0.22448666 1.9301084 -1.4474441 4.414568e-39
0.22277465 1.9402536 -1.4436841 4.9670229e-39
0.22347851 1.9472817 -1.440558 5.1513974e-39
0.2207441 1.9669275 -1.4331168 5.0567144e-39
0.22270225 1.96654 -1.4327379 4.9652251e-39
0.22036549 1.9812257 -1.4272565 5.1503352e-39
0.22012918 1.9845037 -1.425954 4.7833379e-39
0.21903542 1.9940218 -1.4222852 4.9670089e-39
0.21665873 2.0167592 -1.4134554 4.5996697e-39
0.21596749 2.0314355 -1.4075234 4.8723106e-39
0.21180978 2.042572 -1.4040253 4.4138463e-39
0.21323295 2.0460632 -1.4021758 4.6882808e-39
0.21465726 2.0495119 -1.4003439 4.5053231e-39
0.21440665 2.0561109 -1.39766 4.3234444e-39
0.21189116 2.0743773 -1.390734 4.9673676e-39
0.21301731 2.0811939 -1.3875791 4.507114e-39
0.20694457 2.1095095 -1.3774428 4.5056832e-39
0.20945451 2.1165128 -1.3738281 4.3230856e-39
0.22842531 1.7206188 -1.5337538 2.0643153e-38
0.23172849 1.7196651 -1.5332397 1.9536452e-38
0.23467036 1.7196174 -1.5324473 6.6222002e-39
0.22914074 1.7630174 -1.5158679 8.2028831e-39
0.22867905 1.7733619 -1.5116799 6.1698821e-39
0.22649854 1.7854394 -1.5072432 5.4261864e-39
0.22586796 1.7954304 -1.5032492 3.9546703e-39
0.22721417 1.7994179 -1.5012139 7.9165348e-39
0.22658297 1.8094488 -1.4972032 8.2835236e-39
0.22694069 1.8164581 -1.4941804 6.99208e-39
0.22223443 1.8348408 -1.4878106 5.429059e-39
0.22118182 1.8451058 -1.4838189 5.9807937e-39
0.22187345 1.8520198 -1.4807434 6.1648206e-39
0.22256491 1.8589334 -1.4776683 6.2566561e-39
0.22087951 1.8804196 -1.4691697 5.2407343e-39
0.22127993 1.8857486 -1.4668359 5.7042054e-39
0.21768831 1.9101647 -1.4576414 4.5042455e-39
0.2176633 1.9195428 -1.4537358 4.6907892e-39
0.2169833 1.9314643 -1.4489501 4.8748203e-39
0.21600115 1.9386709 -1.4462146 4.9680851e-39
0.21598242 1.9481343 -1.4422718 5.0595619e-39
0.21617256 1.9570984 -1.4384795 5.0599248e-39
0.21587817 1.9672791 -1.4343135 5.1485331e-39
0.21143287 1.9710227 -1.433979 4.9655796e-39
0.2118029 1.9782171 -1.4308755 4.6907906e-39
0.21223541 1.9892708 -1.4261445 5.0592031e-39
0.21147789 1.9963225 -1.4234117 4.690785e-39
0.20949723 2.011843 -1.4174837 4.414568e-39
0.20964019 2.0212719 -1.4135106 4.7826247e-39
0.20622073 2.0431912 -1.4053102 4.2290977e-39
0.20548423 2.0521407 -1.4017797 4.5071168e-39
0.20621739 2.0592804 -1.3985988 4.5985963e-39
0.2046199 2.074893 -1.3925265 4.6911451e-39
0.20441779 2.0856552 -1.3880923 4.5081902e-39
0.20458835 2.0951533 -1.3840827 4.4152799e-39
0.20354736 2.1025918 -1.3812668 4.3230884e-39
0.19923151 2.1104157 -1.3791944 4.5971558e-39
0.19927137 2.1346684 -1.3690653 4.1372608e-39
0.17906448 2.3780906 -1.2730907 1.2918052e-39
0.2219767 1.7190517 -1.5361879 2.0919733e-38
0.22533663 1.7180847 -1.5356638 1.7692189e-38
0.22684786 1.7421896 -1.5251902 7.0976188e-39
0.22437471 1.7534832 -1.5211614 7.8348181e-39
0.2191834 1.7689329 -1.5161493 7.834102e-39
0.2184373 1.7786089 -1.5123184 6.16735e-39
0.21912426 1.7854429 -1.5092778 5.1496205e-39
0.21981083 1.792277 -1.506237 5.7953388e-39
0.21948564 1.8003116 -1.5029749 7.8254097e-39
0.2198451 1.8073008 -1.4999599 8.0087192e-39
0.21919569 1.8173448 -1.4959489 6.9920772e-39
0.21835953 1.8282044 -1.4916493 5.4265563e-39
0.21444906 1.8357431 -1.4895837 5.0613681e-39
0.21359232 1.8466866 -1.4852548 5.6127314e-39
0.21395743 1.8537489 -1.4822075 5.887882e-39
0.21331216 1.8639642 -1.478124 5.796764e-39
0.21246473 1.8727136 -1.4747077 5.9818685e-39
0.21365665 1.8779622 -1.4721892 4.5060406e-39
0.21435536 1.8848999 -1.4691019 6.0737026e-39
0.21417663 1.8948053 -1.4650186 7.4559042e-39
0.21487667 1.9017634 -1.4619226 7.2715241e-39
0.21025439 1.9110255 -1.4593347 4.8723106e-39
0.20709175 1.92893 -1.4527383 4.6897158e-39
0.20786163 1.9328004 -1.450911 4.5064147e-39
0.20636508 1.9426391 -1.4472197 5.0577724e-39
0.20673622 1.9498338 -1.4441155 4.8733882e-39
0.20710768 1.9570283 -1.4410117 5.2410875e-39
0.20747922 1.9642229 -1.4379075 4.9652237e-39
0.20294577 1.9774954 -1.4336219 5.2439559e-39
0.20172024 1.9812819 -1.4323806 5.1510428e-39
0.20244674 1.9883481 -1.4292321 5.0595633e-39
0.20238452 1.9981052 -1.4251786 4.7833379e-39
0.20104721 2.0223489 -1.4154336 4.782982e-39
0.20078693 2.0328321 -1.411132 4.5067552e-39
0.1984382 2.0438449 -1.4071862 4.506758e-39
0.19679448 2.0534661 -1.403626 4.4149211e-39
0.19595878 2.0661981 -1.398545 4.41564e-39
0.19554274 2.0774577 -1.3939625 4.782982e-39
0.19615392 2.0888388 -1.3890457 4.6911465e-39
0.1946377 2.0943892 -1.3871489 4.5063979e-39
0.19443242 2.1052167 -1.3826883 4.4149197e-39
0.1951178 2.1054041 -1.3824208 4.690785e-39
0.19117805 2.1323388 -1.3722717 3.768128e-39
0.17120036 2.3800888 -1.2744284 2.0272179e-39
0.21426262 1.7190521 -1.5383176 1.9718664e-38
0.22029945 1.7235366 -1.5347799 6.4406886e-39
0.21714777 1.7542994 -1.5228163 7.7419078e-39
0.21556382 1.7633897 -1.519461 8.3876331e-39
0.21067484 1.7802368 -1.5137826 6.1655493e-39
0.21140167 1.7845623 -1.5117773 5.7027873e-39
0.21209235 1.791396 -1.5087357 5.5176716e-39
0.21112405 1.7984241 -1.5060709 7.8250468e-39
0.21131204 1.8068686 -1.502496 8.1019924e-39
0.21125799 1.8159319 -1.4987298 6.9927848e-39
0.2110579 1.8256062 -1.494749 5.4279927e-39
0.2054098 1.8405405 -1.490078 5.3365187e-39
0.20569536 1.8462304 -1.4876254 5.7971227e-39
0.20608647 1.8571985 -1.4829416 5.9815126e-39
0.20445006 1.8680182 -1.4788795 5.796764e-39
0.20386431 1.8740876 -1.4765092 5.981514e-39
0.20415166 1.8854076 -1.4717071 4.1401377e-39
0.20554848 1.8893254 -1.4696871 5.7960493e-39
0.2062674 1.8973829 -1.4661272 7.2718772e-39
0.20282321 1.9051849 -1.4638231 7.4530371e-39
0.20061584 1.9113295 -1.4618691 5.7949689e-39
0.19995584 1.9217342 -1.4577105 3.5876856e-39
0.19906937 1.9330548 -1.4532324 4.4142121e-39
0.19971672 1.9376436 -1.4511392 4.9666558e-39
0.19968577 1.9470847 -1.447209 5.1506827e-39
0.19915701 1.9579346 -1.4428285 5.4261864e-39
0.19828486 1.9694088 -1.4382825 5.1496037e-39
0.19840071 1.9745052 -1.4361243 4.783698e-39
0.19478151 1.9836898 -1.4332919 4.8748147e-39
0.19562845 1.9963075 -1.427794 4.6918611e-39
0.19536766 2.0065646 -1.4235867 4.9677306e-39
0.19363645 2.0227344 -1.4173189 4.6915038e-39
0.19357134 2.0325992 -1.4132214 4.7822701e-39
0.19430828 2.0397551 -1.4100326 4.5985935e-39
0.19272107 2.0430896 -1.4090797 4.7829876e-39
0.1875512 2.0599215 -1.4034849 4.6900689e-39
0.18749292 2.0698805 -1.3993461 4.5063979e-39
0.1874337 2.0798709 -1.3951946 4.7819128e-39
0.18584393 2.0947094 -1.3894432 4.1376224e-39
0.18613672 2.0981026 -1.3879467 4.322371e-39
0.18664451 2.1031544 -1.3856989 4.323443e-39
0.18764019 2.1088288 -1.3830566 4.0450666e-39
0.16346793 2.3810174 -1.2761757 2.1190604e-39
0.20537198 1.7200567 -1.5403533 1.9812661e-38
0.20889941 1.7190325 -1.5398065 2.1473273e-38
0.20888774 1.7669806 -1.5198063 8.0195624e-39
0.20428194 1.7760465 -1.5172956 5.982593e-39
0.20410885 1.7854049 -1.5134392 5.2421763e-39
0.2048025 1.7922379 -1.5103971 6.1623123e-39
0.20402791 1.8020996 -1.5064967 7.7321477e-39
0.20400663 1.8077219 -1.5041571 8.1941979e-39
0.20302574 1.8195734 -1.4994833 6.5336031e-39
0.20280825 1.830006 -1.4951911 5.336146e-39
0.20237704 1.8359709 -1.4928217 5.8889694e-39
0.19831075 1.8471022 -1.4893006 5.79748e-39
0.19953676 1.8536316 -1.486238 6.1659024e-39
0.19515154 1.8628684 -1.4835951 6.0729879e-39
0.19651537 1.8720863 -1.4793731 6.3474252e-39
0.19646119 1.8804449 -1.4759009 5.0599262e-39
0.19717614 1.8874099 -1.4727978 4.8748161e-39
0.19762103 1.893392 -1.4701792 6.8105446e-39
0.19777095 1.9013658 -1.4668114 7.2704367e-39
0.19514175 1.9121455 -1.46304 5.7045683e-39
0.19114906 1.9233892 -1.4594517 5.0574151e-39
0.19093852 1.9334294 -1.4553211 5.0584913e-39
0.19150762 1.9411445 -1.4519453 4.7808324e-39
0.19188218 1.9483196 -1.4488485 4.8733854e-39
0.19120628 1.9588413 -1.4446454 4.5074783e-39
0.19045486 1.9696424 -1.4403468 4.8737385e-39
0.19004752 1.9780222 -1.4369633 5.1510386e-39
0.1858388 1.9912624 -1.4326017 5.1513974e-39
0.19150892 1.9921838 -1.4306517 5.2425196e-39
0.18866254 1.9951575 -1.430197 4.7822673e-39
0.18788731 2.0074682 -1.4252751 4.5993124e-39
0.18465133 2.012665 -1.4240005 5.0588486e-39
0.18308961 2.0470748 -1.4100763 4.6900689e-39
0.18420444 2.0530367 -1.4072812 4.8737385e-39
0.17719401 2.0721858 -1.401228 4.323443e-39
0.17857435 2.0798607 -1.3976449 4.8758909e-39
0.18002521 2.0901575 -1.3929485 4.6918611e-39
0.17759027 2.0989108 -1.3899691 3.5876842e-39
0.17910562 2.1023951 -1.388097 3.9539486e-39
0.17392659 2.122735 -1.3810413 3.9532311e-39
0.17753063 2.1398175 -1.3729196 4.23089e-39
0.1551127 2.3770757 -1.2801272 1.5665942e-39
0.15488732 2.3785052 -1.2795929 1.7520645e-39
0.2021883 1.7574905 -1.5256151 7.9259361e-39
0.20163815 1.7678081 -1.5214628 8.1110434e-39
0.19612466 1.7794155 -1.5181423 6.0733579e-39
0.19682154 1.7862474 -1.5150998 4.4138505e-39
0.19699413 1.794686 -1.5115316 6.5318067e-39
0.19821468 1.7999119 -1.5090145 8.0105185e-39
0.19670646 1.8085749 -1.5058166 8.2867536e-39
0.19569565 1.8204176 -1.501155 6.2559429e-39
0.19582897 1.8290855 -1.4975022 5.611658e-39
0.19278078 1.8424995 -1.4927475 5.7042124e-39
0.19215474 1.8469633 -1.4910581 6.1644647e-39
0.18767309 1.859624 -1.4870135 5.6123741e-39
0.18754967 1.864338 -1.4850808 6.0733467e-39
0.18881766 1.9012483 -1.4693323 7.5473907e-39
0.189541 1.9082179 -1.4662249 6.4396138e-39
0.18521313 1.9202738 -1.4623902 4.3220094e-39
0.18298405 1.9324539 -1.4579242 5.2410917e-39
0.18371239 1.9394829 -1.4547906 5.1496065e-39
0.18489431 1.9483656 -1.4507586 5.2421581e-39
0.18118276 1.9704581 -1.4425665 4.9670117e-39
0.18109445 1.9801501 -1.4385475 4.9677292e-39
0.1797086 1.9882895 -1.4355344 5.2435986e-39
0.17759268 1.9977974 -1.4321519 4.9670243e-39
0.18118575 1.9979144 -1.4311111 4.9662942e-39
0.17707793 2.0239091 -1.4214005 5.0588444e-39
0.17554531 2.0574403 -1.4078349 4.5989495e-39
0.17463015 2.0598733 -1.4070723 4.690785e-39
0.17271553 2.0720162 -1.4025352 4.4149197e-39
0.17132616 2.0847349 -1.3976126 4.2301725e-39
0.16953726 2.108351 -1.3882542 3.9528724e-39
0.16992982 2.1157506 -1.3850586 3.9528724e-39
0.16827054 2.1379564 -1.3762528 4.3227325e-39
0.17012765 2.1407421 -1.3745778 3.9568184e-39
0.19479363 1.720649 -1.5430268 1.9536434e-38
0.19650538 1.7300221 -1.5386437 6.7176441e-39
0.19586141 1.7395322 -1.5348539 7.0003799e-39
0.19521433 1.7577944 -1.5274138 7.8348139e-39
0.19362715 1.7692577 -1.5230696 7.8340908e-39
0.19004551 1.7752167 -1.5215725 6.3549908e-39
0.18783902 1.7899079 -1.5160526 4.8723162e-39
0.18899795 1.7961918 -1.513111 4.8723232e-39
0.1881212 1.7999927 -1.5117674 6.9030961e-39
0.18848705 1.8069824 -1.5087503 8.1012666e-39
0.18797959 1.8156319 -1.5052819 7.7314317e-39
0.18772657 1.8253063 -1.501316 5.6113035e-39
0.18616579 1.8340719 -1.4980897 5.4287059e-39
0.18533032 1.8456366 -1.4934958 5.9807923e-39
0.18498352 1.8515681 -1.4911169 6.2570204e-39
0.18238978 1.8860233 -1.4774587 5.4272626e-39
0.18138303 1.9021225 -1.4710202 7.5470194e-39
0.18210936 1.9090919 -1.467912 6.1612319e-39
0.17731683 1.9237368 -1.4631255 4.5975159e-39
0.17562078 1.9330797 -1.4596959 4.5985977e-39
0.17635596 1.9401047 -1.4565622 4.9659355e-39
0.17533773 1.9525859 -1.4516363 5.4265451e-39
0.17288767 1.9642593 -1.4474428 5.1506827e-39
0.17249748 1.9708625 -1.4447957 5.3354327e-39
0.17069815 1.9857608 -1.439077 5.1521246e-39
0.17245375 1.9891127 -1.437194 5.2446678e-39
0.1701206 1.9964528 -1.4347758 5.2439503e-39
0.17602575 2.0003021 -1.4315397 4.2312487e-39
0.17387652 2.0025463 -1.4311968 4.7826261e-39
0.16998585 2.0241923 -1.4232404 4.5071168e-39
0.17009155 2.0425036 -1.4155719 5.3332761e-39
0.16814242 2.066638 -1.4060414 4.0450666e-39
0.1642206 2.0756676 -1.4033571 4.5060462e-39
0.16327626 2.0887842 -1.3981457 4.5982334e-39
0.16085644 2.100981 -1.3937255 4.5975145e-39
0.16078958 2.111021 -1.3895552 4.1379783e-39
0.16155876 2.1182921 -1.3863096 4.2305313e-39
0.16119942 2.1312904 -1.3809859 4.23089e-39
0.18811747 1.7198668 -1.5451963 1.9998141e-38
0.18939979 1.7218602 -1.5440106 8.2809859e-39
0.18698154 1.7438242 -1.5355151 7.1844054e-39
0.18734628 1.7507331 -1.5325321 7.3734784e-39
0.18595909 1.769976 -1.524887 8.2025216e-39
0.18167388 1.7832112 -1.5205485 6.906015e-39
0.18395813 1.7863925 -1.5185908 5.6988412e-39
0.18130711 1.7970599 -1.5148723 4.781903e-39
0.18003662 1.800601 -1.5137458 7.7328596e-39
0.18074834 1.8074507 -1.5106915 8.1931147e-39
0.18145981 1.8143004 -1.5076376 7.6388759e-39
0.18120514 1.8250283 -1.5032322 5.8871757e-39
0.17783532 1.8377542 -1.4988536 5.5205456e-39
0.17726636 1.8456215 -1.4957285 6.2570204e-39
0.17769325 1.856298 -1.4911565 6.0729879e-39
0.17841728 1.863242 -1.4880596 6.2566673e-39
0.17396413 1.8732127 -1.4851294 6.4424837e-39
0.17462714 1.8800359 -1.4820997 5.1514254e-39
0.17432024 1.8902409 -1.477927 7.3633666e-39
0.17498668 1.8970388 -1.474907 7.5473823e-39
0.174683 1.9099649 -1.4695983 5.7016957e-39
0.16967557 1.9220332 -1.465946 5.0584871e-39
0.16806479 1.936221 -1.4604716 4.9666572e-39
0.16926751 1.9501562 -1.454326 5.2439559e-39
0.16483693 1.9823141 -1.4421332 5.6102203e-39
0.16164345 2.0047715 -1.4336457 4.6943723e-39
0.16345097 2.0080338 -1.4317858 5.0581325e-39
0.1624362 2.0506959 -1.4142677 4.4149197e-39
0.16366963 2.0597816 -1.4101368 4.5975145e-39
0.15850806 2.0699289 -1.4073285 4.7829792e-39
0.15808627 2.0808978 -1.402869 4.8762496e-39
0.15277517 2.1028576 -1.3951738 3.9528724e-39
0.15317056 2.1102579 -1.3919773 3.6784449e-39
0.15356612 2.1176579 -1.3887808 3.4944124e-39
0.14972802 2.1269543 -1.3859621 4.323443e-39
0.15186162 2.1294382 -1.3843368 4.5060378e-39
0.15380442 2.1321952 -1.3826501 4.2305313e-39
0.14893629 2.1562302 -1.3739672 2.8497758e-39
0.18236719 1.7214215 -1.5461352 2.0827905e-38
0.17990594 1.7275379 -1.5442631 7.8185756e-39
0.18208177 1.731393 -1.5420541 6.8995004e-39
0.1801873 1.7374462 -1.5400518 7.1797096e-39
0.17816317 1.7569033 -1.5324932 7.6497107e-39
0.1787436 1.7670902 -1.5280831 8.1106833e-39
0.17498326 1.7785056 -1.524359 7.6482576e-39
0.17569809 1.785355 -1.521304 5.3347208e-39
0.17660476 1.7942647 -1.5173366 4.3202172e-39
0.17170042 1.8012736 -1.5157666 7.8257643e-39
0.17299786 1.8064772 -1.5132377 8.1927531e-39
0.17416184 1.815152 -1.509297 6.8094796e-39
0.17081785 1.8345814 -1.5021147 5.5212561e-39
0.16894403 1.8520809 -1.4953314 5.8885981e-39
0.16967434 1.859035 -1.4922285 6.1644661e-39
0.17050222 1.8631396 -1.4902877 6.1651822e-39
0.1684922 1.8776336 -1.4847959 6.1655381e-39
0.16954207 1.8839151 -1.4818854 6.3481385e-39
0.16516924 1.8918135 -1.4797976 6.6254372e-39
0.16623655 1.9016428 -1.4754021 7.4552021e-39
0.16541904 1.9086581 -1.4727012 6.5310934e-39
0.16577268 1.9173356 -1.4689833 4.5967971e-39
0.1612841 1.9301381 -1.4648815 5.0595647e-39
0.16196835 1.9370223 -1.4618205 5.0595675e-39
0.16265221 1.9439065 -1.4587598 4.9691655e-39
0.15493348 1.9675826 -1.4510134 4.8755377e-39
0.158585 1.9653966 -1.4509171 5.0599248e-39
0.15927534 1.9723234 -1.4478368 5.3357858e-39
0.15749073 1.9869435 -1.4422302 5.5183848e-39
0.15437122 2.0055995 -1.4353082 4.9684438e-39
0.15506718 2.0125964 -1.4321971 4.4181483e-39
0.15337749 2.0560398 -1.4145395 4.322008e-39
0.15254892 2.0723872 -1.4079481 4.5982334e-39
0.15000564 2.0906155 -1.4010457 4.5067566e-39
0.1440431 2.1131468 -1.3932922 4.5985907e-39
0.14489923 2.1144164 -1.3925261 3.8606782e-39
0.14529766 2.1218162 -1.3893288 3.6766484e-39
0.14362079 2.1305625 -1.386143 4.0461428e-39
0.14432995 2.1341522 -1.3844496 4.5053259e-39
0.14571224 2.1448965 -1.3795856 3.5898352e-39
0.12309989 2.3814483 -1.2871416 1.9339376e-39
0.17071775 1.7249106 -1.547896 2.1195962e-38
0.17696434 1.7218059 -1.5474665 8.8352289e-39
0.17178001 1.736354 -1.5428287 7.2715521e-39
0.17160825 1.7486408 -1.53775 7.280924e-39
0.17034067 1.7593189 -1.5336453 7.6500723e-39
0.16836645 1.7688355 -1.53022 8.0184877e-39
0.16844125 1.7774143 -1.5266205 7.0957985e-39
0.16840112 1.7861966 -1.5229676 5.7031334e-39
0.16853337 1.7946842 -1.5193901 4.2280201e-39
0.16570033 1.8073176 -1.5149018 8.1931245e-39
0.1667638 1.814082 -1.5117862 7.5491816e-39
0.16742167 1.8208011 -1.5088013 5.244672e-39
0.16308512 1.8337884 -1.5045805 5.520903e-39
0.16171433 1.8492334 -1.4985155 5.7035076e-39
0.16199821 1.8540798 -1.4964153 5.9801001e-39
0.16253978 1.8650001 -1.4917097 6.0726376e-39
0.16147809 1.8721715 -1.489011 6.2573778e-39
0.1599579 1.8780299 -1.4869868 6.1637472e-39
0.16198154 1.8851318 -1.4834651 5.2425196e-39
0.15671267 1.8956484 -1.4805324 6.8098243e-39
0.15745507 1.9026316 -1.4774143 7.5466663e-39
0.15819721 1.9096152 -1.4742957 6.3484986e-39
0.15488057 1.9325776 -1.4656317 4.8744615e-39
0.15424855 1.9402153 -1.4626198 4.7826233e-39
0.15319911 1.9562415 -1.4562236 5.0588486e-39
0.14804833 1.9662943 -1.4534518 5.05885e-39
0.14336915 2.0589151 -1.4161031 4.5067552e-39
0.14229067 2.0744643 -1.409914 3.9528724e-39
0.14045562 2.0767031 -1.4094865 4.690785e-39
0.14078458 2.0855095 -1.4057217 4.5985907e-39
0.14150006 2.1039047 -1.3978499 4.4142023e-39
0.13623989 2.1166704 -1.3939764 4.2294551e-39
0.13702528 2.1239529 -1.3907214 4.0461442e-39
0.13751502 2.1301603 -1.3879966 3.8606852e-39
0.13742137 2.1361139 -1.3855387 3.9543073e-39
0.11293896 2.3842914 -1.2887605 1.9339432e-39
0.16201943 1.7227862 -1.5511838 2.0458757e-38
0.16715948 1.7282952 -1.5474663 1.5474409e-38
0.16752915 1.7352047 -1.5444816 5.9757644e-39
0.16359292 1.7426211 -1.5424744 6.6287135e-39
0.16396244 1.7495307 -1.5394897 7.0968929e-39
0.16309372 1.7601556 -1.5352969 7.5589486e-39
0.16111976 1.7723901 -1.5307378 7.2830876e-39
0.16115674 1.7782656 -1.5282766 6.6337357e-39
0.16050716 1.7886781 -1.5241119 5.3325712e-39
0.16123083 1.7955363 -1.5210508 5.2389365e-39
0.16092369 1.8051549 -1.5171229 7.7332183e-39
0.15675351 1.8126156 -1.5151616 7.8257713e-39
0.15878236 1.8176883 -1.5124853 7.1778907e-39
0.15538611 1.8293988 -1.5085373 5.6116594e-39
0.15605515 1.8346215 -1.5061737 5.6127455e-39
0.15449059 1.8497906 -1.5002774 5.521619e-39
0.15522867 1.8567294 -1.4971787 5.8885995e-39
0.15513879 1.8658733 -1.4933889 6.0722705e-39
0.15218213 1.8720722 -1.4916191 6.4421278e-39
0.15149176 1.8825977 -1.4874184 4.8748287e-39
0.14722435 1.8898728 -1.4855616 4.41241e-39
0.14879495 1.8946227 -1.4831463 6.8109047e-39
0.14954157 1.9016057 -1.4800268 7.4541147e-39
0.15075879 1.910503 -1.4759791 6.0722705e-39
0.14996941 1.921918 -1.4714347 4.4149211e-39
0.14721413 1.9358884 -1.4663672 4.2291005e-39
0.145118 1.9424077 -1.4642262 4.6904262e-39
0.14835565 1.9455866 -1.462006 4.9677292e-39
0.14075825 1.9723333 -1.452945 4.7833435e-39
0.1442592 1.9705347 -1.4527287 4.6940135e-39
0.14359626 1.9814138 -1.4483731 5.1521232e-39
0.13631663 2.0045464 -1.4407324 4.782982e-39
0.13930677 2.0034685 -1.4403564 4.69258e-39
0.1385536 2.0147626 -1.4358526 4.9670089e-39
0.14110428 2.034704 -1.426829 4.8748147e-39
0.13608696 2.0552106 -1.4196591 3.9535899e-39
0.13566457 2.0620401 -1.4169265 4.5975145e-39
0.13282749 2.0804985 -1.4100093 3.9561024e-39
0.1303234 2.0949667 -1.4046644 4.0450666e-39
0.12834384 2.1115806 -1.39828 4.2323249e-39
0.12908542 2.1187286 -1.3950931 3.8646242e-39
0.12982666 2.1258769 -1.3919061 3.956101e-39
0.12805781 2.1385775 -1.387096 4.0461428e-39
0.12814501 2.1437073 -1.3849319 3.8606782e-39
0.15473413 1.7236401 -1.552839 2.0734622e-38
0.1600498 1.7278025 -1.5496347 1.2342289e-38
0.1614227 1.7328646 -1.5471439 6.43783e-39
0.15675189 1.7502854 -1.5411656 7.6497023e-39
0.15559782 1.7599751 -1.537442 7.3731182e-39
0.15387723 1.7791171 -1.5299311 6.3539146e-39
0.15148351 1.7940444 -1.5243645 5.1478198e-39
0.1522153 1.8009324 -1.5212888 5.7027705e-39
0.15114903 1.8080475 -1.5186146 7.5498991e-39
0.14943151 1.8134701 -1.5168266 7.8254083e-39
0.15179248 1.8184991 -1.5140769 6.9009493e-39
0.1473002 1.834285 -1.5087315 5.4283528e-39
0.14703947 1.8528453 -1.5010602 5.7060033e-39
0.1469449 1.8619725 -1.4972786 6.1655423e-39
0.14518528 1.8710613 -1.4939725 6.1651836e-39
0.14404298 1.8831496 -1.4892447 5.8889624e-39
0.13850346 1.897764 -1.4846772 3.583378e-39
0.13870955 1.902799 -1.4825197 6.9956561e-39
0.14029947 1.9075774 -1.4800873 7.1789641e-39
0.14105432 1.9145918 -1.4769526 6.2573736e-39
0.14097308 1.9238842 -1.4730984 4.3209318e-39
0.1402164 1.9352101 -1.468582 4.5063993e-39
0.13827464 1.9447924 -1.4651207 4.7833477e-39
0.13874228 1.9528134 -1.4616452 5.4265479e-39
0.13624646 1.9551427 -1.4613625 5.1506813e-39
0.13706641 1.9714018 -1.454353 5.3357858e-39
0.13249364 1.9900848 -1.4478211 4.9673704e-39
0.1286615 2.0054474 -1.4424701 4.6000271e-39
0.12943722 2.0126364 -1.4392565 4.7822631e-39
0.1279978 2.0561638 -1.4214947 3.9535899e-39
0.12613249 2.0688303 -1.4167255 4.5063965e-39
0.1213291 2.0936561 -1.4076946 3.5876828e-39
0.12426362 2.1105669 -1.3998294 3.5869653e-39
0.12328473 2.1169684 -1.397429 4.2298138e-39
0.12370118 2.1290476 -1.3922746 3.5876828e-39
0.11780963 2.1376514 -1.3903118 4.1379783e-39
0.11949623 2.1422172 -1.3879414 3.8628306e-39
0.14699514 1.7226346 -1.5553951 2.0732823e-38
0.14857009 1.72751 -1.5529263 2.1934973e-38
0.15176597 1.728379 -1.5516815 1.5566988e-38
0.15365212 1.733565 -1.5489973 6.0690349e-39
0.15019427 1.7561839 -1.5405155 7.8340992e-39
0.14518157 1.7769229 -1.5332474 7.1872949e-39
0.14463115 1.8017684 -1.5230339 6.165185e-39
0.14152099 1.805739 -1.5222361 7.6435268e-39
0.14220667 1.8124906 -1.51923 8.0098108e-39
0.14404024 1.8161622 -1.5171921 7.8250454e-39
0.13934001 1.8301934 -1.5126361 4.8730294e-39
0.1407707 1.8430164 -1.5068915 5.6131e-39
0.13857171 1.8565785 -1.5018406 5.9800776e-39
0.13663405 1.8695484 -1.4969646 5.5208959e-39
0.13669391 1.8748314 -1.4947441 6.0726404e-39
0.13552505 1.8869307 -1.4900191 5.7960507e-39
0.13596867 1.8913985 -1.4880327 5.3336376e-39
0.1312249 1.9036815 -1.4842181 6.9034548e-39
0.13282841 1.9084709 -1.4817773 7.1789655e-39
0.13358636 1.9154848 -1.478642 6.3477755e-39
0.13092503 1.9270078 -1.4745693 4.5060378e-39
0.13092932 1.9362324 -1.4707197 4.598232e-39
0.13160498 1.9433744 -1.4675537 4.7829834e-39
0.13321309 1.9481237 -1.4651283 5.0588472e-39
0.12758102 1.9706231 -1.4572968 4.8751776e-39
0.12793975 1.9868836 -1.4504138 4.8766153e-39
0.12330016 2.0057712 -1.4438152 4.5989509e-39
0.12323626 2.0153084 -1.439854 4.5985907e-39
0.11551099 2.0882051 -1.411575 4.4149197e-39
0.11350545 2.1020832 -1.4063388 3.9528724e-39
0.11263523 2.1133232 -1.4018899 3.8613956e-39
0.11791371 2.1035886 -1.4044938 4.5060378e-39
0.11021341 2.1207035 -1.3994795 4.2298138e-39
0.11183155 2.1331038 -1.3938595 3.4036531e-39
0.10918763 2.1531658 -1.3862197 3.7699189e-39
0.087307073 2.3887668 -1.2939703 1.4754762e-39
0.091207333 2.3853738 -1.294309 1.5680376e-39
0.13971806 1.7234763 -1.5570531 2.0824301e-38
0.14130668 1.7283607 -1.5545769 2.1935698e-38
0.14455059 1.7292237 -1.5533211 1.2521675e-38
0.14527524 1.736001 -1.5502936 6.5307305e-39
0.14498882 1.7447798 -1.5467103 7.0871735e-39
0.13839275 1.7663796 -1.53952 7.2812799e-39
0.13789743 1.7727634 -1.5369937 8.2025146e-39
0.13941334 1.7763824 -1.5350653 6.4471907e-39
0.13682733 1.7891339 -1.5304595 5.8853891e-39
0.13599692 1.7985485 -1.5267611 4.3202228e-39
0.13538931 1.8058578 -1.5238795 7.362282e-39
0.13613254 1.8127509 -1.5207986 7.7342903e-39
0.13796681 1.8168577 -1.5185788 7.5473977e-39
0.13674074 1.8266479 -1.5148329 5.6109392e-39
0.131882 1.8378906 -1.5114839 5.3368662e-39
0.13152412 1.8476518 -1.5075105 5.4297793e-39
0.13116971 1.8574526 -1.5035195 5.8893155e-39
0.13035972 1.8685014 -1.4991337 5.8896771e-39
0.12739691 1.8807023 -1.4948616 6.0733439e-39
0.12730046 1.8899057 -1.4910487 5.6109392e-39
0.1280604 1.8969331 -1.4879072 5.2417993e-39
0.1237452 1.9045635 -1.4859152 7.0864098e-39
0.12561509 1.9086149 -1.4837087 7.2704423e-39
0.12455475 1.9206291 -1.4789892 5.7938871e-39
0.12293678 1.9259158 -1.4772303 4.1394188e-39
0.12342005 1.9371421 -1.4724135 4.4152841e-39
0.12410539 1.9442571 -1.4692559 4.5078384e-39
0.12481532 1.9534694 -1.4652166 5.2421567e-39
0.1255817 1.9605216 -1.462063 4.8744573e-39
0.12292086 1.9705063 -1.458632 4.0461428e-39
0.11993604 1.9852203 -1.4533175 4.0468603e-39
0.1167324 2.002661 -1.4469261 4.8758909e-39
0.11443904 2.0195904 -1.4404964 4.3223668e-39
0.1164764 2.0233085 -1.4383827 4.1386958e-39
0.11164284 2.060576 -1.4241698 4.2294551e-39
0.11278205 2.0707271 -1.4196202 4.1394132e-39
0.13132879 1.7268764 -1.5579509 2.082574e-38
0.13364781 1.7300774 -1.5559752 2.2119367e-38
0.13630079 1.7324934 -1.5542349 1.0218182e-38
0.13768454 1.7376872 -1.5516859 6.8083992e-39
0.13597398 1.7462953 -1.5485671 7.5495922e-39
0.13670537 1.7530903 -1.5455303 7.8326587e-39
0.12984066 1.7798824 -1.5362481 7.556055e-39
0.12899667 1.7897433 -1.5323673 5.6087952e-39
0.12978399 1.7949545 -1.5299759 3.9532339e-39
0.12818255 1.8076307 -1.5251297 6.3506454e-39
0.12943529 1.8089241 -1.5242441 7.5495431e-39
0.13018064 1.8157976 -1.5211707 7.825421e-39
0.13028914 1.8274038 -1.5162987 5.5187478e-39
0.12404214 1.8368165 -1.5140966 5.4287059e-39
0.12207288 1.8506118 -1.5088851 5.6130944e-39
0.1217058 1.8604372 -1.5048875 5.7056389e-39
0.11980025 1.869728 -1.5015374 5.8889554e-39
0.11982881 1.8786736 -1.4977975 5.7070809e-39
0.12021077 1.8866326 -1.4943717 5.7964094e-39
0.12097535 1.8936459 -1.4912347 4.6879193e-39
0.11729687 1.9003525 -1.4894522 6.9031017e-39
0.1206862 1.9002029 -1.488579 7.4555678e-39
0.11624332 1.9166299 -1.4829526 6.7172741e-39
0.11709911 1.9186721 -1.4818642 4.5967971e-39
0.11508174 1.9331454 -1.476383 4.1390587e-39
0.11585542 1.9401948 -1.4732285 4.5064035e-39
0.11543199 1.9505049 -1.4690441 4.690429e-39
0.11612939 1.9576206 -1.465883 5.0581283e-39
0.11419826 1.967182 -1.4624273 4.7826261e-39
0.1125216 1.9811318 -1.4570704 4.6915024e-39
0.10963571 1.9932747 -1.4528013 4.7829848e-39
