# .PCD v0.7 - Point Cloud Data file format
VERSION 0.7
FIELDS x y z rgb
SIZE 4 4 4 4
TYPE F F F F
COUNT 1 1 1 1
WIDTH 1045
HEIGHT 1
VIEWPOINT 0 0 0 1 0 0 0
POINTS 1045
DATA ascii
-1.0942578 0.25858709 2.1977134 6.3366492e-39
-1.0939213 0.26262814 2.1977842 6.4284847e-39
-1.0935848 0.26666933 2.197855 6.3366492e-39
-1.0932482 0.27071035 2.1979258 6.3366492e-39
-1.0929117 0.27475148 2.1979966 6.3366492e-39
-1.0925751 0.27879253 2.1980674 6.3366492e-39
-1.0922385 0.28283373 2.1981382 6.4284847e-39
-1.091902 0.28687477 2.198209 6.4284847e-39
-1.0885756 0.28940758 2.183444 6.4284847e-39
-1.0882413 0.29342288 2.1835144 6.1529782e-39
-1.081936 0.29431865 2.1539123 6.4284847e-39
-1.0816058 0.29828247 2.1539817 6.7039912e-39
-1.0785075 0.30075023 2.1402736 6.2448137e-39
-1.0781794 0.30469027 2.1403427 6.2448137e-39
-1.0778512 0.30863017 2.1404116 5.9700247e-39
-1.0775231 0.31257021 2.1404808 5.9700247e-39
-1.0771949 0.31651014 2.1405499 5.9700247e-39
-1.0738964 0.31871021 2.1257794 5.7856363e-39
-1.0735705 0.32262439 2.1258478 5.8778305e-39
-1.0732445 0.32653868 2.1259165 6.0622189e-39
-1.0758826 0.33227006 2.140826 6.0622189e-39
-1.0755544 0.33621013 2.1408949 5.9700247e-39
-1.0752263 0.34015 2.140964 6.0622189e-39
-1.0748982 0.34409007 2.1410329 6.4284847e-39
-1.0745701 0.34803 2.1411021 6.2448137e-39
-1.1330267 -0.014020157 2.2693086 4.3314023e-39
-1.132679 -0.0098448452 2.2693818 4.2392067e-39
-1.1323313 -0.0056695323 2.269455 4.2392067e-39
-1.1319835 -0.0014942202 2.2695282 4.2392067e-39
-1.1316359 0.0026810472 2.2696013 3.964059e-39
-1.1312882 0.0068564145 2.2696743 4.1470055e-39
-1.1309404 0.011031662 2.2697475 4.1470055e-39
-1.1305926 0.015207034 2.2698207 4.1470055e-39
-1.130245 0.019382292 2.2698939 3.8718633e-39
-1.1298972 0.023557657 2.2699671 3.8700641e-39
-1.1295495 0.027732911 2.27004 3.7800208e-39
-1.1292018 0.031908277 2.2701132 3.6878252e-39
-1.128854 0.036083534 2.2701864 3.4123075e-39
-1.1318507 0.040167451 2.286119 3.4122977e-39
-1.1315007 0.044370268 2.2861927 3.3201119e-39
-1.1311506 0.048573226 2.2862663 3.6885244e-39
-1.1308006 0.052776057 2.28634 3.4122977e-39
-1.1337857 0.056997828 2.3022752 3.5948911e-39
-1.1334335 0.061228238 2.3023493 3.3179455e-39
-1.1330812 0.065458775 2.3024235 3.0417173e-39
-1.1320771 0.068331726 2.2988384 7.0983558e-39
-1.1315663 0.074816294 2.2990911 6.7288489e-39
-1.1287005 0.077993505 2.2867818 1.9353655e-39
-1.1283505 0.08219634 2.2868555 2.4849436e-39
-1.1313195 0.086611174 2.302794 1.5619209e-39
-1.1309674 0.090841584 2.3028681 1.8381575e-39
-1.130615 0.095072113 2.3029423 7.3469798e-40
-1.1302626 0.099302515 2.3030164 1.6534075e-39
-1.1306413 0.10432747 2.3068936 7.2762745e-39
-1.1295581 0.10776347 2.3031647 3.3060877e-39
-1.1299355 0.11314931 2.3071854 7.4599483e-39
-1.1288533 0.11622439 2.3033128 3.3060877e-39
-1.1285012 0.12045493 2.3033869 3.2142438e-39
-1.1281488 0.12468532 2.3034611 3.8570908e-39
-1.1313123 0.12943603 2.3204629 4.4999393e-39
-1.1274443 0.13314639 2.3036094 4.0414793e-39
-1.1217003 0.16205132 2.2882545 5.2346233e-39
-1.1213502 0.16625427 2.2883282 5.2346233e-39
-1.1210002 0.17045709 2.2884016 5.2346233e-39
-1.1173793 0.17386901 2.2726004 5.2346233e-39
-1.1170317 0.17804429 2.2726736 5.6938008e-39
-1.1130722 0.18552111 2.2569432 5.6938008e-39
-1.108779 0.19700792 2.2412834 6.0611427e-39
-1.1084359 0.20112811 2.2413557 6.0611427e-39
-1.1080927 0.20524822 2.2414277 6.0611427e-39
-1.1044992 0.20832916 2.2256203 5.7856363e-39
-1.1041585 0.2124217 2.225692 5.7856363e-39
-1.1038177 0.21651435 2.2257638 5.7856363e-39
-1.1034769 0.22060688 2.2258356 6.0611427e-39
-1.106377 0.22584906 2.2417886 6.1529782e-39
-1.1027952 0.22879203 2.2259789 6.1529782e-39
-1.1024544 0.23288468 2.2260506 6.1529782e-39
-1.1021135 0.23697717 2.2261224 6.1529782e-39
-1.1017727 0.24106981 2.2261939 6.5203202e-39
-1.101432 0.24516235 2.2262657 6.3366492e-39
-1.098079 0.24802764 2.2115121 5.8774718e-39
-1.1007502 0.25334761 2.2264092 5.8778305e-39
-1.1004094 0.25744012 2.2264807 6.3366492e-39
-1.1000684 0.26153275 2.2265525 6.3366492e-39
-1.0967243 0.26429498 2.2117972 6.4284847e-39
-1.0963856 0.2683619 2.2118683 6.4284847e-39
-1.0960469 0.27242866 2.2119396 6.3366492e-39
-1.0957081 0.27649558 2.2120109 6.3366492e-39
-1.0953695 0.28056234 2.2120821 6.3366492e-39
-1.0950308 0.28462926 2.2121534 6.3366492e-39
-1.0946921 0.28869602 2.2122247 6.3366492e-39
-1.0943534 0.29276294 2.2122958 6.4284847e-39
-1.0910285 0.29529351 2.1975365 6.3366492e-39
-1.0877076 0.29777265 2.182776 6.4284847e-39
-1.0873733 0.30178797 2.1828463 6.2451725e-39
-1.0840589 0.30418998 2.1680846 6.2448137e-39
-1.0837266 0.30817965 2.1681545 5.9700247e-39
-1.0804188 0.31050435 2.1533916 6.4284847e-39
-1.0773276 0.31289831 2.1396871 5.9700247e-39
-1.0769994 0.31683826 2.139756 6.4284847e-39
-1.0766714 0.32077828 2.1398251 6.3366492e-39
-1.0763433 0.32471821 2.139894 6.3366492e-39
-1.0760151 0.32865828 2.1399632 6.2448137e-39
-1.078438 0.33428758 2.1538081 6.0622189e-39
-1.078108 0.33825153 2.1538777 5.969666e-39
-1.077778 0.34221533 2.1539471 5.969666e-39
-1.0774478 0.34617931 2.1540165 6.4284847e-39
-1.0800719 0.35206541 2.1689234 6.337008e-39
-1.0797397 0.35605505 2.1689932 6.5203202e-39
-1.0737183 0.35623804 2.1404464 6.4284847e-39
-1.0704424 0.35817856 2.1256766 5.8778305e-39
-1.1321241 -0.0053218054 2.2686138 4.2392067e-39
-1.1317763 -0.0011464934 2.268687 4.1470111e-39
-1.1314286 0.0030287642 2.2687602 3.964059e-39
-1.1310809 0.007204121 2.2688332 4.2392011e-39
-1.1307333 0.011379379 2.2689064 4.1470055e-39
-1.1303854 0.015554755 2.2689795 4.1470055e-39
-1.1300378 0.019730004 2.2690527 3.8718633e-39
-1.1330422 0.023705905 2.2849779 3.8700641e-39
-1.1326922 0.027908739 2.2850516 3.6878252e-39
-1.1323421 0.032111678 2.285125 3.7800208e-39
-1.1331146 0.037091803 2.2908554 8.1128735e-39
-1.1316421 0.040517457 2.2852724 3.7807215e-39
-1.1346328 0.044658691 2.3012006 3.4123075e-39
-1.1340611 0.048146203 2.2999249 8.1121462e-39
-1.1339282 0.053119626 2.3013489 3.6885244e-39
-1.1335759 0.057350159 2.3014231 3.8711178e-39
-1.1332235 0.061580565 2.3014972 3.5948911e-39
-1.1328713 0.06581109 2.3015714 3.5948911e-39
-1.1325189 0.070041612 2.3016453 3.3175951e-39
-1.1321666 0.074272022 2.3017194 3.2261044e-39
-1.128492 0.07834354 2.2859352 2.9495189e-39
-1.1307429 0.083795331 2.2988887 7.372419e-39
-1.1311096 0.086963482 2.3019419 2.6679055e-39
-1.1307575 0.091193907 2.302016 2.667558e-39
-1.1304051 0.095424429 2.3020902 1.2878704e-39
-1.1300527 0.099654831 2.3021641 1.8381575e-39
-1.1297004 0.10388537 2.3022382 3.030577e-39
-1.1293482 0.10811578 2.3023124 3.030577e-39
-1.1289958 0.11234629 2.3023865 2.9387401e-39
-1.1286435 0.11657669 2.3024607 3.030577e-39
-1.1282911 0.12080725 2.3025348 3.2142438e-39
-1.1307461 0.13405074 2.3196795 3.9492851e-39
-1.1303914 0.1383106 2.3197541 4.0407618e-39
-1.1300366 0.14257051 2.3198287 4.3162683e-39
-1.1296819 0.14683035 2.3199034 4.6836103e-39
-1.1300216 0.15214847 2.3237169 8.0098809e-39
-1.1289723 0.1553501 2.3200526 4.6836103e-39
-1.1310582 0.16124777 2.3324056 8.1020807e-39
-1.1282629 0.16386987 2.3202019 5.0509523e-39
-1.1279081 0.16812985 2.3202765 5.1427878e-39
-1.1275532 0.17238966 2.3203511 5.2346233e-39
-1.1271985 0.1766496 2.3204257 5.3264588e-39
-1.1233588 0.18003379 2.3035724 5.6019653e-39
-1.1197416 0.18341583 2.287776 5.6938008e-39
-1.116129 0.18674262 2.2719786 5.6938008e-39
-1.1125209 0.19001435 2.2561803 5.9693073e-39
-1.1121756 0.19416215 2.256253 6.0611427e-39
-1.1118301 0.19830982 2.2563257 6.0611427e-39
-1.1114846 0.20245759 2.2563982 6.0611427e-39
-1.1078881 0.20559134 2.2405977 6.0611427e-39
-1.107545 0.20971154 2.24067 5.7856363e-39
-1.1072019 0.21383165 2.2407422 5.7856363e-39
-1.1068587 0.21795186 2.2408142 5.7856363e-39
-1.1065156 0.22207196 2.2408864 6.1529782e-39
-1.1061726 0.22619218 2.2409587 6.1529782e-39
-1.1058295 0.23031227 2.2410309 6.0611427e-39
-1.1022513 0.23322549 2.2252262 6.1529782e-39
-1.1019105 0.23731801 2.2252979 6.1529782e-39
-1.1015697 0.24141064 2.2253695 6.5203202e-39
-1.1012287 0.24550317 2.2254412 6.3366492e-39
-1.100888 0.24959581 2.225513 5.6019653e-39
-1.1005471 0.25368845 2.2255845 5.7856363e-39
-1.1034275 0.25915346 2.2415361 6.1529782e-39
-1.1030844 0.2632736 2.2416084 6.3366492e-39
-1.0995246 0.26596609 2.2257998 6.1529782e-39
-1.0991838 0.27005875 2.2258713 6.3366492e-39
-1.098843 0.27415127 2.2259431 6.1529782e-39
-1.0985022 0.2782439 2.2260149 6.1529782e-39
-1.0981613 0.28233644 2.2260866 6.1529782e-39
-1.0978205 0.28642905 2.2261581 6.1529782e-39
-1.0974797 0.29052159 2.2262299 6.3366492e-39
-1.0941515 0.29310161 2.2114766 6.1529782e-39
-1.0938129 0.2971684 2.2115479 6.4284847e-39
-1.0934741 0.30123526 2.2116191 6.3366492e-39
-1.0931356 0.30530205 2.2116904 6.2451725e-39
-1.0898182 0.30775341 2.1969347 6.2448137e-39
-1.0894817 0.31179458 2.1970055 5.9700247e-39
-1.0831964 0.31250146 2.1674206 6.4284847e-39
-1.0828642 0.31649113 2.1674905 5.9700247e-39
-1.0825319 0.32048067 2.1675606 6.4284847e-39
-1.0821997 0.3244704 2.1676304 6.3366492e-39
-1.0789016 0.3266899 2.1528707 6.4284847e-39
-1.0785716 0.33065388 2.1529403 6.2448137e-39
-1.081203 0.33643919 2.16784 5.9700247e-39
-1.0808706 0.34042886 2.1679099 5.969666e-39
-1.0834956 0.34629136 2.1828113 5.969666e-39
-1.0831612 0.35030678 2.1828816 6.4284847e-39
-1.0795417 0.35638732 2.1681895 6.4284847e-39
-1.0762608 0.35840097 2.1534264 6.4284847e-39
-1.0731946 0.36050621 2.1397216 5.8778305e-39
-1.0728666 0.36444628 2.1397908 5.9700247e-39
-1.1305261 0.011727091 2.2680652 4.2392067e-39
-1.1301783 0.015902471 2.2681384 4.2392067e-39
-1.1298306 0.020077726 2.2682116 4.1470111e-39
-1.1328336 0.024055909 2.2841313 3.9622611e-39
-1.1324836 0.028258735 2.2842047 4.1470111e-39
-1.1321336 0.032461699 2.2842784 4.1470111e-39
-1.1317835 0.036664516 2.2843521 3.964059e-39
-1.1314335 0.040867463 2.2844257 4.0548098e-39
-1.1344229 0.045010995 2.3003483 4.0548098e-39
-1.1307336 0.049273256 2.2845731 3.8704172e-39
-1.1303835 0.05347608 2.2846465 4.0548098e-39
-1.1331584 0.056969035 2.2992814 8.1110714e-39
-1.1330137 0.06193288 2.3006449 3.8700641e-39
-1.1326613 0.066163398 2.300719 3.6856826e-39
-1.1323091 0.070393927 2.3007932 3.5034395e-39
-1.1319567 0.074624345 2.3008673 3.5034339e-39
-1.1316044 0.078854874 2.3009412 3.5034339e-39
-1.1312521 0.083085269 2.3010154 3.6863861e-39
-1.1308998 0.08731582 2.3010895 3.6867364e-39
-1.1305474 0.091546215 2.3011637 4.0551602e-39
-1.1334922 0.09539447 2.3167524 7.4675041e-39
-1.1333729 0.10032631 2.3182242 3.5044933e-39
-1.1330181 0.10458627 2.3182988 3.3179455e-39
-1.1326634 0.10884611 2.3183734 3.3179455e-39
-1.1323085 0.11310601 2.3184481 3.2257484e-39
-1.1308895 0.13014556 2.3187466 1.9321327e-39
-1.1301801 0.13866536 2.3188958 2.0203879e-39
-1.1298252 0.14292528 2.3189704 2.3877341e-39
-1.1294706 0.1471851 2.3190451 2.479571e-39
-1.1291157 0.15144503 2.3191197 2.479571e-39
-1.1287611 0.15570489 2.3191943 2.4806346e-39
-1.1284063 0.15996483 2.3192692 3.3060779e-39
-1.1280515 0.16422465 2.3193438 3.5823018e-39
-1.1276968 0.16848461 2.3194184 3.8570908e-39
-1.1319357 0.17312804 2.3414881 7.7350919e-39
-1.1304731 0.17785302 2.3364892 4.4999393e-39
-1.130116 0.18214227 2.3365643 4.4081038e-39
-1.1310256 0.18441641 2.3418286 7.9187586e-39
-1.1259229 0.18978396 2.3197916 4.7754458e-39
-1.115574 0.1912657 2.2712107 5.2346233e-39
-1.1152263 0.19544107 2.2712839 5.2346233e-39
-1.1148787 0.19961633 2.2713571 5.2346233e-39
-1.1145309 0.20379171 2.2714303 5.2346233e-39
-1.1141832 0.20796694 2.2715034 5.2346233e-39
-1.1138355 0.21214232 2.2715764 5.3264588e-39
-1.1134877 0.21631756 2.2716496 5.1427878e-39
-1.11314 0.22049294 2.2717228 5.3264588e-39
-1.1127924 0.22466822 2.271796 5.2346233e-39
-1.1124446 0.22884358 2.2718692 5.3264588e-39
-1.1120969 0.23301883 2.2719421 5.7856363e-39
-1.1117492 0.23719418 2.2720153 5.8774718e-39
-1.1081702 0.24013257 2.2562168 6.1529782e-39
-1.1078247 0.24428035 2.2562895 6.3366492e-39
-1.1074792 0.24842803 2.256362 5.8774718e-39
-1.1071337 0.25257584 2.2564347 5.7856363e-39
-1.1100105 0.2580708 2.2723811 5.7856363e-39
-1.1096629 0.26224604 2.2724543 6.1529782e-39
-1.1060975 0.26501912 2.2566526 5.8774718e-39
-1.1057521 0.26916674 2.2567253 6.0611427e-39
-1.1054066 0.27331457 2.256798 6.3366492e-39
-1.1050613 0.27746224 2.2568707 6.1529782e-39
-1.1015074 0.2800974 2.2410669 6.1529782e-39
-1.1011643 0.28421751 2.2411392 6.0611427e-39
-1.0976174 0.28676987 2.2253337 6.1529782e-39
-1.0972766 0.29086241 2.2254055 6.3366492e-39
-1.0969357 0.2949551 2.2254772 6.1529782e-39
-1.0965948 0.29904753 2.2255487 6.1529782e-39
-1.0962541 0.30314022 2.2256205 6.3366492e-39
-1.0959133 0.30723274 2.2256923 5.9700247e-39
-1.0987624 0.31305864 2.2416444 6.4284847e-39
-1.0984193 0.31717888 2.2417166 5.969666e-39
-1.0980762 0.32129896 2.2417889 6.3366492e-39
-1.0977331 0.32541919 2.2418611 6.4284847e-39
-1.0973899 0.32953927 2.2419331 6.3366492e-39
-1.0938683 0.33178833 2.2261224 6.1529782e-39
-1.0905629 0.33410865 2.2113698 6.3366492e-39
-1.0872619 0.33637771 2.1966162 6.4284847e-39
-1.0869254 0.34041876 2.196687 6.4284847e-39
-1.1326251 0.024405919 2.2832844 4.0544567e-39
-1.1319251 0.032811698 2.2834318 4.3314023e-39
-1.1333052 0.036830734 2.2916536 5.9001658e-39
-1.131225 0.041217484 2.2835791 4.1470055e-39
-1.134213 0.045363322 2.2994962 4.0548098e-39
-1.130525 0.049623262 2.2837262 4.0548098e-39
-1.130175 0.053826094 2.2837999 4.0548098e-39
-1.129825 0.058029033 2.2838736 4.0548098e-39
-1.1328037 0.062285185 2.2997925 4.0544567e-39
-1.1324221 0.066109307 2.2995598 8.1107197e-39
-1.132099 0.070746243 2.2999408 3.5034395e-39
-1.1317468 0.07497666 2.300015 3.6878252e-39
-1.1313944 0.079207182 2.3000891 3.5034339e-39
-1.1310421 0.083437599 2.3001633 3.8704172e-39
-1.1342258 0.087901488 2.3171422 4.0551602e-39
-1.1338711 0.09216129 2.3172169 3.9629645e-39
-1.1335163 0.096421242 2.3172915 3.5970589e-39
-1.1331615 0.10068107 2.3173661 3.7807215e-39
-1.1326673 0.10444143 2.3165712 7.5589711e-39
-1.132452 0.10920084 2.3175154 3.5948911e-39
-1.1319584 0.11329149 2.31686 7.4667796e-39
-1.1338325 0.13531722 2.3348737 2.7604613e-39
-1.1334752 0.13960645 2.3349488 2.5721254e-39
-1.133118 0.14389582 2.3350239 2.5721254e-39
-1.1309239 0.14553274 2.3252704 6.5405157e-39
-1.1324036 0.15247442 2.3351743 2.2958972e-39
-1.1320463 0.15676366 2.3352494 1.8367099e-39
-1.1316892 0.16105303 2.3353245 2.8469004e-39
-1.131332 0.16534229 2.3353996 2.9387359e-39
-1.1324558 0.17030691 2.3427944 7.1844334e-39
-1.1306176 0.17392088 2.3355501 4.3162683e-39
-1.1302603 0.17821024 2.3356252 4.3162683e-39
-1.1299031 0.18249948 2.3357003 4.0407618e-39
-1.1295458 0.18678881 2.3357754 4.3162683e-39
-1.13212 0.19152695 2.3499701 8.1024254e-39
-1.1288315 0.19536746 2.3359256 5.0509523e-39
-1.1250019 0.1986586 2.3190825 5.0509523e-39
-1.1246473 0.20291843 2.3191571 5.1427878e-39
-1.1242925 0.20717838 2.319232 5.1427878e-39
-1.1204728 0.21035177 2.3023868 5.1427878e-39
-1.1201204 0.21458226 2.3024609 5.1427878e-39
-1.1197681 0.21881269 2.3025348 4.9591168e-39
-1.1194159 0.22304323 2.302609 5.3264588e-39
-1.1190635 0.22727363 2.3026831 5.2346233e-39
-1.1154743 0.23034772 2.2868924 5.3264588e-39
-1.1151243 0.23455055 2.2869661 5.7856363e-39
-1.1147742 0.23875348 2.2870398 5.6938008e-39
-1.1144242 0.24295633 2.2871134 6.1529782e-39
-1.1140742 0.24715927 2.2871871 6.1529782e-39
-1.1104988 0.25006777 2.2713938 5.7856363e-39
-1.1101511 0.25424317 2.2714667 5.6938008e-39
-1.1130242 0.25976801 2.2874079 5.7856363e-39
-1.1126741 0.26397082 2.2874815 5.9693073e-39
-1.109108 0.26676917 2.2716863 5.6938008e-39
-1.1087602 0.27094442 2.2717595 5.9693073e-39
-1.1084125 0.27511975 2.2718327 6.0611427e-39
-1.1080648 0.279295 2.2719057 6.1529782e-39
-1.107717 0.28347042 2.2719789 6.1529782e-39
-1.1073693 0.28764567 2.272052 6.1529782e-39
-1.1070216 0.291821 2.2721252 6.1529782e-39
-1.1066738 0.29599628 2.2721984 6.3366492e-39
-1.1063262 0.30017167 2.2722714 6.3366492e-39
-1.1027828 0.30269405 2.2564712 6.1529782e-39
-1.1024375 0.30684182 2.2565439 6.1529782e-39
-1.102092 0.3109895 2.2566166 5.9700247e-39
-1.1017466 0.31513733 2.2566891 6.4284847e-39
-1.1014012 0.31928509 2.2567618 5.7856363e-39
-1.1010559 0.32343277 2.2568345 6.1529782e-39
-1.0794187 0.3911292 2.1819673 6.3366492e-39
-1.0758232 0.39694804 2.1672809 5.8778305e-39
-1.1343386 0.045747798 2.3002522 5.7150501e-39
-1.1355768 0.05203123 2.3087358 5.25336e-39
-1.1332984 0.054176558 2.2987921 4.0548098e-39
-1.1329461 0.058407094 2.2988663 4.0548098e-39
-1.1325938 0.0626375 2.2989404 3.9626142e-39
-1.1322415 0.066868015 2.2990146 3.8704172e-39
-1.1318892 0.071098559 2.2990887 3.8704172e-39
-1.1315368 0.075328961 2.2991629 3.9626142e-39
-1.1311845 0.07955949 2.2992368 3.5034395e-39
-1.1308322 0.083789892 2.2993109 3.8700641e-39
-1.1340876 0.090425931 2.3175282 8.0167262e-39
-1.1336597 0.092516057 2.3163586 3.9622611e-39
-1.133305 0.096776009 2.3164332 3.6874721e-39
-1.1329502 0.10103583 2.3165078 3.8704172e-39
-1.1325953 0.10529578 2.3165824 3.5938317e-39
-1.1322407 0.1095556 2.3166571 3.5938317e-39
-1.1318859 0.11381555 2.3167317 3.6863861e-39
-1.1311331 0.12233721 2.3166764 7.5586249e-39
-1.1304243 0.13118707 2.3169651 7.2841918e-39
-1.1336197 0.13567443 2.3340096 3.5945408e-39
-1.1332624 0.13996369 2.3340847 3.6867364e-39
-1.1328657 0.14704967 2.3351281 7.6504506e-39
-1.132548 0.14854228 2.334235 3.3179455e-39
-1.1321908 0.15283163 2.3343101 3.4108501e-39
-1.1318336 0.15712088 2.3343852 3.2257484e-39
-1.1314764 0.16141024 2.3344605 2.7654807e-39
-1.1311191 0.1656995 2.3345356 1.7524148e-39
-1.1307619 0.16998886 2.3346107 1.7470282e-39
-1.1304047 0.17427811 2.3346858 2.296965e-39
-1.1300474 0.17856744 2.3347609 2.1143856e-39
-1.1296903 0.18285669 2.3348362 8.2724394e-40
-1.1293331 0.18714604 2.3349113 1.6534075e-39
-1.1289759 0.19143531 2.3349864 2.479571e-39
-1.1286186 0.19572467 2.3350616 3.214255e-39
-1.131279 0.20070069 2.3497648 7.2759102e-39
-1.1279043 0.20430328 2.335212 3.7652581e-39
-1.1305619 0.20968026 2.3500681 7.7350891e-39
-1.1237264 0.21179298 2.3184483 4.4081038e-39
-1.1233715 0.2160529 2.3185229 4.4081038e-39
-1.1230168 0.22031273 2.3185976 4.4999393e-39
-1.1226621 0.22457269 2.3186722 4.7754458e-39
-1.1223073 0.22883251 2.3187468 4.7754458e-39
-1.1219525 0.23309244 2.3188214 4.7754458e-39
-1.1215976 0.23735228 2.3188961 5.3264588e-39
-1.121243 0.24161223 2.3189707 5.2346233e-39
-1.1174443 0.24454781 2.3021274 5.2346233e-39
-1.117092 0.24877834 2.3022015 5.3264588e-39
-1.1167397 0.25300872 2.3022757 5.3264588e-39
-1.1163874 0.25723928 2.3023498 5.2346233e-39
-1.1160351 0.26146981 2.302424 5.6938008e-39
-1.1156827 0.26570022 2.3024979 5.2346233e-39
-1.1121156 0.26852378 2.2867086 5.2346233e-39
-1.1117655 0.2727266 2.286782 5.7856363e-39
-1.1146258 0.27839169 2.3027203 5.7856363e-39
-1.1110655 0.2811324 2.2869294 5.8774718e-39
-1.1107155 0.28533536 2.287003 5.7856363e-39
-1.1103655 0.2895382 2.2870767 6.0611427e-39
-1.1100155 0.29374114 2.2871504 6.1529782e-39
-1.1096655 0.29794398 2.2872241 6.1529782e-39
-1.1093155 0.30214694 2.2872975 6.1529782e-39
-1.1057713 0.30469465 2.2715034 6.0611427e-39
-1.1054236 0.30887002 2.2715766 5.6938008e-39
-1.1050758 0.31304523 2.2716498 5.9693073e-39
-1.1047281 0.31722063 2.271723 5.8774718e-39
-1.0860951 0.38358819 2.2105863 6.4284847e-39
-1.0857564 0.38765499 2.2106576 6.4284847e-39
-1.0854177 0.39172187 2.2107286 6.4284847e-39
-1.0821493 0.39362615 2.1959794 6.1529782e-39
-1.0818127 0.39766732 2.1960499 6.4284847e-39
-1.0814762 0.40170836 2.1961207 5.8778305e-39
-1.0811397 0.40574953 2.1961915 5.7856363e-39
-1.080803 0.40979058 2.1962624 6.0611427e-39
-1.0775474 0.41154045 2.18151 6.0611427e-39
-1.1327362 0.058759399 2.2980139 4.0548098e-39
-1.1345541 0.063390434 2.3085704 4.6087025e-39
-1.1320316 0.067220338 2.2981622 4.0548098e-39
-1.1316793 0.071450859 2.2982364 4.0548098e-39
-1.1313269 0.075681284 2.2983105 4.0548098e-39
-1.1309747 0.079911806 2.2983847 3.6874721e-39
-1.1341578 0.084351063 2.3153512 3.8700641e-39
-1.133803 0.088611007 2.3154259 4.2366886e-39
-1.1334482 0.092870831 2.3155005 3.8700641e-39
-1.1330936 0.097130783 2.3155751 3.6874721e-39
-1.1327387 0.10139059 2.3156497 4.0548098e-39
-1.1323839 0.10565054 2.3157244 3.8704172e-39
-1.1323558 0.11067591 2.3176682 7.5575375e-39
-1.1316744 0.11417031 2.3158736 3.6863861e-39
-1.133764 0.13174228 2.3330703 3.4123075e-39
-1.1334068 0.13603164 2.3331454 3.8707675e-39
-1.1315339 0.14055808 2.3261137 7.4667852e-39
-1.1326923 0.14461026 2.3332958 3.9633135e-39
-1.1323352 0.1488995 2.3333709 3.5948911e-39
-1.1319779 0.15318885 2.333446 3.9636638e-39
-1.1316206 0.15747808 2.3335211 3.8711178e-39
-1.1312635 0.16176745 2.3335962 3.8714682e-39
-1.1309063 0.16605671 2.3336716 3.0431522e-39
-1.1305491 0.17034607 2.3337467 3.037767e-39
-1.1301918 0.17463531 2.3338218 2.8501388e-39
-1.1298347 0.17892466 2.3338969 2.3909725e-39
-1.1294774 0.1832139 2.333972 1.1038294e-39
-1.1291202 0.18750326 2.3340471 1.8381575e-39
-1.128763 0.1917925 2.3341224 2.479571e-39
-1.1284058 0.19608188 2.3341975 3.214255e-39
-1.1280485 0.20037124 2.3342726 3.0305714e-39
-1.1276914 0.20466049 2.3343477 3.3979134e-39
-1.1273341 0.20894985 2.3344228 3.9489263e-39
-1.126977 0.21323907 2.3344982 4.2244328e-39
-1.1297207 0.2188523 2.3498609 7.8262085e-39
-1.1262625 0.22181769 2.3346484 4.3162683e-39
-1.1259052 0.22610705 2.3347235 4.6836103e-39
-1.1255481 0.23039629 2.3347986 4.5917748e-39
-1.1251909 0.23468566 2.3348739 4.5917748e-39
-1.1248337 0.2389749 2.334949 5.2346233e-39
-1.1210315 0.24196699 2.3181126 5.2346233e-39
-1.1206768 0.24622679 2.3181872 5.2346233e-39
-1.1203221 0.25048676 2.3182619 5.1427878e-39
-1.1199673 0.25474656 2.3183365 5.3264588e-39
-1.1196126 0.2590065 2.3184111 5.2346233e-39
-1.1192578 0.26326647 2.3184857 5.6938008e-39
-1.118903 0.26752627 2.3185604 5.1427878e-39
-1.1185483 0.27178624 2.318635 5.1427878e-39
-1.1181935 0.27604604 2.3187096 5.6938008e-39
-1.1178387 0.28030601 2.3187842 5.7856363e-39
-1.1174839 0.28456581 2.3188589 5.7856363e-39
-1.1171292 0.28882578 2.3189335 5.6938008e-39
-1.1167744 0.2930856 2.3190081 5.9693073e-39
-1.1130067 0.29566586 2.3021646 6.0611427e-39
-1.1126543 0.29989627 2.3022387 6.0611427e-39
-1.1091069 0.30249694 2.2864509 6.1529782e-39
-1.1087569 0.30669978 2.2865245 5.9693073e-39
-1.1052164 0.30921772 2.2707355 5.6938008e-39
-1.1048688 0.31339294 2.2708087 5.7856363e-39
-1.1045209 0.31756833 2.2708819 5.7856363e-39
-1.0933454 0.37177017 2.240165 6.3366492e-39
-1.0930022 0.37589043 2.2402372 6.1529782e-39
-1.08951 0.37782919 2.2244377 6.1529782e-39
-1.0891691 0.38192174 2.2245095 6.3366492e-39
-1.0888282 0.38601434 2.2245812 6.4284847e-39
-1.0884874 0.39010689 2.2246528 6.3366492e-39
-1.0881466 0.39419952 2.2247245 6.4284847e-39
-1.0848773 0.39612737 2.2099807 6.3366492e-39
-1.0845386 0.40019429 2.210052 6.1529782e-39
-1.0841999 0.40426102 2.2101233 5.8778305e-39
-1.0838612 0.40832794 2.2101943 5.7856363e-39
-1.0835226 0.41239476 2.2102656 6.0611427e-39
-1.0831838 0.41646165 2.2103369 6.0611427e-39
-1.0799295 0.41820931 2.19559 6.1529782e-39
-1.0795929 0.42225042 2.1956608 5.7856363e-39
-1.0821677 0.42866206 2.2105508 5.7856363e-39
-1.134656 0.076186046 2.3143437 4.0544567e-39
-1.1343011 0.080445997 2.3144183 4.0544567e-39
-1.1339464 0.084705815 2.3144929 3.9626142e-39
-1.1335917 0.088965766 2.3145678 3.9626142e-39
-1.1332369 0.093225583 2.3146424 4.0548098e-39
-1.1328821 0.097485535 2.3147171 4.0548098e-39
-1.1325274 0.10174536 2.3147917 3.9629645e-39
-1.1321726 0.10600529 2.3148663 3.9626142e-39
-1.1318179 0.11026514 2.3149409 4.236683e-39
-1.1314631 0.11452506 2.3150156 3.9622611e-39
-1.1320553 0.13772738 2.3274224 6.5451821e-39
-1.1328367 0.14067811 2.3323565 3.8704172e-39
-1.1324795 0.14496747 2.3324316 3.6863861e-39
-1.1321223 0.14925671 2.3325067 3.6860329e-39
-1.1317651 0.15354607 2.332582 3.6863861e-39
-1.1314079 0.1578353 2.3326571 3.6863861e-39
-1.1310506 0.16212465 2.3327322 3.5945408e-39
-1.1306933 0.16641392 2.3328073 3.8707675e-39
-1.1303362 0.17070329 2.3328824 3.6867364e-39
-1.129979 0.17499253 2.3329577 3.6867364e-39
-1.1296217 0.17928186 2.3330328 3.5048633e-39
-1.1292646 0.18357112 2.3331079 3.4122977e-39
-1.1323824 0.1890807 2.3502059 7.559334e-39
-1.1285502 0.19214973 2.3332582 3.4101411e-39
-1.1316655 0.19805731 2.3505092 7.282024e-39
-1.1278358 0.20072848 2.3334086 2.9495189e-39
-1.1274786 0.2050177 2.3334837 2.8548051e-39
-1.1271213 0.20930706 2.3335588 2.3923976e-39
-1.1302246 0.21469007 2.3505361 1.9314209e-39
-1.1298649 0.21900885 2.3506117 1.1041783e-39
-1.1295053 0.2233275 2.3506873 2.479571e-39
-1.132581 0.22912441 2.3677042 6.9078605e-39
-1.128786 0.23196496 2.3508387 3.214255e-39
-1.1337509 0.23884903 2.3772852 6.63271e-39
-1.1315125 0.24187268 2.3678949 3.7652581e-39
-1.127707 0.24492116 2.3510656 3.8570908e-39
-1.1239064 0.24791069 2.3342352 4.2244328e-39
-1.1235491 0.25220007 2.3343103 4.3162683e-39
-1.123192 0.25648931 2.3343854 4.4999393e-39
-1.1228348 0.2607787 2.3344605 4.4999393e-39
-1.1224775 0.26506802 2.3345358 4.5917748e-39
-1.1221204 0.26935729 2.3346109 4.6836103e-39
-1.1183369 0.27214098 2.3177769 5.1427878e-39
-1.1179821 0.27640077 2.3178515 5.0509523e-39
-1.1210487 0.28222522 2.3348362 5.2346233e-39
-1.1206915 0.28651446 2.3349113 5.3264588e-39
-1.1169177 0.28918055 2.3180754 5.2346233e-39
-1.1165631 0.29344034 2.31815 5.6938008e-39
-1.1162083 0.29770032 2.3182247 5.6938008e-39
-1.1158535 0.30196014 2.3182993 5.7856363e-39
-1.1008365 0.35966918 2.2707722 6.0611427e-39
-1.0969841 0.36594641 2.2550545 6.1529782e-39
-1.0966387 0.37009418 2.255127 5.9700247e-39
-1.0962932 0.37424186 2.2551997 6.1529782e-39
-1.0959479 0.37838966 2.2552724 6.1529782e-39
-1.0924546 0.38035375 2.2394793 6.0611427e-39
-1.0921115 0.38447386 2.2395515 6.1529782e-39
-1.0917684 0.38859412 2.2396238 6.1529782e-39
-1.0914253 0.39271414 2.2396958 6.3366492e-39
-1.0910821 0.39683437 2.239768 6.1529782e-39
-1.090739 0.40095448 2.2398403 6.1529782e-39
-1.0872618 0.40272549 2.2240434 5.7856363e-39
-1.086921 0.40681803 2.2241151 5.8778305e-39
-1.0865802 0.41091067 2.2241869 6.1529782e-39
-1.0862393 0.41500321 2.2242587 6.0611427e-39
-1.0858985 0.41909584 2.2243302 6.1529782e-39
-1.0855577 0.42318836 2.224402 6.5203202e-39
-1.0883372 0.42979562 2.2403455 6.3366492e-39
-1.087994 0.43391576 2.2404177 6.1529782e-39
-1.0876509 0.43803594 2.24049 6.1529782e-39
-1.0841944 0.4395588 2.2246888 6.1529782e-39
-1.132316 0.10210012 2.3139334 3.9629645e-39
-1.1319612 0.10636007 2.314008 3.9626142e-39
-1.1316065 0.1106199 2.3140826 4.5132699e-39
-1.1312517 0.11487983 2.3141572 4.1470111e-39
-1.1329811 0.13674608 2.3314173 3.8704144e-39
-1.1326239 0.14103532 2.3314924 3.9626142e-39
-1.1322666 0.14532468 2.3315675 3.8704172e-39
-1.1327492 0.14934792 2.3355248 6.2675218e-39
-1.1315522 0.15390328 2.3317177 3.8704172e-39
-1.1311949 0.1581925 2.3317928 3.8704172e-39
-1.1308378 0.16248187 2.3318682 3.8707675e-39
-1.1304806 0.16677114 2.3319433 3.8707675e-39
-1.1301234 0.1710605 2.3320184 3.8707675e-39
-1.1297661 0.17534973 2.3320935 3.9629645e-39
-1.1316922 0.17937239 2.3429124 7.8355622e-39
-1.1325279 0.18481867 2.3491364 3.6885244e-39
-1.1346147 0.18911597 2.360832 7.559334e-39
-1.1318086 0.1934561 2.3492877 3.5948911e-39
-1.131449 0.19777489 2.3493633 3.5026955e-39
-1.1310893 0.20209368 2.3494389 3.3183e-39
-1.1327336 0.20779869 2.3596139 7.1894669e-39
-1.13037 0.2107311 2.3495903 3.037767e-39
-1.1300104 0.21504974 2.3496659 2.8533758e-39
-1.1337216 0.21980944 2.3692749 6.3597188e-39
-1.1327453 0.22484222 2.3667142 2.6643224e-39
-1.1323831 0.22919044 2.3667903 2.5721254e-39
-1.132021 0.23353851 2.3668666 3.214255e-39
-1.1316588 0.2378867 2.3669426 1.7448744e-39
-1.1331002 0.24572872 2.3770356 7.3673897e-39
-1.1274927 0.24528083 2.3501956 3.5815844e-39
-1.1236936 0.24826792 2.3333709 3.7652553e-39
-1.1233363 0.25255728 2.3334463 4.3162683e-39
-1.1229792 0.25684652 2.3335214 4.3162683e-39
-1.1226219 0.26113591 2.3335965 4.0407618e-39
-1.1222647 0.26542524 2.3336716 4.4999393e-39
-1.1219075 0.2697145 2.3337467 4.5917748e-39
-1.1215502 0.27400386 2.333822 5.0509523e-39
-1.1211931 0.27829304 2.3338971 5.0509523e-39
-1.1208359 0.28258243 2.3339722 5.0509523e-39
-1.1204786 0.28687167 2.3340473 5.2346233e-39
-1.1201214 0.29116106 2.3341224 5.2346233e-39
-1.1197643 0.2954503 2.3341978 5.3264588e-39
-1.1159968 0.29805511 2.3173664 5.5101298e-39
-1.1080067 0.35136664 2.3014235 6.1529782e-39
-1.1076545 0.35559705 2.3014977 6.0611427e-39
-1.1041394 0.35783461 2.2857146 6.0611427e-39
-1.1037896 0.36203745 2.2857883 6.0611427e-39
-1.1034396 0.36624041 2.285862 6.1529782e-39
-1.1030895 0.3704432 2.2859356 6.3366492e-39
-1.0995861 0.37254289 2.2701504 5.7856363e-39
-1.0992385 0.37671816 2.2702236 6.1529782e-39
-1.0988908 0.38089356 2.2702968 5.9693073e-39
-1.098543 0.38506889 2.27037 5.9693073e-39
-1.0981953 0.38924414 2.270443 6.1529782e-39
-1.1009895 0.39566064 2.2863774 6.1529782e-39
-1.0974998 0.39759478 2.2705894 6.0611427e-39
-1.0971521 0.40177011 2.2706625 6.0611427e-39
-1.0968044 0.40594539 2.2707357 6.1529782e-39
-1.0964568 0.41012082 2.2708089 5.7856363e-39
-1.096109 0.41429603 2.2708819 5.8778305e-39
-1.0926331 0.41606474 2.2550907 6.1529782e-39
-1.0922878 0.42021242 2.2551634 6.1529782e-39
-1.0919423 0.42436025 2.2552361 6.3366492e-39
-1.091597 0.42850792 2.2553089 6.5203202e-39
-1.0912515 0.43265566 2.2553816 6.3366492e-39
-1.0909061 0.43680334 2.2554541 6.1529782e-39
-1.0905607 0.44095114 2.2555268 6.3366492e-39
-1.0871032 0.44249931 2.239732 6.1529782e-39
-1.0836505 0.44399214 2.2239361 6.0611427e-39
-1.0833097 0.44808474 2.2240076 6.1529782e-39
-1.0829688 0.45217729 2.2240794 6.1529782e-39
-1.1327683 0.13710327 2.3305531 3.9626142e-39
-1.132411 0.14139253 2.3306284 3.9626114e-39
-1.1320539 0.14568189 2.3307035 3.9626142e-39
-1.1316966 0.14997113 2.3307786 3.8700641e-39
-1.1313394 0.15426049 2.3308537 3.8700641e-39
-1.1309822 0.15854971 2.3309288 3.8700641e-39
-1.130625 0.16283908 2.3310041 3.8704144e-39
-1.1302677 0.16712834 2.3310792 3.8704144e-39
-1.1299106 0.1714177 2.3311543 3.6860329e-39
-1.1295533 0.17570695 2.3312294 3.6860329e-39
-1.1291962 0.1799963 2.3313046 3.8704144e-39
-1.1323136 0.18517832 2.3482664 3.8700641e-39
-1.131954 0.18949707 2.3483419 3.6860329e-39
-1.1315943 0.19381574 2.3484178 3.6860329e-39
-1.1312346 0.19813454 2.3484933 3.6863861e-39
-1.130875 0.20245332 2.3485689 3.6863833e-39
-1.1305153 0.20677198 2.3486447 3.6867364e-39
-1.1336157 0.21216001 2.3656096 3.3201119e-39
-1.1332536 0.21650808 2.3656859 3.5970589e-39
-1.1328914 0.22085628 2.365762 3.4122977e-39
-1.1325295 0.22520435 2.3658383 3.5948911e-39
-1.1328771 0.22905046 2.369081 7.3745784e-39
-1.1318052 0.23390062 2.3659906 3.4101411e-39
-1.131443 0.23824881 2.3660667 3.4101411e-39
-1.1310809 0.24259688 2.366143 2.8551582e-39
-1.1307188 0.2469451 2.366219 2.5778595e-39
-1.1234807 0.24862511 2.3325069 2.3005523e-39
-1.1231234 0.25291449 2.332582 2.4845933e-39
-1.1261994 0.25859657 2.3495526 2.0236165e-39
-1.1224091 0.26149309 2.3327324 1.6541151e-39
-1.1220518 0.26578245 2.3328075 1.838505e-39
-1.1216946 0.27007172 2.3328826 2.4802773e-39
-1.1213374 0.27436104 2.3329577 2.4802773e-39
-1.1209803 0.27865025 2.3330331 3.3060779e-39
-1.120623 0.28293964 2.3331082 3.8570908e-39
-1.1202657 0.28722888 2.3331833 3.8570908e-39
-1.1199086 0.29151827 2.3332584 3.8570908e-39
-1.1242008 0.32521147 2.3675904 5.2346233e-39
-1.1238387 0.32955968 2.3676665 5.2346233e-39
-1.1200851 0.33201498 2.3508389 5.2346233e-39
-1.1159793 0.33870062 2.334085 5.3264588e-39
-1.115622 0.34298986 2.3341601 5.2346233e-39
-1.1152648 0.34727925 2.3342354 5.2346233e-39
-1.1115284 0.34952843 2.3174038 5.2346233e-39
-1.1111736 0.35378838 2.3174784 6.4284847e-39
-1.1108189 0.35804823 2.317553 5.8774718e-39
-1.1104641 0.36230817 2.3176277 5.7856363e-39
-1.1067399 0.36441031 2.3007936 5.6938008e-39
-1.103231 0.36659041 2.2850153 6.0611427e-39
-1.102881 0.37079322 2.2850888 5.7856363e-39
-1.105683 0.37710175 2.3010161 5.7856363e-39
-1.102181 0.379199 2.2852361 6.1529782e-39
-1.101831 0.38340196 2.2853098 5.9693073e-39
-1.1046261 0.38979322 2.3012383 5.9693073e-39
-1.107626 0.39638725 2.3182247 6.0611427e-39
-1.1072711 0.40064716 2.3182993 6.0611427e-39
-1.103569 0.40248454 2.3014607 6.0611427e-39
-1.1032168 0.4067151 2.3015349 6.0611427e-39
-1.1028644 0.4109455 2.301609 6.0611427e-39
-1.1025121 0.41517603 2.3016829 6.1529782e-39
-1.1021597 0.41940644 2.3017571 5.8774718e-39
-1.1018075 0.42363697 2.3018312 6.1529782e-39
-1.0983309 0.42543086 2.286046 6.1529782e-39
-1.0948586 0.42716977 2.2702603 6.1529782e-39
-1.0945109 0.43134502 2.2703335 6.6121557e-39
-1.0941632 0.43552035 2.2704065 6.1529782e-39
-1.0907003 0.43714878 2.2546186 6.3366492e-39
-1.0934677 0.44387099 2.2705529 6.1529782e-39
-1.0900093 0.44544438 2.2547638 6.1529782e-39
-1.089664 0.44959205 2.2548366 6.1529782e-39
-1.0893186 0.45373982 2.2549093 6.1529782e-39
-1.0889733 0.4578875 2.254982 6.1529782e-39
-1.0886277 0.4620353 2.2550545 6.1529782e-39
-1.0882823 0.46618298 2.2551272 6.1529782e-39
-1.1328509 0.12879375 2.3275111 2.2116203e-39
-1.1319393 0.14006811 2.3278387 2.1197778e-39
-1.1311265 0.1546177 2.3299897 3.9622611e-39
-1.1307693 0.15890692 2.3300648 3.8700641e-39
-1.1304121 0.1631963 2.3301399 3.8704144e-39
-1.130055 0.16748556 2.330215 3.8704144e-39
-1.1296977 0.17177492 2.3302903 3.6860329e-39
-1.1293405 0.17606416 2.3303654 3.6860329e-39
-1.1289833 0.18035351 2.3304405 3.8704144e-39
-1.1330653 0.18595392 2.3521597 5.0693317e-39
-1.1317396 0.18985674 2.347472 3.8700641e-39
-1.13138 0.19417541 2.3475475 3.6860329e-39
-1.1336443 0.19852018 2.3601072 7.7419372e-39
-1.1306608 0.202813 2.3476989 3.8704144e-39
-1.1329243 0.20752513 2.3604074 7.6504548e-39
-1.1334 0.21252212 2.3647337 3.4123075e-39
-1.1330379 0.2168702 2.36481 3.5970589e-39
-1.1326758 0.22121841 2.364886 3.6885244e-39
-1.1323136 0.22556645 2.3649623 3.8711178e-39
-1.1319516 0.22991467 2.3650384 3.9633135e-39
-1.1315894 0.23426273 2.3651147 3.6870867e-39
-1.1338233 0.23876618 2.3775954 7.6508052e-39
-1.1343066 0.24423663 2.3821542 4.1458971e-39
-1.1330982 0.24783815 2.3778987 7.4653335e-39
-1.1267045 0.25031883 2.3485312 3.22251e-39
-1.1263447 0.25463757 2.3486068 3.037767e-39
-1.1294168 0.26035154 2.3655717 2.6689859e-39
-1.1290545 0.26469976 2.3656478 2.1150919e-39
-1.1286925 0.26904795 2.3657241 2.2994831e-39
-1.1317548 0.27487957 2.3826911 2.4802773e-39
-1.1279683 0.2777442 2.3658764 2.3880816e-39
-1.1300819 0.28052384 2.377073 7.0000477e-39
-1.12738 0.32741016 2.3836114 5.0509523e-39
-1.1270155 0.33178779 2.3836882 5.1427878e-39
-1.1266509 0.3361654 2.3837647 5.1427878e-39
-1.1262863 0.34054288 2.3838415 5.3264588e-39
-1.1225367 0.34296626 2.3670189 5.2346233e-39
-1.1187918 0.34533072 2.3501959 5.2346233e-39
-1.1184323 0.34964949 2.3502715 5.0509523e-39
-1.1146948 0.3519257 2.3334463 5.1427878e-39
-1.1143376 0.35621506 2.3335216 5.9693073e-39
-1.1139803 0.3605043 2.3335967 5.6938008e-39
-1.1136231 0.36479369 2.3336718 5.6938008e-39
-1.113266 0.3690829 2.3337469 5.6938008e-39
-1.1095432 0.37118271 2.3169188 5.9693073e-39
-1.1091884 0.37544253 2.3169935 5.6019653e-39
-1.1121943 0.38195086 2.3339725 5.6938008e-39
-1.111837 0.38624012 2.3340476 6.0611427e-39
-1.1114799 0.39052948 2.3341227 5.9693073e-39
-1.1111226 0.39481884 2.3341978 5.9693073e-39
-1.1107655 0.39910811 2.3342731 6.1529782e-39
-1.1070598 0.40100193 2.3174412 6.1529782e-39
-1.1067051 0.40526178 2.3175159 6.0611427e-39
-1.1063503 0.4095217 2.3175905 5.9693073e-39
-1.1059955 0.41378155 2.3176651 6.1529782e-39
-1.1056408 0.4180415 2.3177397 6.1529782e-39
-1.105286 0.42230132 2.3178144 5.7856363e-39
-1.1015975 0.4239893 2.3009791 6.1529782e-39
-1.1012453 0.42821968 2.301053 6.1529782e-39
-1.1008929 0.43245023 2.3011272 6.1529782e-39
-1.0974222 0.43418667 2.2853467 6.5203202e-39
-1.0970721 0.4383896 2.2854204 6.1529782e-39
-1.0967221 0.44259241 2.2854941 6.0611427e-39
-1.0963721 0.4467954 2.2855675 6.1529782e-39
-1.0929128 0.44839409 2.2697849 6.1529782e-39
-1.0925651 0.45256934 2.2698581 6.1529782e-39
-1.0922174 0.45674467 2.2699313 6.1529782e-39
-1.0918697 0.46091995 2.2700043 6.1529782e-39
-1.0946221 0.46780989 2.2859359 6.1529782e-39
-1.0911742 0.46927056 2.2701507 6.1529782e-39
-1.0908265 0.47344595 2.2702239 6.1529782e-39
-1.0904789 0.4776212 2.2702971 6.1529782e-39
-1.1315254 0.19021641 2.346602 4.236683e-39
-1.1311657 0.19453508 2.3466775 3.6863861e-39
-1.1308061 0.19885388 2.3467534 4.236683e-39
-1.1304464 0.20317265 2.3468289 4.4210742e-39
-1.1335462 0.20853604 2.3637817 4.236683e-39
-1.1331842 0.21288423 2.3638577 3.8704144e-39
-1.133999 0.21734193 2.3695741 7.5582606e-39
-1.1324599 0.22158051 2.3640101 3.8704172e-39
-1.1350621 0.22681433 2.3785431 7.5579047e-39
-1.1317357 0.23027676 2.3641624 4.0548098e-39
-1.1348186 0.23584612 2.381119 3.6863861e-39
-1.134454 0.24022372 2.3811958 3.8704144e-39
-1.1340895 0.24460122 2.3812723 3.6863861e-39
-1.1302872 0.24766932 2.3644671 3.6867364e-39
-1.1299251 0.25201738 2.3645434 3.5945408e-39
-1.1322471 0.25710872 2.3776858 7.4667796e-39
-1.1292009 0.26071367 2.3646958 3.6881755e-39
-1.1334189 0.26697034 2.387332 7.3749469e-39
-1.131902 0.27086666 2.3817325 3.3197433e-39
-1.1315374 0.27524415 2.3818092 3.3179455e-39
-1.1275274 0.32339722 2.382653 3.2142438e-39
-1.1271628 0.32777473 2.3827295 3.4897489e-39
-1.1304011 0.33413756 2.4007537 3.7652553e-39
-1.130034 0.33854643 2.400831 4.3162683e-39
-1.1296668 0.34295517 2.4009082 4.4081038e-39
-1.1292996 0.34736398 2.4009855 4.3162683e-39
-1.1253399 0.34966254 2.3831131 4.3162683e-39
-1.1249754 0.35404015 2.3831897 4.2244328e-39
-1.1246109 0.35841766 2.3832664 4.2244328e-39
-1.1242462 0.36279529 2.3833432 4.6836103e-39
-1.1205102 0.36506897 2.366524 4.6836103e-39
-1.1167792 0.36728409 2.349704 5.2346233e-39
-1.1164197 0.37160271 2.3497798 5.1427878e-39
-1.1160599 0.37592152 2.3498554 5.1427878e-39
-1.1190618 0.38246161 2.3668287 5.1427878e-39
-1.1186998 0.38680974 2.366905 5.1427878e-39
-1.1149809 0.38887754 2.3500824 5.2346233e-39
-1.1146213 0.39319634 2.350158 5.6019653e-39
-1.1142616 0.39751515 2.3502338 5.6938008e-39
-1.113902 0.40183377 2.3503094 5.8774718e-39
-1.1101953 0.40375462 2.3334839 6.1529782e-39
-1.1098382 0.40804386 2.3335593 5.9693073e-39
-1.109481 0.41233325 2.3336344 5.9693073e-39
-1.1091237 0.41662246 2.3337095 5.9693073e-39
-1.1087666 0.42091185 2.3337846 6.0611427e-39
-1.1084093 0.42520106 2.3338597 5.7856363e-39
-1.1080521 0.42949045 2.333935 6.0611427e-39
-1.1043651 0.43117586 2.3171055 5.9693073e-39
-1.1040103 0.43543583 2.3171802 5.9693073e-39
-1.1036556 0.43969563 2.3172548 5.9693073e-39
-1.0999783 0.44126344 2.3004231 5.9693073e-39
-1.0996261 0.44549385 2.3004973 5.9693073e-39
-1.0961635 0.4471454 2.2847209 6.1529782e-39
-1.0958135 0.45134833 2.2847946 6.0611427e-39
-1.0954635 0.45555118 2.2848682 5.9693073e-39
-1.0951135 0.45975411 2.2849419 5.9693073e-39
-1.0947635 0.46395695 2.2850153 6.0611427e-39
-1.0975121 0.47087681 2.3009419 6.1529782e-39
-1.0940635 0.4723627 2.2851627 6.1529782e-39
-1.0937134 0.47656566 2.2852364 6.5203202e-39
-1.0964552 0.48356819 2.3011644 6.0611427e-39
-1.0930134 0.48497149 2.2853837 6.0611427e-39
-1.0926634 0.48917431 2.2854571 6.0611427e-39
-1.1340251 0.19585191 2.3608139 4.1473796e-39
-1.1352377 0.20542294 2.3705349 4.0544497e-39
-1.1333306 0.20889816 2.3629057 4.1444873e-39
-1.1329684 0.21324635 2.3629818 3.8704144e-39
-1.1326064 0.21759444 2.3630581 3.9626142e-39
-1.1322442 0.22194262 2.3631341 3.9626142e-39
-1.1353304 0.22745556 2.3800838 3.9626142e-39
-1.1349659 0.23183317 2.3801606 4.0548098e-39
-1.1361258 0.23676375 2.3877125 7.6504576e-39
-1.1342368 0.24058829 2.3803139 3.8704144e-39
-1.1338723 0.24496578 2.3803906 3.9626142e-39
-1.1335076 0.24934338 2.3804672 3.8707675e-39
-1.1297094 0.25237951 2.3636675 3.8707675e-39
-1.1293473 0.2567277 2.3637435 3.8707675e-39
-1.1324139 0.26247597 2.3806973 3.6881755e-39
-1.1320493 0.2668536 2.380774 3.4123075e-39
-1.1316848 0.2712312 2.3808508 3.5044933e-39
-1.1325669 0.27627471 2.3871288 7.5586137e-39
-1.1305912 0.28436378 2.3810809 3.3183e-39
-1.12731 0.32376176 2.3817711 3.1224069e-39
-1.1305496 0.33009583 2.3997881 3.3060779e-39
-1.1301823 0.33450472 2.3998654 3.5815844e-39
-1.1298152 0.33891359 2.3999426 4.2244328e-39
-1.1294481 0.34332234 2.4000199 4.0407618e-39
-1.1326746 0.34981278 2.4180403 3.9489263e-39
-1.1287137 0.35213992 2.4001744 4.2244328e-39
-1.1283464 0.35654882 2.4002516 4.0407618e-39
-1.1279793 0.36095756 2.4003289 4.2244328e-39
-1.1276122 0.36536643 2.4004061 4.4081038e-39
-1.1236645 0.36753732 2.3825381 4.5917748e-39
-1.1232998 0.37191492 2.3826146 5.0509523e-39
-1.1229353 0.37629244 2.3826914 5.0509523e-39
-1.1225708 0.38067004 2.3827682 5.0509523e-39
-1.1257764 0.3874104 2.4007924 4.9591168e-39
-1.1254092 0.39181927 2.4008696 4.9591168e-39
-1.1214771 0.39380261 2.3829982 5.0509523e-39
-1.1211126 0.39818025 2.3830748 5.3264588e-39
-1.1207479 0.40255788 2.3831515 5.6019653e-39
-1.1170355 0.40456438 2.3663337 5.6938008e-39
-1.113328 0.4065122 2.349515 6.0611427e-39
-1.1129683 0.41083089 2.3495908 5.9693073e-39
-1.1126087 0.41514966 2.3496664 5.9693073e-39
-1.1089109 0.41697967 2.3328454 5.9693073e-39
-1.1118894 0.42378712 2.3498178 6.0611427e-39
-1.1115296 0.42810574 2.3498933 5.6938008e-39
-1.1078392 0.42984763 2.3330708 5.9693073e-39
-1.1074821 0.4341369 2.3331459 5.9693073e-39
-1.1071248 0.43842626 2.3332212 5.9693073e-39
-1.110091 0.44538066 2.3501959 6.0611427e-39
-1.1064104 0.44700488 2.3333714 5.9693073e-39
-1.1060532 0.45129409 2.3334465 5.9693073e-39
-1.105696 0.45558348 2.3335216 6.1529782e-39
-1.1053388 0.45987287 2.3335969 5.9693073e-39
-1.1049815 0.46416208 2.333672 5.9693073e-39
-1.1013156 0.46560979 2.3168445 6.1529782e-39
-1.1009609 0.46986964 2.3169191 6.0611427e-39
-1.1006061 0.47412953 2.3169937 6.1529782e-39
-1.1002513 0.47838941 2.3170683 6.1529782e-39
-1.0998966 0.48264933 2.317143 6.3366492e-39
-1.0995418 0.48690921 2.3172176 6.1529782e-39
-1.099187 0.4911691 2.3172922 6.0611427e-39
-1.0955408 0.49238139 2.3004603 6.1529782e-39
-1.0951884 0.49661198 2.3005345 6.1529782e-39
-1.0917548 0.49793014 2.2847579 6.0611427e-39
-1.0914047 0.50213307 2.2848315 5.6938008e-39
-1.1331148 0.20926028 2.3620298 4.4207211e-39
-1.1343899 0.21465801 2.3703222 3.7771468e-39
-1.1323906 0.21795654 2.3621821 4.5132699e-39
-1.1320285 0.22230473 2.3622582 4.4210742e-39
-1.1351132 0.22782011 2.3792019 4.236683e-39
-1.1347487 0.23219773 2.3792787 4.0548098e-39
-1.1343842 0.23657523 2.3793552 3.9626142e-39
-1.1340195 0.24095283 2.379432 3.8704172e-39
-1.1352725 0.24606667 2.387502 7.4657006e-39
-1.1332904 0.24970794 2.3795853 3.8704172e-39
-1.1329259 0.25408542 2.379662 3.6863861e-39
-1.1325613 0.25846303 2.3797388 4.1444873e-39
-1.1321968 0.26284051 2.3798156 3.8704144e-39
-1.1318322 0.26721817 2.3798921 3.6863861e-39
-1.1314676 0.27159578 2.3799689 3.6860329e-39
-1.131103 0.27597326 2.3800457 3.6863861e-39
-1.1307385 0.28035086 2.3801222 3.5938317e-39
-1.1335667 0.33018047 2.4141657 7.2805835e-39
-1.1299636 0.33487186 2.3989773 2.3016313e-39
-1.1295965 0.33928075 2.3990545 1.6562675e-39
-1.1292293 0.3436895 2.3991318 1.7470282e-39
-1.1324543 0.35018256 2.4171457 1.4697267e-39
-1.1320844 0.35462251 2.4172235 1.7463094e-39
-1.1317146 0.35906267 2.4173012 2.2958874e-39
-1.1313449 0.36350265 2.4173791 3.0305798e-39
-1.1309751 0.36794278 2.4174569 2.1122164e-39
-1.1270263 0.37014234 2.3995953 3.6734212e-39
-1.1266592 0.37455121 2.3996725 4.3162683e-39
-1.1262919 0.37895992 2.3997498 4.2244328e-39
-1.1259248 0.38336882 2.399827 4.3162683e-39
-1.1291262 0.39014307 2.4178457 4.2244328e-39
-1.1251905 0.3921864 2.3999815 4.5917748e-39
-1.1248233 0.39659515 2.4000587 4.6836103e-39
-1.124456 0.40100402 2.400136 4.5917748e-39
-1.1240889 0.40541291 2.4002132 4.5917748e-39
-1.1237218 0.40982163 2.4002905 5.2346233e-39
-1.1198016 0.41167751 2.3824229 5.1427878e-39
-1.1194371 0.41605499 2.3824997 5.6019653e-39
-1.1157334 0.41797096 2.3656862 5.6019653e-39
-1.1153713 0.42231902 2.3657625 5.6019653e-39
-1.1150092 0.42666721 2.3658385 5.5101298e-39
-1.1146472 0.43101531 2.3659148 5.6938008e-39
-1.114285 0.43536353 2.3659909 5.6019653e-39
-1.1139228 0.43971154 2.3660672 5.6938008e-39
-1.1135607 0.44405979 2.3661432 5.9693073e-39
-1.1131986 0.44840786 2.3662195 6.1529782e-39
-1.1095171 0.45005906 2.3494015 6.0611427e-39
-1.1091574 0.45437774 2.3494773 5.9693073e-39
-1.1087978 0.45869651 2.3495529 6.0611427e-39
-1.1084381 0.46301532 2.3496287 5.9693073e-39
-1.1080785 0.46733394 2.3497043 5.9693073e-39
-1.1077187 0.47165272 2.3497798 6.0611427e-39
-1.1040543 0.47309789 2.3329582 5.8774718e-39
-1.1036971 0.47738722 2.3330333 5.7856363e-39
-1.1033398 0.48167649 2.3331084 6.0611427e-39
-1.1029826 0.48596585 2.3331835 6.1529782e-39
-1.0993303 0.48726398 2.3163593 6.0611427e-39
-1.0989757 0.49152386 2.3164339 6.1529782e-39
-1.0986209 0.49578372 2.3165085 6.1529782e-39
-1.0982661 0.50004369 2.3165832 6.1529782e-39
-1.0946261 0.50119466 2.2997563 5.6019653e-39
-1.0942738 0.50542516 2.2998304 5.6938008e-39
-1.0908462 0.50668585 2.2840583 5.7856363e-39
-1.0874232 0.5078916 2.2682855 5.7856363e-39
-1.1370414 0.22740853 2.3881977 3.4072908e-39
-1.1365165 0.23405629 2.3884499 3.0399391e-39
-1.1341668 0.23693979 2.3784735 4.0548098e-39
-1.1338023 0.24131739 2.3785501 3.8704172e-39
-1.1334378 0.24569489 2.3786268 3.8704144e-39
-1.1330732 0.25007251 2.3787036 3.6863861e-39
-1.1344188 0.25536889 2.3872893 7.2816667e-39
-1.1323441 0.2588276 2.3788569 4.236683e-39
-1.1336904 0.26446977 2.387589 7.2809464e-39
-1.1316149 0.26758271 2.3790102 3.8704172e-39
-1.1348851 0.27351576 2.3970077 3.5938373e-39
-1.1305212 0.28071544 2.3792403 3.6863861e-39
-1.1312134 0.31760383 2.3977802 3.687437e-39
-1.1308463 0.32201257 2.3978574 3.5948911e-39
-1.1304792 0.32642138 2.3979347 3.5026955e-39
-1.1301121 0.33083016 2.3980119 3.5923701e-39
-1.1333432 0.33723208 2.4160178 3.4079789e-39
-1.1329733 0.34167221 2.4160957 3.5001745e-39
-1.1326036 0.34611219 2.4161735 2.8533758e-39
-1.1358008 0.35082975 2.4333217 6.5415891e-39
-1.1352619 0.35764819 2.433579 6.357558e-39
-1.1314943 0.35943243 2.4164069 2.3880816e-39
-1.1311245 0.36387244 2.4164846 3.1224167e-39
-1.1307548 0.36831257 2.4165623 2.2958874e-39
-1.130385 0.37275258 2.41664 3.3979134e-39
-1.1300153 0.37719271 2.416718 4.0407618e-39
-1.1348923 0.38306537 2.4423292 7.4585022e-39
-1.1343515 0.38991258 2.4425886 7.6421746e-39
-1.1324731 0.39288089 2.4348865 4.0407618e-39
-1.1285362 0.39495292 2.4170291 4.4999393e-39
-1.1281664 0.3993929 2.4171069 4.4081038e-39
-1.1277966 0.40383306 2.4171846 4.4081038e-39
-1.1274269 0.40827319 2.4172626 4.4999393e-39
-1.1270571 0.4127132 2.4173403 5.0509523e-39
-1.1266873 0.4171533 2.417418 5.1427878e-39
-1.1263176 0.42159331 2.4174957 5.3264588e-39
-1.1259478 0.42603344 2.4175737 5.3264588e-39
-1.125578 0.43047342 2.4176514 5.3264588e-39
-1.1216673 0.43223289 2.3997884 5.3264588e-39
-1.1177616 0.43392977 2.3819246 5.3264588e-39
-1.117397 0.43830737 2.3820014 5.5101298e-39
-1.1170325 0.44268489 2.3820779 5.6019653e-39
-1.116668 0.44706252 2.3821547 5.8774718e-39
-1.1163033 0.45144001 2.3822315 5.9693073e-39
-1.1159388 0.45581758 2.382308 5.9693073e-39
-1.1155742 0.46019506 2.3823848 5.9693073e-39
-1.1152097 0.4645727 2.3824615 5.9693073e-39
-1.1115344 0.46616259 2.3656483 5.9693073e-39
-1.1111722 0.47051066 2.3657243 5.9693073e-39
-1.1108102 0.47485888 2.3658006 5.9693073e-39
-1.110448 0.47920692 2.3658767 5.7856363e-39
-1.110086 0.48355508 2.365953 5.6938008e-39
-1.1064254 0.48496845 2.3491368 6.0611427e-39
-1.1060658 0.48928726 2.3492126 6.0611427e-39
-1.1057061 0.49360588 2.3492882 5.9693073e-39
-1.1020554 0.49490166 2.3324699 6.0611427e-39
-1.1016982 0.49919093 2.332545 6.0611427e-39
-1.1013409 0.50348032 2.3326201 6.0611427e-39
-1.0977 0.50465828 2.3157997 5.6019653e-39
-1.0973452 0.50891817 2.3158743 5.7856363e-39
-1.0937116 0.51000786 2.2990522 5.7856363e-39
-1.0933592 0.51423848 2.2991264 5.7856363e-39
-1.093007 0.51846898 2.2992005 5.7856363e-39
-1.0926547 0.52269942 2.2992747 5.7856363e-39
-1.1356614 0.24335594 2.3882301 2.4871212e-39
-1.13473 0.25490886 2.3885784 2.2116133e-39
