# .PCD v0.7 - Point Cloud Data file format
VERSION 0.7
FIELDS x y z rgb
SIZE 4 4 4 4
TYPE F F F F
COUNT 1 1 1 1
WIDTH 1027
HEIGHT 1
VIEWPOINT 0 0 0 1 0 0 0
POINTS 1027
DATA ascii
-1.9305761 0.32748562 0.32094073 1.9339516e-39
-1.9305557 0.33410454 0.32442582 1.6580878e-39
-1.930154 0.34053391 0.32598704 1.2911032e-39
-1.9297521 0.34696341 0.32754847 8.312026e-40
-1.9292278 0.35329738 0.32847309 1.1052714e-39
-1.9298043 0.36068779 0.33522478 2.0254242e-39
-1.9298972 0.36485484 0.33792374 1.3811408e-39
-1.9302973 0.3734996 0.34451199 1.3800702e-39
-1.9298924 0.37997329 0.34608221 8.2796701e-40
-1.9297111 0.38666096 0.34883699 1.1049042e-39
-1.9301853 0.39273492 0.35438749 1.7488443e-39
-1.9298809 0.39781699 0.35568416 8.2833555e-40
-1.9296519 0.40652242 0.35930243 8.2725375e-40
-1.9296129 0.41344419 0.36286256 3.6842939e-40
-1.9293853 0.42215323 0.36648834 4.6097815e-40
-1.9299349 0.42730033 0.37189803 3.6878532e-40
-1.9302441 0.43468332 0.37737048 2.7659109e-40
-1.9302779 0.44170362 0.38133082 3.6842519e-40
-1.9299299 0.4482767 0.38322693 1.8403673e-40
-1.929582 0.4548499 0.38512304 1.8439546e-40
-1.9297444 0.46213916 0.38984305 4.5992297e-40
-1.9293948 0.4687359 0.3917447 3.7134409e-43
-1.9304127 0.47470438 0.39983338 9.1843904e-41
-1.930353 0.48054391 0.4027099 9.1843904e-41
-1.9300877 0.48851117 0.40575489 9.2202636e-41
-1.9297363 0.4951449 0.40766713 6.4286669e-40
-1.9291985 0.50282729 0.40925717 3.6806505e-40
-1.9290223 0.51562059 0.4153395 3.6770492e-40
-1.9296825 0.5197013 0.42070001 3.6842799e-40
-1.9292804 0.52622092 0.42230907 2.7658689e-40
-1.9288784 0.53274059 0.42391834 1.1978229e-39
-1.9296395 0.5461005 0.43478155 1.6544795e-39
-1.930029 0.67807615 0.5080654 2.5807504e-39
-1.9318603 0.2363115 0.27772945 4.6086955e-39
-1.9322071 0.24216172 0.28255156 2.3970864e-39
-1.9320776 0.24844821 0.28533521 2.5800427e-39
-1.9319131 0.25476381 0.28796807 2.5800343e-39
-1.9315189 0.26108402 0.28950629 2.7640696e-39
-1.9326043 0.26515299 0.29689035 3.0392286e-39
-1.9324411 0.27289689 0.30030167 3.50092e-39
-1.9321122 0.27746341 0.30120352 1.565532e-39
-1.9317787 0.28838763 0.30552298 2.3045264e-39
-1.9319652 0.29489657 0.30993637 2.3034474e-39
-1.9315127 0.30127019 0.31122479 2.4874799e-39
-1.9318335 0.30758226 0.31617197 3.2246764e-39
-1.9312854 0.31368127 0.31685612 1.9353753e-39
-1.9317019 0.31982142 0.32216805 1.6566529e-39
-1.932007 0.32537782 0.3266322 1.9346663e-39
-1.9316057 0.33179104 0.32818627 1.5662467e-39
-1.9314605 0.33834082 0.33103842 1.382217e-39
-1.9320468 0.3454735 0.33769739 1.1999921e-39
-1.931705 0.35192245 0.3395555 1.3825785e-39
-1.9313632 0.3583715 0.34141353 1.7506352e-39
-1.9309387 0.36611161 0.34357598 1.197467e-39
-1.9325416 0.37749863 0.35739151 1.1967593e-39
-1.93249 0.38696575 0.36226836 1.0137974e-39
-1.9316739 0.39601183 0.36326808 5.5246752e-40
-1.9320718 0.40441614 0.36971575 5.5282345e-40
-1.931824 0.40746638 0.37018329 1.1981929e-39
-1.931476 0.41370597 0.37189934 5.5245772e-40
-1.9321984 0.42068616 0.37912562 8.2941034e-40
-1.9331841 0.426898 0.38719407 6.4285968e-40
-1.9320315 0.43297771 0.38498092 3.6770912e-40
-1.9320052 0.43951932 0.38839489 6.4321561e-40
-1.9311705 0.45248279 0.39142591 9.2197031e-41
-1.9313393 0.45976713 0.39617422 9.2198432e-41
-1.9309895 0.46636486 0.39807466 9.3277432e-41
-1.931304 0.47159529 0.40240675 5.5101438e-40
-1.9316643 0.47894475 0.40810531 3.8115318e-43
-1.9316841 0.48541245 0.41169941 9.1843904e-41
-1.931631 0.49264798 0.41536093 3.6770632e-40
-1.9308461 0.4987193 0.41490027 9.2914496e-41
-1.9307313 0.50410008 0.41726455 3.6734759e-40
-1.9315593 0.51139832 0.42516753 9.3270426e-41
-1.9312943 0.52170956 0.42948207 6.4357715e-40
-1.9310747 0.52484429 0.43012968 2.7623236e-40
-1.9307035 0.53136724 0.4318881 1.1971167e-39
-1.9316158 0.53686219 0.43921739 1.7502806e-39
-1.9323289 0.67025155 0.51481074 2.6729572e-39
-1.9319043 0.67706168 0.51646996 2.0293815e-39
-1.9328095 0.2289533 0.2782793 3.22721e-39
-1.9336129 0.24009292 0.28814402 2.4882058e-39
-1.9334836 0.24637617 0.29092672 2.9477406e-39
-1.9333221 0.25268993 0.29357168 3.0402922e-39
-1.9338078 0.25860268 0.29909185 2.3041761e-39
-1.9334109 0.26494822 0.30063027 2.4878443e-39
-1.93339 0.26924911 0.30285886 1.5658866e-39
-1.9334607 0.27547574 0.30656543 1.5658866e-39
-1.9326587 0.28130096 0.30588934 2.3963647e-39
-1.9337318 0.28642273 0.31378442 2.6711579e-39
-1.9347917 0.2932463 0.32253799 2.8562723e-39
-1.9335523 0.29935825 0.31992796 2.1194247e-39
-1.9330246 0.30572709 0.3208549 2.2108987e-39
-1.9332955 0.31181842 0.32544473 2.1183485e-39
-1.9328936 0.31823224 0.32699737 2.1172611e-39
-1.9334159 0.32343027 0.3323043 1.751361e-39
-1.9334224 0.32988235 0.33582711 1.3829373e-39
-1.933485 0.33656561 0.33974308 1.6584451e-39
-1.9339871 0.342913 0.34557587 1.2896724e-39
-1.9335808 0.34938851 0.34713927 1.0141575e-39
-1.9337573 0.35626706 0.35170552 1.1059874e-39
-1.9333733 0.3627668 0.35338986 1.0137988e-39
-1.9329655 0.36926779 0.35496134 8.2976768e-40
-1.9341167 0.3751632 0.36364761 1.1049154e-39
-1.9334041 0.37961185 0.36265332 1.1056385e-39
-1.9342116 0.38474143 0.36928421 9.2160457e-40
-1.9329631 0.39189172 0.36719295 2.1176324e-39
-1.9335179 0.39780197 0.37304047 1.0127114e-39
-1.9330297 0.40417978 0.37416112 1.103835e-39
-1.9326837 0.41070193 0.37603897 4.6098235e-40
-1.9330612 0.41790852 0.38174188 2.765939e-40
-1.9335939 0.424456 0.38782808 1.2871641e-39
-1.9333709 0.43066442 0.39012319 6.4431283e-40
-1.9331479 0.43687284 0.39241838 5.5282345e-40
-1.9325497 0.4569028 0.40040305 1.8439266e-40
-1.933165 0.46434462 0.40736738 9.3277432e-41
-1.9323282 0.47075883 0.40684393 6.4321982e-40
-1.9324815 0.47616309 0.41050029 1.836808e-40
-1.9335402 0.48314574 0.41933465 9.8090893e-45
-1.9332947 0.4876489 0.42059931 1.8439546e-40
-1.9323097 0.49545196 0.42011967 4.2038954e-45
-1.9335142 0.50305045 0.4299829 7.3470078e-40
-1.9329188 0.50901371 0.43036672 4.2038954e-45
-1.932736 0.51559281 0.43305522 5.6051939e-45
-1.9317057 0.52858067 0.43516499 5.5281925e-40
-1.9345831 0.2258801 0.28508389 1.935388e-39
-1.9350346 0.2416077 0.29575104 2.5807616e-39
-1.934729 0.25061926 0.29916841 2.9484623e-39
-1.9352225 0.25652319 0.30472037 2.4882058e-39
-1.9350381 0.26288551 0.30728281 2.4874883e-39
-1.9355463 0.26734689 0.31212351 1.4733378e-39
-1.9346813 0.27289847 0.31099814 2.5800469e-39
-1.935951 0.27858567 0.32013771 2.2152189e-39
-1.9353442 0.2853035 0.32087669 1.3829373e-39
-1.9349626 0.29152623 0.32242242 1.565532e-39
-1.9355651 0.29710266 0.32831708 1.3818597e-39
-1.9347398 0.30321091 0.32768297 1.3825785e-39
-1.9347997 0.30958313 0.33141664 1.3825785e-39
-1.9363537 0.32817951 0.34890026 2.4874869e-39
-1.9360096 0.3346521 0.35076115 2.1186988e-39
-1.9356658 0.34112468 0.35262209 1.8424707e-39
-1.9353219 0.3475973 0.35448298 1.8421189e-39
-1.9354756 0.3543998 0.35889867 1.657006e-39
-1.9345614 0.36047253 0.35782033 8.2868727e-40
-1.9351436 0.36763558 0.36447641 1.1989033e-39
-1.9352254 0.37106019 0.36672029 2.3016636e-39
-1.9352516 0.38194463 0.37273616 1.2893095e-39
-1.9356073 0.38973776 0.37865189 1.0123653e-39
-1.9349153 0.39604995 0.37876472 4.6026068e-40
-1.9345026 0.40259871 0.38033769 6.4429601e-40
-1.9351369 0.41642457 0.39084831 4.5990616e-40
-1.9352056 0.42355496 0.39503568 3.6878812e-40
-1.9346372 0.42953277 0.39555684 3.695168e-40
-1.935323 0.44243065 0.40581113 9.1842503e-41
-1.9342844 0.44829342 0.40402615 1.0818024e-42
-1.9340477 0.45493761 0.4064914 4.2038954e-45
-1.9346412 0.46217871 0.41324407 1.4391335e-42
-1.9348513 0.46972337 0.41832969 1.836766e-40
-1.9347018 0.47677076 0.42143005 1.8439406e-40
-1.9352043 0.4838962 0.42768562 2.7730576e-40
-1.9349477 0.49618664 0.43311176 1.8511013e-40
-1.9337393 0.50059861 0.42973027 4.2038954e-45
-1.935361 0.50748497 0.44119993 1.8439686e-40
-1.9345089 0.52096111 0.44442454 3.6914125e-40
-1.933839 0.52728134 0.44464654 1.9350376e-39
-1.9339414 0.53341115 0.44845307 1.0130687e-39
-1.9365453 0.23953071 0.3018398 2.4882114e-39
-1.9367924 0.24855235 0.30790129 2.8551933e-39
-1.9372048 0.25296292 0.31225732 1.5655334e-39
-1.9368246 0.25915229 0.31379184 1.565532e-39
-1.9364444 0.26534167 0.31532645 1.5662509e-39
-1.9366566 0.2761001 0.32216173 3.0399629e-39
-1.937309 0.28225458 0.32860726 3.2243457e-39
-1.937847 0.28806064 0.33431837 3.1332165e-39
-1.9375052 0.29448479 0.3361631 3.0413796e-39
-1.9366865 0.30125469 0.33591795 1.9346789e-39
-1.9362409 0.31424206 0.34081909 2.2112658e-39
-1.9362972 0.3194741 0.34391955 1.4736965e-39
-1.9375098 0.32529572 0.35285971 1.7546106e-39
-1.9375755 0.33232754 0.35697857 2.0265102e-39
-1.9372312 0.33880123 0.35883835 2.3942095e-39
-1.9369403 0.34545249 0.36104959 1.5651747e-39
-1.9368892 0.35217997 0.36444584 1.2885766e-39
-1.9370623 0.35879442 0.36885265 1.749203e-39
-1.9367161 0.36530378 0.37072241 1.5655306e-39
-1.937763 0.36931002 0.37788892 1.9357579e-39
-1.9362769 0.37441045 0.37355414 1.6562969e-39
-1.9360057 0.38259974 0.37669089 1.1052672e-39
-1.9370277 0.38657254 0.38372025 9.2088571e-40
-1.9365388 0.39199638 0.38432133 5.5246052e-40
-1.9363434 0.40082753 0.38816801 5.5246192e-40
-1.9371339 0.40777799 0.39570305 5.5246332e-40
-1.936604 0.41427797 0.39669114 5.5209478e-40
-1.9370265 0.42178008 0.40276837 5.5244931e-40
-1.936607 0.42841384 0.40435588 2.7658689e-40
-1.9371759 0.43361735 0.40988776 9.3277432e-41
-1.9374712 0.44024125 0.41488224 2.7766449e-40
-1.9361365 0.44313067 0.41007373 4.5954462e-40
-1.9366411 0.4535228 0.4181073 1.8403253e-40
-1.9359103 0.47422886 0.42582431 1.8403813e-40
-1.936362 0.47901759 0.43057257 3.6734899e-40
-1.9369729 0.49578893 0.44256568 9.2914496e-41
-1.9367933 0.50289041 0.4455516 9.3281636e-41
-1.936604 0.510019 0.44850555 1.807675e-42
-1.9361771 0.51675838 0.4501152 2.7730856e-40
-1.9355056 0.52308655 0.45033333 1.9350208e-39
-1.9355649 0.53100789 0.45490357 7.3791676e-40
-1.9375831 0.22893934 0.30106223 2.6736803e-39
-1.9385542 0.23596087 0.30949819 3.592408e-39
-1.9389867 0.24602075 0.31700775 2.7637165e-39
-1.9389138 0.25419196 0.32108214 2.4889205e-39
-1.9381462 0.26269093 0.32201621 2.3034558e-39
-1.9383677 0.26885387 0.32640937 2.0247137e-39
-1.938884 0.27988133 0.33484307 3.133948e-39
-1.9388907 0.30519906 0.34857565 2.7647927e-39
-1.9378879 0.31223288 0.34759465 2.0272291e-39
-1.93857 0.31823155 0.35409817 2.8541143e-39
-1.938592 0.32484433 0.35778204 2.1190604e-39
-1.9388827 0.3290042 0.36142063 1.9371746e-39
-1.9391594 0.33703226 0.36708638 1.0145079e-39
-1.9387479 0.34354597 0.36864728 1.1985432e-39
-1.9383365 0.35005981 0.37020823 1.4733322e-39
-1.9379251 0.35657361 0.37176931 1.0127198e-39
-1.9380388 0.36461487 0.37666488 1.1974614e-39
-1.9383334 0.37374479 0.38301226 8.2940474e-40
-1.9376779 0.38009691 0.38331994 6.4537221e-40
-1.938609 0.38422355 0.38999856 1.1971125e-39
-1.9386272 0.39040866 0.39343295 8.290432e-40
-1.9380413 0.39893037 0.39524764 5.5246332e-40
-1.9384872 0.40553537 0.40095118 7.3649164e-40
-1.9380693 0.41213447 0.4025273 5.5209758e-40
-1.9382459 0.41937348 0.40728778 7.3612591e-40
-1.9383569 0.42654929 0.4117009 4.6133828e-40
-1.938401 0.43611744 0.41709027 1.8548007e-40
-1.9375439 0.44144168 0.41587958 1.0123513e-39
-1.9379607 0.45837626 0.42703441 2.7658549e-40
-1.937538 0.46503976 0.42862204 3.6877972e-40
-1.9373894 0.472065 0.43171477 9.3273228e-41
-1.9381263 0.48676836 0.44319108 5.5317658e-40
-1.9389774 0.49504399 0.45173287 8.2868027e-40
-1.9386197 0.50175601 0.45365718 2.7839036e-40
-1.9386135 0.5090183 0.45755804 2.8852735e-42
-1.9382552 0.51574415 0.45948699 5.5388984e-40
-1.9369961 0.52089345 0.45626307 2.0272319e-39
-1.9396341 0.22616045 0.30935046 3.5952806e-39
-1.9395115 0.2295958 0.31062496 1.5709214e-39
-1.9392983 0.23554009 0.31282243 2.5811245e-39
-1.940341 0.24573088 0.32331657 2.2134154e-39
-1.9402056 0.25209919 0.32611668 2.3971074e-39
-1.9404258 0.26035643 0.33163652 2.5800469e-39
-1.9400058 0.2653698 0.33234426 3.0406635e-39
-1.9404081 0.27832764 0.34127834 3.4101621e-39
-1.9411387 0.28998998 0.35107732 3.1346514e-39
-1.9407947 0.29643825 0.35292503 2.9484679e-39
-1.9404508 0.30288655 0.35477266 2.949893e-39
-1.9404759 0.30945346 0.35844731 2.4899883e-39
-1.9401315 0.31591552 0.36029989 2.6718838e-39
-1.9401553 0.32252344 0.36398932 2.1190688e-39
-1.9400456 0.32980812 0.36740819 1.1985348e-39
-1.9403615 0.33951035 0.37416768 7.3864684e-40
-1.9401886 0.34741783 0.37762091 1.1992593e-39
-1.9392018 0.3501299 0.37437779 1.1971097e-39
-1.9401462 0.35612085 0.38212934 1.197467e-39
-1.9401284 0.36292812 0.38572785 9.219577e-40
-1.9399806 0.37013939 0.38892502 1.4747798e-39
-1.9395438 0.37622803 0.39013472 5.5317798e-40
-1.9396405 0.38119808 0.39328551 9.2160177e-40
-1.9403695 0.38849112 0.40071392 6.4572954e-40
-1.9405637 0.39589778 0.40564933 2.7804704e-40
-1.9406106 0.4028348 0.40962777 3.6986853e-40
-1.9401363 0.41060224 0.41156635 4.6133968e-40
-1.9399698 0.41747525 0.41449031 7.3685038e-40
-1.9399155 0.42298737 0.41721529 7.3756504e-40
-1.9395632 0.42959696 0.41910979 4.6169982e-40
-1.9401423 0.43426856 0.42440274 2.7695403e-40
-1.940329 0.44212216 0.42954427 2.7802883e-40
-1.9385961 0.4506506 0.42588678 1.4503439e-42
-1.9396211 0.45538935 0.43334502 3.7093491e-40
-1.939577 0.46555945 0.43863842 1.8020698e-42
-1.9394267 0.47261736 0.4417406 3.643376e-43
-1.9398527 0.48495135 0.45044935 5.5282205e-40
-1.940009 0.49175236 0.45487627 1.8654506e-40
-1.9403061 0.49936521 0.46041435 9.5075298e-41
-1.9402403 0.50660437 0.46401793 2.8019804e-40
-1.9396931 0.51326376 0.46500915 7.3828811e-40
-1.9391699 0.51948851 0.46588084 2.580393e-39
-1.9410182 0.2184643 0.31179377 3.7789404e-39
-1.9411607 0.22389793 0.3154138 3.7785943e-39
-1.9416236 0.22620261 0.31887174 1.2907416e-39
-1.9412658 0.23232706 0.3204776 2.580407e-39
-1.9412088 0.23865546 0.32363048 2.5807574e-39
-1.9421396 0.24362218 0.33076265 2.397092e-39
-1.941741 0.25047049 0.33256561 1.9375516e-39
-1.9420125 0.25641042 0.33707732 2.3041719e-39
-1.9423238 0.27728444 0.34985992 2.2123364e-39
-1.942145 0.2825489 0.35185531 3.6867518e-39
-1.9426994 0.28767547 0.35727632 3.0428131e-39
-1.9424818 0.29345316 0.35936463 2.1204995e-39
-1.9420108 0.30057439 0.36096936 2.3070558e-39
-1.942093 0.30794111 0.36534894 1.843914e-39
-1.9422183 0.31380165 0.36911923 2.6708076e-39
-1.9422863 0.31809914 0.37176901 2.6729698e-39
-1.9418375 0.32298326 0.37227014 1.6577277e-39
-1.9414252 0.32949838 0.37382722 1.4744112e-39
-1.9417853 0.33567965 0.37889197 1.1981887e-39
-1.9413888 0.34202892 0.38043481 1.0137974e-39
-1.9420103 0.34745112 0.38633624 1.0145079e-39
-1.9415959 0.35398665 0.38789508 1.1056301e-39
-1.9411815 0.36052233 0.38945407 7.3899997e-40
-1.9414151 0.36752656 0.39435923 7.3757205e-40
-1.9409988 0.3740896 0.3959237 4.6241868e-40
-1.9408624 0.38086462 0.39893898 1.0138002e-39
-1.9421618 0.38663197 0.40826422 6.4501908e-40
-1.9417423 0.39323795 0.40983677 4.6134949e-40
-1.9416045 0.40008935 0.41288656 1.8512134e-40
-1.9411846 0.40670598 0.41446331 4.6062782e-40
-1.9420068 0.41372249 0.42218518 5.5355073e-40
-1.9414716 0.42024136 0.42315781 8.2869008e-40
-1.9413946 0.42640653 0.42612708 5.5317658e-40
-1.9419682 0.4319022 0.43183964 4.6457528e-40
-1.9423314 0.44018644 0.43805718 3.7094052e-40
-1.9407775 0.46224704 0.44257778 4.3174006e-42
-1.9422277 0.49022675 0.46464369 1.0152365e-39
-1.9418027 0.49717543 0.4663752 2.7838896e-40
-1.9416202 0.50430435 0.46936172 5.5460871e-40
-1.9415077 0.51091909 0.47240421 1.0163113e-39
-1.9411485 0.51764733 0.47433081 1.9350292e-39
-1.9406089 0.52221644 0.47422716 1.1063476e-39
-1.9432356 0.21620321 0.32115641 3.778939e-39
-1.9426869 0.22163574 0.32147685 4.2402745e-39
-1.9429672 0.22423224 0.32421964 1.3829373e-39
-1.9426783 0.23024933 0.32609704 2.6733159e-39
-1.9426572 0.23653777 0.32940012 1.5662537e-39
-1.94379 0.24152052 0.33750439 2.5814776e-39
-1.9434068 0.24832866 0.33936003 1.8453559e-39
-1.9436644 0.25431961 0.34383193 2.4889247e-39
-1.9439065 0.26077193 0.34847993 2.3970962e-39
-1.9443928 0.26733628 0.35435408 3.3197615e-39
-1.9440482 0.27378687 0.35619944 2.7683926e-39
-1.9435164 0.27974606 0.35688606 2.3048978e-39
-1.9439223 0.29133993 0.36509782 2.1204995e-39
-1.9433428 0.29975158 0.36688343 1.6602542e-39
-1.9435331 0.30583706 0.37108552 2.0268675e-39
-1.943627 0.31140503 0.37454709 3.0392216e-39
-1.9437857 0.31541571 0.37747574 1.4733364e-39
-1.9430186 0.32075459 0.37670237 1.7502792e-39
-1.9426057 0.32726097 0.37825322 1.4747671e-39
-1.9427867 0.33342144 0.38245025 8.3012781e-40
-1.9423726 0.33993858 0.38400057 9.2231503e-40
-1.9430387 0.35186663 0.39363626 1.1985376e-39
-1.9428824 0.35856518 0.39651513 8.3155293e-40
-1.9428689 0.36539033 0.40014407 7.3756924e-40
-1.9426428 0.37191483 0.40259567 5.5497725e-40
-1.9426861 0.37903467 0.40665564 9.2159897e-40
-1.9432573 0.38418868 0.4121725 7.3865525e-40
-1.9438367 0.39082542 0.41853029 5.5354793e-40
-1.9434158 0.39744309 0.42010221 7.3649305e-40
-1.9432479 0.40430477 0.42301407 1.3818484e-39
-1.942826 0.41093311 0.42458725 7.3720631e-40
-1.9430817 0.41603297 0.4285678 2.1176324e-39
-1.9430162 0.42083943 0.43085572 1.1971097e-39
-1.9426631 0.42745066 0.43274808 3.7058179e-40
-1.9433717 0.43569389 0.44059253 1.1985432e-39
-1.943845 0.44040653 0.44540298 5.5642059e-40
-1.9435225 0.45521948 0.45187864 9.4716566e-41
-1.9433423 0.46107292 0.45418683 2.7947356e-40
-1.9429855 0.46774745 0.45609614 1.8728354e-40
-1.9425989 0.47486076 0.45809981 1.8620454e-40
-1.9432726 0.48248589 0.46544236 2.787589e-40
-1.9425259 0.48697075 0.46430525 6.4501908e-40
-1.9434938 0.49453425 0.47301978 7.4010279e-40
-1.9434931 0.50177783 0.47693652 8.3265435e-40
-1.942933 0.50928944 0.4783271 9.2268217e-40
-1.9446697 0.2130359 0.32628891 4.7009051e-39
-1.9448078 0.22175817 0.33166879 3.1332221e-39
-1.9446735 0.22808887 0.33445448 3.1328648e-39
-1.9442691 0.23447245 0.33597773 3.2239702e-39
-1.945027 0.23990765 0.34253716 1.1077867e-39
-1.9448444 0.24619181 0.34506699 1.8457119e-39
-1.9459478 0.25175145 0.35334331 2.7647871e-39
-1.9455389 0.25819746 0.35488003 2.4885729e-39
-1.9459519 0.26502278 0.36054543 3.0442551e-39
-1.9456068 0.27147451 0.36238968 3.0449795e-39
-1.9452618 0.2779263 0.36423382 2.8595135e-39
-1.9447968 0.28416353 0.36538959 2.3048711e-39
-1.9453609 0.28922966 0.3708244 1.8435595e-39
-1.9452899 0.29523021 0.37373307 2.2112574e-39
-1.9451414 0.30178425 0.37657121 2.0265074e-39
-1.945366 0.3084996 0.38127774 2.1190618e-39
-1.9451426 0.31341949 0.38287336 1.474414e-39
-1.9447166 0.31874961 0.38372415 1.6595269e-39
-1.9443022 0.32526746 0.38527322 1.5673257e-39
-1.9439132 0.33121651 0.38663584 2.3963773e-39
-1.9453694 0.33658287 0.39649239 1.476572e-39
-1.9443735 0.34383816 0.39566422 2.0311877e-39
-1.9451562 0.35012746 0.40280473 8.31197e-40
-1.9449959 0.35686383 0.40568468 8.312012e-40
-1.9445772 0.36343932 0.40724453 9.2232484e-40
-1.9445637 0.37030408 0.41089544 1.0148708e-39
-1.9443481 0.37629876 0.41310957 1.0137974e-39
-1.945345 0.38882238 0.42464754 1.1059972e-39
-1.9444847 0.39497048 0.42386773 8.2940754e-40
-1.9445732 0.40906215 0.43191576 7.3757064e-40
-1.9441956 0.4148643 0.43325329 1.2893053e-39
-1.9446131 0.41846189 0.43719351 1.4729721e-39
-1.9442596 0.42507428 0.43908477 8.3155293e-40
-1.9450637 0.43186113 0.44659656 4.6206416e-40
-1.9443647 0.43752989 0.44632697 9.2160177e-40
-1.9452878 0.45340607 0.45932618 6.4645121e-40
-1.9445952 0.46707886 0.46341896 1.8620454e-40
-1.9450669 0.47400817 0.46942121 6.4609528e-40
-1.9448953 0.48008066 0.47188801 9.2304511e-40
-1.9446367 0.48577216 0.47373366 6.4644981e-40
-1.9443998 0.50556153 0.48331293 1.9361096e-39
-1.9457929 0.2087632 0.32933939 1.7520785e-39
-1.9457896 0.21388896 0.33209753 3.4098006e-39
-1.9458675 0.21975449 0.33564356 2.9495441e-39
-1.946089 0.22601016 0.34008744 3.0413768e-39
-1.9459543 0.23235743 0.34287825 3.1328493e-39
-1.946269 0.23824976 0.34757024 2.3056082e-39
-1.9462801 0.24405815 0.35076702 2.3045348e-39
-1.9474967 0.2496525 0.35960278 2.8569827e-39
-1.9474754 0.25625551 0.36307409 3.6867532e-39
-1.9475108 0.26270962 0.36673659 3.5027249e-39
-1.9470572 0.26909059 0.36802468 2.1205079e-39
-1.9466449 0.27557421 0.36956489 2.3041789e-39
-1.94684 0.28161415 0.37376523 2.2126979e-39
-1.9466257 0.28664356 0.37546372 1.5666181e-39
-1.9466901 0.29363999 0.37955743 3.3172476e-39
-1.9469625 0.29978406 0.38418239 1.8435581e-39
-1.9468104 0.30638161 0.38702732 1.3843792e-39
-1.9456187 0.31109983 0.38389164 1.2907416e-39
-1.9461594 0.31663403 0.38946778 1.6602416e-39
-1.9467269 0.32256919 0.39538968 2.3967304e-39
-1.9466107 0.32963353 0.39865699 1.4754888e-39
-1.945937 0.33626837 0.39903191 7.3865665e-40
-1.9475634 0.34125674 0.40949678 1.4758658e-39
-1.9464505 0.3547315 0.41147527 9.230367e-40
-1.946701 0.36175537 0.41647327 5.5497865e-40
-1.9463727 0.36767149 0.41810724 5.5569472e-40
-1.946213 0.37446555 0.42102182 9.2160317e-40
-1.9461638 0.38136026 0.42451724 9.219605e-40
-1.9452204 0.3866457 0.4228746 1.105993e-39
-1.9463193 0.39314792 0.43163994 1.1059902e-39
-1.9460413 0.40691435 0.43776286 1.1985474e-39
-1.9458412 0.41573277 0.44157982 1.6580948e-39
-1.9464349 0.42328882 0.44850403 1.1077853e-39
-1.9465451 0.42968282 0.45248944 6.4645542e-40
-1.9461166 0.43638423 0.45407081 7.3865105e-40
-1.946509 0.44876856 0.46264729 9.2160597e-40
-1.9470562 0.45882428 0.47070134 9.2161018e-40
-1.9469913 0.46506789 0.47377083 7.3830072e-40
-1.9465588 0.47182673 0.47536322 1.1056469e-39
-1.9468818 0.47814867 0.48032716 8.3194109e-40
-1.9458774 0.48323628 0.4782854 1.0148792e-39
-1.9461302 0.4997696 0.4884392 9.2304931e-40
-1.9466584 0.50609434 0.49438438 1.6591696e-39
-1.9465953 0.5113042 0.49690315 1.6562941e-39
-1.9465855 0.65330166 0.57370323 1.1077713e-39
-1.9475974 0.20667619 0.33682469 1.6595213e-39
-1.9476829 0.21132424 0.3397485 3.1339382e-39
-1.9479089 0.21754916 0.34419611 2.7651542e-39
-1.9475346 0.22392184 0.34585837 2.8577072e-39
-1.9477609 0.23022546 0.3503505 2.9495455e-39
-1.9477134 0.23596218 0.35322815 1.6580906e-39
-1.9497232 0.24106546 0.36558527 3.4123327e-39
-1.9493779 0.24750605 0.36742249 3.5034255e-39
-1.9490325 0.25394672 0.36925969 3.4119642e-39
-1.9489058 0.2605013 0.37220201 2.4885744e-39
-1.9484929 0.26698583 0.37373921 2.3963703e-39
-1.9480797 0.2734704 0.37527663 2.0293871e-39
-1.9484131 0.2798087 0.38029823 2.676197e-39
-1.9478624 0.28601208 0.38102621 2.2116245e-39
-1.9480373 0.29108688 0.38460729 1.566974e-39
-1.948669 0.29774621 0.39122733 1.5691362e-39
-1.947827 0.30293643 0.39001632 1.4747798e-39
-1.9480162 0.3080017 0.39366141 1.7517282e-39
-1.9478649 0.31462964 0.39652508 1.4755e-39
-1.9480654 0.32078692 0.40081492 1.4758489e-39
-1.9483297 0.32690331 0.40538713 1.6613262e-39
-1.9484977 0.33237329 0.40914944 1.1074308e-39
-1.9480958 0.33766672 0.41009524 1.2907416e-39
-1.9487391 0.34625202 0.41781348 1.5662439e-39
-1.9483181 0.35284629 0.41937181 1.1981901e-39
-1.9481606 0.35961995 0.42228594 1.0141519e-39
-1.9483815 0.36590606 0.42674264 9.2232484e-40
-1.9483355 0.37279135 0.43024898 9.2160738e-40
-1.9473627 0.37901047 0.42897022 9.2231223e-40
-1.9472032 0.38584131 0.431905 1.2903815e-39
-1.9474441 0.40653405 0.44425455 1.1981929e-39
-1.9478067 0.41370797 0.44986784 1.933974e-39
-1.9481715 0.42053175 0.45530242 1.1981929e-39
-1.9480244 0.42750755 0.45837572 1.1070748e-39
-1.9482806 0.43494192 0.46362135 1.3818723e-39
-1.9471662 0.44091266 0.46153313 8.3084948e-40
-1.9477946 0.44791147 0.46832031 1.1070664e-39
-1.9488161 0.45464551 0.47684169 1.5669796e-39
-1.9486674 0.460765 0.47944388 9.2233185e-40
-1.9482341 0.46752536 0.4810338 1.5673313e-39
-1.9484625 0.47517326 0.48626384 1.1989103e-39
-1.9477664 0.48159415 0.48641518 1.4744084e-39
-1.9475921 0.48874956 0.48945484 1.290034e-39
-1.947818 0.49543339 0.49415147 9.2304791e-40
-1.948226 0.50161231 0.49944267 2.3056096e-39
-1.9473124 0.50694895 0.4979687 9.219563e-40
-1.9481302 0.65102243 0.57984495 8.5680363e-39
-1.9497706 0.20281872 0.3451131 3.8718437e-39
-1.9494557 0.20916158 0.3470425 3.1339368e-39
-1.9493215 0.21547574 0.34981844 3.2254163e-39
-1.9491062 0.22198068 0.35231179 2.3952997e-39
-1.9498372 0.23918815 0.36511382 3.1342983e-39
-1.9509355 0.24519631 0.37360892 3.9626142e-39
-1.9504851 0.25191957 0.37509745 2.6736733e-39
-1.9503404 0.25839862 0.37791249 2.5811217e-39
-1.9501959 0.26490903 0.38074601 2.48821e-39
-1.9499047 0.27141422 0.38287699 2.1212254e-39
-1.9494902 0.27791542 0.38441539 2.2130637e-39
-1.9496888 0.28398421 0.38864842 2.3956486e-39
-1.9492728 0.29049629 0.39018658 2.0283109e-39
-1.9501429 0.29945523 0.39918867 1.8442783e-39
-1.9497253 0.30598682 0.40073031 2.0275822e-39
-1.9499985 0.31276837 0.40570471 1.8435581e-39
-1.9498872 0.31912675 0.40861401 2.5775274e-39
-1.9495261 0.32441124 0.4097504 1.9364796e-39
-1.9499538 0.33023122 0.41494167 1.3829373e-39
-1.9495325 0.33681738 0.4164955 1.5662411e-39
-1.9494131 0.35133755 0.42378324 1.5662523e-39
-1.9500012 0.35772166 0.43004632 1.3829401e-39
-1.950254 0.36335793 0.43430305 2.0290311e-39
-1.950093 0.37086564 0.43759832 1.3822324e-39
-1.9499277 0.37768862 0.44050083 1.3818611e-39
-1.9489491 0.38391241 0.439197 9.2268077e-40
-1.949626 0.3903091 0.44589055 1.6588179e-39
-1.9488775 0.3931779 0.44386971 1.1985502e-39
-1.9491804 0.39947176 0.44872189 1.7510093e-39
-1.9497577 0.40471587 0.45431647 2.2116357e-39
-1.9499979 0.41188487 0.45934281 1.7510163e-39
-1.9496418 0.41852498 0.46123666 1.1999991e-39
-1.9502038 0.42606091 0.46799761 1.106363e-39
-1.9497119 0.43900079 0.47265291 1.2914647e-39
-1.9497182 0.44623759 0.47659904 1.4740581e-39
-1.9489063 0.45121321 0.47541532 1.0141561e-39
-1.9500775 0.45895091 0.48519465 1.385475e-39
-1.9496155 0.46460101 0.48604676 1.0127212e-39
-1.9500314 0.46999374 0.49095088 1.3836785e-39
-1.949523 0.47976819 0.49381313 1.6595255e-39
-1.9490418 0.48630831 0.49505562 2.3967347e-39
-1.9490525 0.49082232 0.49754933 1.1052672e-39
-1.9489836 0.49707994 0.50060683 1.6602402e-39
-1.9491584 0.50549704 0.50599712 1.0127184e-39
-1.9500911 0.64972216 0.58850312 1.7047515e-38
-1.9514338 0.19993338 0.3514924 5.4377457e-39
-1.9508668 0.20709361 0.35266018 3.134657e-39
-1.9507322 0.21340553 0.35543397 3.1346598e-39
-1.9510986 0.2189977 0.36020863 3.0413964e-39
-1.9508839 0.2249746 0.36241823 3.133948e-39
-1.9506691 0.23095152 0.36462781 2.8602379e-39
-1.9519249 0.23778957 0.37432444 3.7807453e-39
-1.951188 0.24283718 0.3735376 4.0544567e-39
-1.9519181 0.24982262 0.38080367 2.6743921e-39
-1.951773 0.25629908 0.38361642 2.3981682e-39
-1.9515694 0.26452959 0.38709888 2.2130623e-39
-1.9515445 0.27536559 0.39284369 2.3052593e-39
-1.9511278 0.28187874 0.39437887 2.5796882e-39
-1.9509211 0.29017165 0.39788043 2.3956557e-39
-1.9506085 0.30546409 0.4046641 1.2914675e-39
-1.9520695 0.31023726 0.41422239 1.9361264e-39
-1.9516485 0.31680721 0.41576838 1.751361e-39
-1.9514812 0.32222205 0.41790041 2.0293997e-39
-1.9516803 0.32821569 0.42209429 1.5662677e-39
-1.9512575 0.33481377 0.42364654 1.4755042e-39
-1.9510409 0.3436695 0.42740461 1.5666152e-39
-1.9515377 0.35009867 0.43325636 1.6588151e-39
-1.9521998 0.35441166 0.43875116 2.1187086e-39
-1.9507793 0.35903224 0.43447036 1.2914661e-39
-1.9515587 0.36433449 0.44106069 1.4747812e-39
-1.9519305 0.37470877 0.44845057 2.1197946e-39
-1.9513041 0.38024929 0.44845796 1.015954e-39
-1.9502331 0.38432986 0.44555318 1.3818639e-39
-1.9517308 0.39096218 0.45629323 1.291843e-39
-1.9513545 0.40233868 0.46065387 1.753896e-39
-1.9516016 0.40950218 0.46570995 1.8450112e-39
-1.9514234 0.41649687 0.46864447 1.2914675e-39
-1.9507278 0.42298362 0.4688347 1.9361124e-39
-1.951255 0.43061876 0.47548282 1.3836687e-39
-1.9516399 0.43730444 0.48093948 1.2925479e-39
-1.9512058 0.44405657 0.48252106 1.4755e-39
-1.9507718 0.45080888 0.48410293 1.1085168e-39
-1.9509202 0.48809767 0.50499183 1.6602458e-39
-1.9508853 0.49546531 0.50881225 1.5680516e-39
-1.9508047 0.50128734 0.51157832 2.764434e-39
-1.9524108 0.64113307 0.59492987 1.7139716e-38
-1.9518496 0.64734286 0.59561157 1.9535715e-38
-1.9519037 0.20008515 0.3538174 2.8569841e-39
-1.9526827 0.20491235 0.36014962 3.2257722e-39
-1.9526565 0.21665005 0.3663772 3.136113e-39
-1.9537824 0.22266701 0.375009 3.9654967e-39
-1.9536072 0.22972195 0.37798977 2.766229e-39
-1.9531926 0.23620012 0.37951627 2.6743935e-39
-1.952778 0.24267833 0.3810429 2.67296e-39
-1.9526124 0.25427541 0.38652885 1.8435567e-39
-1.9526689 0.26059505 0.39021865 1.6591724e-39
-1.9533565 0.26192138 0.3942191 2.3056138e-39
-1.9529824 0.27326205 0.3985703 2.3974493e-39
-1.9525036 0.28148103 0.40073177 2.8569911e-39
-1.9523619 0.28805557 0.4036141 2.4874968e-39
-1.9525667 0.29413676 0.40788308 2.2123392e-39
-1.9521477 0.30067101 0.4094193 2.0279563e-39
-1.95438 0.30701226 0.42350841 2.674046e-39
-1.9537057 0.31277964 0.42340985 1.752433e-39
-1.9538252 0.31957513 0.42765835 1.7517254e-39
-1.9534013 0.32618353 0.42921114 1.751368e-39
-1.9529775 0.33279198 0.43076381 1.6591752e-39
-1.9525535 0.33940041 0.43231651 1.4754986e-39
-1.9526473 0.34653434 0.43662542 2.212349e-39
-1.9526118 0.35067177 0.4386943 3.0421027e-39
-1.9526491 0.35729402 0.44245648 1.1074336e-39
-1.9536622 0.36185473 0.44976109 1.5680558e-39
-1.9531465 0.37209591 0.45284182 1.8450154e-39
-1.9530015 0.37656334 0.45456728 8.3121241e-40
-1.9527013 0.38121444 0.45565099 1.6606214e-39
-1.9529548 0.38829434 0.46069252 2.1215883e-39
-1.9519918 0.39442411 0.45941252 1.8453615e-39
-1.9529076 0.4025476 0.46818119 1.4747784e-39
-1.9530606 0.41448948 0.47537473 1.2010669e-39
-1.9528859 0.42144668 0.47830579 1.2936213e-39
-1.9529027 0.42862752 0.48227158 1.3851009e-39
-1.9534465 0.43543491 0.4885523 1.7556882e-39
-1.9529656 0.44219041 0.48991254 1.4762217e-39
-1.9525298 0.44895494 0.4914926 1.2929136e-39
-1.9532764 0.46389312 0.5031417 2.3074215e-39
-1.9523491 0.47217032 0.50319386 2.2126951e-39
-1.9531534 0.47811309 0.51024973 2.0290409e-39
-1.9525778 0.4910709 0.51451486 1.4772923e-39
-1.9523903 0.49823746 0.51749837 1.6584479e-39
-1.954983 0.64021409 0.606713 1.9627571e-38
-1.9546441 0.2023486 0.36812642 3.2264939e-39
-1.9544294 0.20832558 0.37033603 2.6780047e-39
-1.9552451 0.21522389 0.37796435 3.0431831e-39
-1.95518 0.22120488 0.3808898 3.0424586e-39
-1.9555745 0.22671016 0.38575292 4.3328415e-39
-1.9552116 0.23206408 0.38691747 2.7665934e-39
-1.9548903 0.24054781 0.38997474 2.5822063e-39
-1.953791 0.24706802 0.38825527 2.674039e-39
-1.9543846 0.25250241 0.39403012 4.1470069e-39
-1.9543228 0.25518245 0.39518535 1.9357579e-39
-1.9548683 0.26005656 0.40042755 3.6874735e-39
-1.9542013 0.26823309 0.40166825 3.5034395e-39
-1.9546388 0.27289099 0.40627828 2.3049062e-39
-1.9545004 0.2794643 0.40917462 2.3052663e-39
-1.9540803 0.286001 0.41070732 1.9375586e-39
-1.9547209 0.29270253 0.41739044 3.1343123e-39
-1.9540195 0.29866931 0.41727218 2.1205135e-39
-1.9536786 0.30451667 0.41880915 1.6591682e-39
-1.9556111 0.31121826 0.43166193 2.3988941e-39
-1.9552584 0.31777436 0.43352637 3.0413978e-39
-1.9547338 0.32399908 0.43439019 1.7517268e-39
-1.9555081 0.33130473 0.4420411 2.5811301e-39
-1.9550719 0.33709314 0.4430913 1.7510121e-39
-1.9546449 0.34373057 0.44464469 1.9354006e-39
-1.954497 0.35052982 0.44761783 1.9350474e-39
-1.9544985 0.35556304 0.45034975 1.474777e-39
-1.9551284 0.35970441 0.45559731 1.4762245e-39
-1.9542944 0.37884471 0.46197477 2.2137937e-39
-1.9541892 0.38667381 0.46570927 1.9346803e-39
-1.9539691 0.39299253 0.46807814 1.7528016e-39
-1.9539578 0.40003011 0.47183341 1.5680516e-39
-1.9546432 0.41956186 0.48567531 1.7520897e-39
-1.9546622 0.42674875 0.48965555 1.3847449e-39
-1.95451 0.43378407 0.49273637 1.3847505e-39
-1.9550415 0.44064608 0.49898776 1.4765846e-39
-1.9543438 0.44645599 0.49880072 2.029778e-39
-1.9539826 0.45316571 0.50070828 2.0304843e-39
-1.9543359 0.46213067 0.50724649 1.1059986e-39
-1.9545184 0.48205504 0.51890111 1.6595325e-39
-1.9540011 0.49606723 0.52401423 1.8410441e-39
-1.9551247 0.63448155 0.60428709 1.5296529e-38
-1.9561672 0.20133735 0.37485066 3.5942016e-39
-1.9557537 0.20778194 0.37636423 3.0431943e-39
-1.9555758 0.2143631 0.379076 1.5691292e-39
-1.9573056 0.21898997 0.38983876 3.0420957e-39
-1.9575286 0.22433081 0.39379436 4.700545e-39
-1.9569197 0.22991854 0.39391106 3.0417509e-39
-1.9562174 0.236452 0.39409423 2.7662416e-39
-1.9561266 0.24445987 0.39799449 2.8584345e-39
-1.9559404 0.25019512 0.40020886 4.3310464e-39
-1.9556756 0.25319508 0.40056825 1.7520953e-39
-1.955271 0.25952587 0.4020631 1.8442783e-39
-1.956666 0.26422948 0.41126844 3.6889196e-39
-1.9560777 0.27077872 0.41200444 2.3978151e-39
-1.9559681 0.2771931 0.41495284 3.3212049e-39
-1.9557905 0.2839317 0.41775107 2.2137853e-39
-1.9557928 0.29055691 0.42134839 2.3049146e-39
-1.9555471 0.29621392 0.42323688 2.6718852e-39
-1.9560254 0.30338639 0.42940158 1.9371956e-39
-1.9561766 0.30872402 0.43301243 3.5034395e-39
-1.9578087 0.31576136 0.44461304 3.1342983e-39
-1.9574537 0.32235441 0.44648632 3.0410335e-39
-1.9568751 0.32896206 0.44729969 1.9357565e-39
-1.9568181 0.3350873 0.45034266 1.3847449e-39
-1.9568198 0.34195849 0.45406902 1.3847463e-39
-1.9562509 0.34853309 0.45491144 1.2925535e-39
-1.9558649 0.39117771 0.47614723 1.8446455e-39
-1.9554321 0.39787883 0.47770712 2.2116273e-39
-1.9555395 0.40505061 0.48210162 1.4769532e-39
-1.9555271 0.41215444 0.48588642 1.8450042e-39
-1.9562317 0.43094304 0.49941906 1.8446539e-39
-1.9565324 0.43846667 0.50492638 1.4773119e-39
-1.9563775 0.44449112 0.50744671 2.3985633e-39
-1.9556456 0.45385826 0.50902176 1.4762343e-39
-1.9552004 0.46720141 0.51411855 2.3981822e-39
-1.956327 0.48027205 0.52657008 1.661329e-39
-1.957798 0.63087785 0.61509985 1.3175301e-38
-1.9585108 0.19151713 0.3807244 5.4395534e-39
-1.9578778 0.1991798 0.38184932 3.3186924e-39
-1.9576172 0.20440857 0.38343474 4.5186761e-39
-1.9576863 0.20884548 0.38616654 1.936111e-39
-1.9587395 0.21689825 0.39555293 3.1342983e-39
-1.958493 0.22211708 0.39720002 4.8849321e-39
-1.9579421 0.22786582 0.39768174 3.3179735e-39
-1.9577969 0.23432533 0.40048429 2.9499112e-39
-1.9578439 0.24142674 0.40455249 4.2399424e-39
-1.9571025 0.2479098 0.40452135 3.8718703e-39
-1.9585273 0.26843977 0.422434 3.5052388e-39
-1.9581139 0.27533668 0.42419302 2.4900051e-39
-1.9576725 0.28188917 0.4256317 2.7651542e-39
-1.9583218 0.28807613 0.43208003 2.4889317e-39
-1.9578975 0.29466742 0.43362087 2.2126993e-39
-1.9578747 0.3013697 0.43713966 2.2134322e-39
-1.958421 0.30809009 0.44338462 3.1350172e-39
-1.9587665 0.32017043 0.45157188 2.1201464e-39
-1.9583373 0.32682094 0.45312253 1.7531617e-39
-1.9582816 0.33294487 0.4561705 1.7542407e-39
-1.9582863 0.33981156 0.45990881 1.6623982e-39
-1.9570378 0.35537148 0.46236938 2.3996199e-39
-1.9575324 0.38296691 0.47966531 1.5684215e-39
-1.9577665 0.38935438 0.48423946 2.0283137e-39
-1.9571896 0.39597511 0.48506775 2.0283123e-39
-1.9571813 0.40304878 0.48885697 1.9368341e-39
-1.9569659 0.40908358 0.49109453 1.6609717e-39
-1.9569713 0.41524419 0.49445423 2.858796e-39
-1.9574807 0.42148891 0.50026566 1.9354062e-39
-1.9579424 0.43495342 0.50975662 2.4921813e-39
-1.9574901 0.44417626 0.5125885 2.3985479e-39
-1.9574037 0.45829758 0.51981848 1.6609647e-39
-1.9597181 0.6293537 0.62344241 1.1331038e-38
-1.9594549 0.18943146 0.38410372 5.5324525e-39
-1.9584925 0.20169009 0.38614392 3.3190623e-39
-1.9590614 0.20788099 0.39220962 3.0431873e-39
-1.9591224 0.21306692 0.39530775 1.7524428e-39
-1.9602062 0.21919836 0.40379986 3.0421083e-39
-1.9596444 0.22572178 0.40464854 2.9495553e-39
-1.9596403 0.23218058 0.40812445 2.7662472e-39
-1.9590397 0.2407551 0.40989724 2.9495511e-39
-1.9596505 0.24556281 0.41541567 4.2410004e-39
-1.9583734 0.24906349 0.41121322 3.964059e-39
-1.9588188 0.25446442 0.41626242 4.6076291e-39
-1.9591191 0.26096472 0.42121392 3.7807523e-39
-1.9595602 0.27322111 0.42995262 2.5825706e-39
-1.960047 0.27921945 0.43552297 3.9629898e-39
-1.9597938 0.28596529 0.43796501 2.6733173e-39
-1.9596362 0.29261306 0.44081077 2.3052635e-39
-1.9603634 0.29915655 0.44782397 3.3194196e-39
-1.9595073 0.3060444 0.4474642 2.3960214e-39
-1.9596529 0.31232175 0.45155638 3.2272226e-39
-1.9600425 0.32082033 0.45801586 1.568053e-39
-1.9596223 0.32732052 0.45952719 1.7517282e-39
-1.9593138 0.3460525 0.46819183 1.9379187e-39
-1.9584464 0.35248098 0.4675301 1.6620507e-39
-1.9584502 0.3593967 0.47129062 1.4776692e-39
-1.9583343 0.36627826 0.4744615 1.8446455e-39
-1.9595679 0.37895465 0.48721138 2.8595261e-39
-1.9594332 0.38500753 0.48984435 1.937204e-39
-1.9588511 0.39869216 0.49447149 2.212349e-39
-1.9585785 0.41286275 0.50083882 3.0424712e-39
-1.9594125 0.42794392 0.51298183 2.675132e-39
-1.9593099 0.4442158 0.52129859 8.3121101e-40
-1.9590105 0.45590696 0.52619576 2.2166664e-39
-1.9593368 0.46396074 0.53211254 2.0275962e-39
-1.9616178 0.62777454 0.6316579 1.1056611e-38
-1.9599851 0.19376001 0.38897777 4.5183159e-39
-1.9600658 0.20589675 0.39593136 3.0431887e-39
-1.960638 0.21213304 0.40203801 3.1353773e-39
-1.9612178 0.22360685 0.41101563 2.8591617e-39
-1.9607979 0.23011726 0.41253397 2.7662472e-39
-1.9616071 0.2360304 0.41959831 2.8573597e-39
-1.9611529 0.24061368 0.41991031 4.0559099e-39
-1.9617863 0.24562636 0.42564669 4.0569777e-39
-1.9614347 0.25213668 0.42749125 3.9651478e-39
-1.9606868 0.25863981 0.42744046 3.7818285e-39
-1.961114 0.26551327 0.43319985 2.5822105e-39
-1.9600677 0.27082434 0.43107885 3.8743815e-39
-1.9602505 0.27838138 0.43604082 1.8446441e-39
-1.961512 0.28388354 0.4450413 2.765513e-39
-1.9614108 0.29056403 0.44817373 2.2148643e-39
-1.961951 0.29680443 0.45413059 2.8613197e-39
-1.9612026 0.30329016 0.45406738 3.5038053e-39
-1.9615293 0.3102302 0.45938236 2.581863e-39
-1.9613646 0.31697145 0.46224499 1.6616948e-39
-1.9609195 0.32327759 0.46353292 2.1244652e-39
-1.961005 0.32529387 0.46503153 1.6606129e-39
-1.9601194 0.33182243 0.4643364 1.8460832e-39
-1.9606222 0.35690251 0.48031053 1.8453713e-39
-1.9612668 0.39046079 0.50154865 2.859173e-39
-1.9605445 0.40079641 0.50369424 2.0286836e-39
-1.9614904 0.44151267 0.53024566 1.9375572e-39
-1.9608655 0.44814602 0.53085214 1.8453615e-39
-1.9604217 0.45497209 0.53242707 2.0286864e-39
-1.9609803 0.46194217 0.53886688 1.7531715e-39
-1.9631803 0.62547874 0.6378752 1.2070397e-38
-1.9621404 0.18500185 0.3945283 5.0696876e-39
-1.9619327 0.20370124 0.40365601 3.3187078e-39
-1.9615139 0.2101794 0.4051623 3.135027e-39
-1.9617903 0.21651652 0.40991181 2.8591631e-39
-1.9621224 0.22082278 0.41382855 1.5691432e-39
-1.9637084 0.23678239 0.43003717 4.3335758e-39
-1.963135 0.2441828 0.43130463 3.0431803e-39
-1.9627097 0.25075349 0.43282983 2.9506273e-39
-1.9626524 0.25631714 0.43556756 3.4126929e-39
-1.9625621 0.26339927 0.43896931 2.9495525e-39
-1.962586 0.2700251 0.44266948 2.8580813e-39
-1.9618295 0.27657446 0.44260195 2.3052677e-39
-1.9631436 0.29437283 0.45850819 3.3212161e-39
-1.9626541 0.30352736 0.46112573 2.213421e-39
-1.9628271 0.31483567 0.46807098 2.1223086e-39
-1.9625074 0.32092535 0.46984035 3.1364605e-39
-1.9618299 0.32304701 0.46775472 1.6606101e-39
-1.963016 0.32855839 0.47639999 3.0442705e-39
-1.961995 0.34234166 0.47898465 3.8718633e-39
-1.9617745 0.3484816 0.48125452 3.5981533e-39
-1.9628935 0.35568285 0.49049404 2.8595219e-39
-1.962534 0.36233029 0.49237502 3.7785985e-39
-1.962603 0.36923656 0.49644235 3.2272352e-39
-1.9622427 0.37589836 0.49832821 2.6747859e-39
-1.9624022 0.41116959 0.51817721 2.4003388e-39
-1.9620398 0.41787076 0.52007431 2.8595345e-39
-1.9622519 0.4717117 0.55022568 2.3034614e-39
-1.9623386 0.48821753 0.55957162 2.5764386e-39
-1.9647412 0.62318581 0.64408618 1.2807229e-38
-1.9636155 0.19530506 0.40714657 4.7027128e-39
-1.9632678 0.20171957 0.40895844 5.0686199e-39
-1.9636374 0.20792215 0.41407892 3.1350228e-39
-1.963997 0.21423736 0.41921374 4.1495446e-39
-1.9640484 0.22062038 0.42291343 4.1491817e-39
-1.9635752 0.22513171 0.42309579 1.8453629e-39
-1.9636124 0.22946793 0.42562065 4.5158104e-39
-1.9652787 0.23444887 0.43627214 4.4254056e-39
-1.9649266 0.24096175 0.43811461 4.792019e-39
-1.9645741 0.24747466 0.43995702 4.6076305e-39
-1.963683 0.25610366 0.44037232 1.9371942e-39
-1.9645399 0.26052961 0.44685832 4.3321282e-39
-1.9641858 0.26706755 0.44870657 4.2395767e-39
-1.9634616 0.27231935 0.44809103 2.7655242e-39
-1.9646882 0.28539145 0.46102139 3.5967086e-39
-1.9642721 0.29468355 0.46406421 2.674053e-39
-1.9644911 0.30085063 0.46844751 2.3045544e-39
-1.9646101 0.30824152 0.47301498 2.3031153e-39
-1.964229 0.31434673 0.47449946 2.6740432e-39
-1.9637959 0.3210144 0.47604048 2.1223128e-39
-1.9633378 0.32776266 0.47750556 1.7520981e-39
-1.9635956 0.33993003 0.48532137 4.6998261e-39
-1.9641728 0.34675917 0.49177292 2.2148629e-39
-1.9649289 0.35353211 0.49904808 3.3197826e-39
-1.9645684 0.36019507 0.50093293 3.8700697e-39
-1.9642079 0.36685818 0.50281769 3.6874721e-39
-1.9638798 0.37374622 0.50497901 2.2127119e-39
-1.9634867 0.38018453 0.50658685 3.5030934e-39
-1.9645336 0.40380937 0.52437007 3.4105349e-39
-1.9637833 0.42205158 0.53066063 1.5687789e-39
-1.9634662 0.43149376 0.53425682 2.0283053e-39
-1.9647275 0.45587492 0.55347401 1.9368411e-39
-1.9658477 0.62000537 0.6476481 1.3450447e-38
-1.964293 0.18180206 0.40307355 5.4391792e-39
-1.9655429 0.19295052 0.41507408 3.6874805e-39
-1.9650052 0.19888717 0.41571984 2.8555548e-39
-1.9651532 0.20307989 0.41869524 3.410888e-39
-1.9654771 0.21815591 0.42840084 3.0431845e-39
-1.9651715 0.22715074 0.43180943 4.9771361e-39
-1.9648559 0.23361219 0.43380007 4.606927e-39
-1.9660846 0.23997575 0.44310996 3.2268583e-39
-1.9654673 0.24655841 0.44372535 2.9495511e-39
-1.9655015 0.25312439 0.44744253 2.9506357e-39
-1.9655339 0.2597242 0.45116815 3.0431859e-39
-1.965762 0.26473254 0.4549678 4.5150873e-39
-1.9652436 0.27022937 0.45546773 2.8580757e-39
-1.9656703 0.27789891 0.46165612 4.5165139e-39
-1.9652357 0.28738528 0.46471494 2.0293983e-39
-1.965727 0.29255068 0.46985552 2.8580813e-39
-1.9659475 0.29871249 0.47424334 2.672967e-39
-1.9657837 0.30543271 0.47709802 3.1325172e-39
-1.9656886 0.31220469 0.48030877 2.4878695e-39
-1.9652548 0.31887364 0.48184681 2.2134294e-39
-1.9652389 0.32523853 0.48521614 3.4116209e-39
-1.9654169 0.3313784 0.48938826 3.5967492e-39
-1.966096 0.33859414 0.49653608 1.7520967e-39
-1.9660773 0.34417382 0.49946594 4.1513271e-39
-1.9668555 0.35085088 0.5067957 4.1480999e-39
-1.9666045 0.35830748 0.50963223 2.3059796e-39
-1.9658127 0.36447999 0.50919288 3.3197657e-39
-1.9653569 0.37158924 0.5108642 2.2127091e-39
-1.9649168 0.37833923 0.51241589 2.2134266e-39
-1.9644766 0.38508925 0.51396757 2.3041915e-39
-1.9661614 0.40135673 0.53081447 3.869362e-39
-1.9664282 0.40645877 0.53484946 2.3049076e-39
-1.9655373 0.42010021 0.53797859 2.0290367e-39
-1.9656389 0.42745751 0.54244512 2.487501e-39
-1.9655411 0.43452787 0.54580539 2.9513546e-39
-1.9654115 0.44082353 0.54859352 1.9364782e-39
-1.9665186 0.45397601 0.56099761 2.120166e-39
-1.9661399 0.46128938 0.56314689 2.9499112e-39
-1.9664695 0.1792715 0.4120954 5.2537216e-39
-1.966069 0.18395947 0.41271943 5.0657402e-39
-1.9671195 0.19058086 0.42131859 4.8860377e-39
-1.9674759 0.19865274 0.427389 3.5045227e-39
-1.9667073 0.20972985 0.42971441 4.7934693e-39
-1.9666762 0.21843278 0.43427637 5.0686086e-39
-1.9667391 0.22414607 0.43766811 3.595638e-39
-1.9665904 0.23279819 0.44164065 3.0435516e-39
-1.9667773 0.23936148 0.44608533 2.304539e-39
-1.9673721 0.24443352 0.45166951 3.5023732e-39
-1.9681034 0.25048316 0.45843497 2.9520692e-39
-1.9673594 0.25708333 0.45845482 2.8595205e-39
-1.967338 0.26239777 0.46122912 4.3321282e-39
-1.9669833 0.26893857 0.4630751 4.3321282e-39
-1.967412 0.27708209 0.46952933 3.1332417e-39
-1.9672967 0.28217402 0.47173458 3.8715158e-39
-1.9670666 0.28546375 0.47241673 2.02975e-39
-1.9682521 0.29063702 0.48087546 2.6736803e-39
-1.9685379 0.29653677 0.48543334 3.3212119e-39
-1.9674883 0.31017917 0.48780546 2.3056292e-39
-1.9670526 0.31686214 0.48934212 2.5814902e-39
-1.9668266 0.32287809 0.49151823 3.6871189e-39
-1.9679091 0.33557224 0.50355661 4.0559099e-39
-1.9676872 0.34174806 0.50583971 3.597803e-39
-1.9674653 0.34792387 0.50812286 4.3324912e-39
-1.9677789 0.35543627 0.51368546 3.4116096e-39
-1.967909 0.36305958 0.51843226 2.305632e-39
-1.9670564 0.36876783 0.51745057 2.9524476e-39
-1.9688884 0.39972833 0.54295331 3.502034e-39
-1.9685495 0.40478438 0.54407138 2.1197946e-39
-1.9678472 0.41865325 0.54822409 2.0290325e-39
-1.9676861 0.42576066 0.55130059 1.9357719e-39
-1.967237 0.43262354 0.55287182 2.2119931e-39
-1.967232 0.43928707 0.556454 3.3186966e-39
-1.9672923 0.44648078 0.56063491 3.2247087e-39
-1.9684944 0.4596588 0.57350636 2.9502742e-39
-1.9683173 0.61509198 0.65677917 1.1613735e-38
-1.9683483 0.17720251 0.4199453 3.8729367e-39
-1.9676098 0.1838146 0.41999781 3.5959953e-39
-1.9691837 0.19646865 0.43436036 3.2286561e-39
-1.9686092 0.20948125 0.43866035 3.2275687e-39
-1.9688752 0.21543434 0.44315174 3.3197671e-39
-1.9686954 0.22244802 0.44608888 4.6094242e-39
-1.9686317 0.2289083 0.44928148 3.7821942e-39
-1.9684082 0.23503794 0.45153153 3.3183364e-39
-1.9685018 0.24005246 0.45469186 1.9382788e-39
-1.9696243 0.24697909 0.46380028 4.3339205e-39
-1.9692693 0.25352111 0.4656454 4.6087095e-39
-1.9699516 0.26009721 0.47246191 4.5175887e-39
-1.9699974 0.26669523 0.47625142 4.1480957e-39
-1.9693326 0.27276164 0.47636008 2.8573611e-39
-1.9692425 0.27947706 0.47956479 2.6736845e-39
-1.9688957 0.28353441 0.48010457 2.0297514e-39
-1.9690551 0.29016033 0.48445165 2.1219456e-39
-1.9690833 0.29677606 0.48816645 1.5698565e-39
-1.9701749 0.30088043 0.4955993 3.5045283e-39
-1.9698154 0.30750805 0.49746993 3.1357458e-39
-1.9692854 0.31498569 0.4989863 2.6729698e-39
-1.9686837 0.32163331 0.49971148 2.7640808e-39
-1.9684947 0.3272832 0.50186676 3.6867644e-39
-1.9688152 0.33419591 0.50713843 3.8704564e-39
-1.9699119 0.3541885 0.52319372 2.4896519e-39
-1.9701539 0.36035529 0.52768654 3.596738e-39
-1.9684855 0.36998734 0.52493393 1.9354076e-39
-1.9690814 0.38986811 0.53853828 2.4889373e-39
-1.9693091 0.40921283 0.55009425 2.0294011e-39
-1.9693457 0.4164677 0.55419511 1.8457301e-39
-1.9694715 0.42381963 0.55877489 1.477665e-39
-1.9688001 0.43047318 0.55917007 1.8442881e-39
-1.9696841 0.43763968 0.56726927 2.7658843e-39
-1.9695011 0.4471952 0.57156742 2.8573611e-39
-1.9704347 0.45965645 0.58276796 1.3840261e-39
-1.9713091 0.4681024 0.5915134 2.0283025e-39
-1.9697709 0.17512342 0.42561212 3.5959953e-39
-1.9693472 0.18162362 0.42710754 3.595275e-39
-1.9700773 0.18772633 0.43389559 3.3201315e-39
-1.9705268 0.19256437 0.43865982 1.9375544e-39
-1.9706352 0.19648328 0.44129825 3.8740311e-39
-1.9709036 0.20075922 0.44489375 4.2420948e-39
-1.9709605 0.20714061 0.44861886 4.4257672e-39
-1.9706081 0.2136337 0.45045066 4.9771417e-39
-1.9702332 0.21982752 0.45201319 3.317619e-39
-1.9704014 0.23803203 0.46266809 2.0290353e-39
-1.9704415 0.2444541 0.46633461 2.0308402e-39
-1.9707788 0.2505165 0.47122663 5.1604526e-39
-1.9712229 0.26396403 0.4806239 2.491447e-39
-1.9707878 0.27062824 0.482153 2.4903792e-39
-1.9707015 0.27734217 0.48537469 2.5811371e-39
-1.9708599 0.28163818 0.48845625 2.304539e-39
-1.9704242 0.28649366 0.48900336 3.8711501e-39
-1.9707024 0.29413855 0.49446997 2.4907324e-39
-1.9700265 0.30130982 0.49512336 2.212342e-39
-1.9714112 0.30513772 0.50380594 3.2279387e-39
-1.9708062 0.31737638 0.507541 2.8566366e-39
-1.9707719 0.32518139 0.51160127 3.778953e-39
-1.9704114 0.3318246 0.5134753 3.8707941e-39
-1.9700508 0.33846802 0.51534909 3.5949303e-39
-1.9706854 0.34307235 0.52087033 5.3426774e-39
-1.9704635 0.3492482 0.52315348 4.0559043e-39
-1.9713705 0.35775843 0.53208929 3.1364689e-39
-1.971042 0.36216056 0.53290343 3.7814824e-39
-1.9713172 0.3670882 0.53688407 2.9520832e-39
-1.970953 0.37379596 0.53877556 3.1353885e-39
-1.9707241 0.38068482 0.54141116 2.0294025e-39
-1.9707299 0.38781264 0.54529667 1.9375684e-39
-1.9702216 0.39409339 0.54626912 2.579698e-39
-1.97018 0.40174532 0.55021143 2.1212366e-39
-1.9711646 0.4137876 0.56142867 2.4910995e-39
-1.9712945 0.42806792 0.56977826 2.8573611e-39
-1.9722891 0.43655661 0.5791204 2.1205065e-39
-1.9717745 0.4451288 0.58130187 2.1201506e-39
-1.9713182 0.45207089 0.58288127 1.75281e-39
-1.9718702 0.46481356 0.59241229 2.5796798e-39
-1.9722463 0.47333542 0.59882009 7.3577698e-40
-1.9736098 0.60929781 0.67891163 1.0137172e-38
-1.972394 0.61419243 0.6757558 1.0685302e-38
-1.9711636 0.17938818 0.43456995 3.2257947e-39
