# .PCD v0.7 - Point Cloud Data file format
VERSION 0.7
FIELDS x y z rgb
SIZE 4 4 4 4
TYPE F F F F
COUNT 1 1 1 1
WIDTH 1067
HEIGHT 1
VIEWPOINT 0 0 0 1 0 0 0
POINTS 1067
DATA ascii
1.2351716 1.652331 -1.3735824 2.3326215e-38
1.2382554 1.654519 -1.3796904 2.3509886e-38
1.2203865 1.6455209 -1.3547584 2.3509886e-38
1.2128066 1.6413574 -1.3431971 1.926635e-38
1.18987 1.6330357 -1.3203701 2.2952382e-38
1.1764629 1.6257507 -1.3001463 2.2033291e-38
1.1724524 1.6237124 -1.2944974 1.6308163e-38
1.1639146 1.6191578 -1.2818592 6.348507e-39
1.4933716 1.7794998 -1.7257386 2.3509886e-38
1.4735385 1.7704012 -1.7005916 2.3509886e-38
1.4355327 1.7507766 -1.6461813 2.3509886e-38
1.414588 1.7400078 -1.6163269 2.3509886e-38
1.3891022 1.726812 -1.5797381 6.2700848e-39
1.3632531 1.7173308 -1.5537201 1.9254138e-38
1.3446958 1.7076026 -1.526738 1.5655271e-38
1.323553 1.6971735 -1.4978561 5.7176663e-39
1.3278565 1.7003022 -1.5065939 2.1206444e-38
1.321378 1.6973083 -1.4983175 2.3509886e-38
1.3076597 1.6901132 -1.4783609 2.3509886e-38
1.288892 1.6803014 -1.4511487 2.3509886e-38
1.274754 1.6770059 -1.4422905 2.3509886e-38
1.2681315 1.673409 -1.4323055 2.3509886e-38
1.255003 1.6664398 -1.4129697 2.3509886e-38
1.2410203 1.661057 -1.3981733 2.3509886e-38
1.2317126 1.6560843 -1.3843743 2.3509886e-38
1.2137423 1.6468025 -1.3586398 2.3509886e-38
1.2131581 1.6461761 -1.3568803 2.0742175e-38
1.1979194 1.6380869 -1.3344373 2.0924794e-38
1.1676632 1.6263444 -1.3021508 2.2218045e-38
1.163034 1.623655 -1.2946727 1.7692534e-38
1.1591949 1.6214193 -1.288457 6.9920772e-39
1.155979 1.6200149 -1.2845807 6.724886e-39
1.1559736 1.6213846 -1.2884742 7.0058183e-39
1.4829155 1.7786289 -1.7236397 2.2312431e-38
1.4722728 1.7754601 -1.7150156 2.3509886e-38
1.440459 1.7588696 -1.6690061 2.3509886e-38
1.41355 1.7450035 -1.6305631 2.3509886e-38
1.3889146 1.7321428 -1.5948963 2.0378836e-38
1.379945 1.7279114 -1.5831922 1.0221744e-39
1.3848237 1.7295516 -1.5876783 2.3509886e-38
1.3561469 1.7190253 -1.5587915 2.3031649e-38
1.3414167 1.7111804 -1.5370247 1.6575053e-38
1.3322713 1.7063079 -1.5235045 1.1591853e-38
1.3074118 1.6953264 -1.4931871 2.3509886e-38
1.2974437 1.6900042 -1.4784187 2.3509886e-38
1.2789634 1.6803826 -1.4517362 2.3326215e-38
1.2572109 1.6717713 -1.4280436 2.3509886e-38
1.2453014 1.6664504 -1.4133486 2.3509886e-38
1.2265762 1.657557 -1.388745 2.3142544e-38
1.2117972 1.6488894 -1.3646415 2.3234379e-38
1.2174443 1.6534429 -1.3773803 2.3509886e-38
1.199181 1.6443624 -1.3522284 1.8991914e-38
1.1804875 1.6344423 -1.3247054 2.138721e-38
1.1789284 1.6332579 -1.3213949 2.1754913e-38
1.1592026 1.6258286 -1.300989 2.1665232e-38
1.1531882 1.6223006 -1.2911777 1.6125198e-38
1.1444956 1.6196274 -1.2838926 6.4385362e-39
1.1465094 1.6204906 -1.2862735 6.9074878e-39
1.1468799 1.6208997 -1.2874231 6.359737e-39
1.4960902 1.7882016 -1.7503735 1.4932491e-38
1.494357 1.7895707 -1.7543273 2.3509886e-38
1.459698 1.7736603 -1.7103528 2.3509886e-38
1.4434503 1.7660965 -1.6894391 2.3509886e-38
1.4202505 1.7540283 -1.655973 2.3509886e-38
1.3941033 1.7402928 -1.6178738 2.3509886e-38
1.3965917 1.7414289 -1.6210132 1.9173828e-38
1.3604805 1.7225962 -1.5687853 1.9819551e-38
1.3447685 1.7171476 -1.5538644 1.8414612e-38
1.3008809 1.6954535 -1.4937832 7.6448034e-39
1.3144597 1.7043979 -1.5187168 1.9821001e-38
1.300518 1.6969751 -1.4981209 2.3509886e-38
1.2905984 1.6916404 -1.4833153 2.3509886e-38
1.2707394 1.6816891 -1.4557457 2.3509886e-38
1.2671473 1.679113 -1.4485534 2.3509886e-38
1.2438245 1.6679554 -1.4176793 2.3142544e-38
1.2211818 1.6575348 -1.3888762 2.3234379e-38
1.2136943 1.6550264 -1.3820159 2.3509886e-38
1.209053 1.6541257 -1.3796229 2.3509886e-38
1.1924987 1.6457803 -1.356499 2.0468849e-38
1.1794212 1.6384561 -1.3361521 2.1571603e-38
1.1763853 1.6365381 -1.33081 2.3046738e-38
1.1563067 1.6271873 -1.3049548 2.1848913e-38
1.1516588 1.6245925 -1.297747 2.1018063e-38
1.1418906 1.6209766 -1.2878208 1.1605778e-38
1.1398112 1.6207839 -1.2873483 6.3593503e-39
1.4937375 1.7924744 -1.7626026 9.6805986e-39
1.4910163 1.7917341 -1.7605963 2.1851466e-38
1.4831903 1.7881843 -1.7507883 2.3509886e-38
1.4404776 1.7695024 -1.6992265 2.3509886e-38
1.419094 1.7591057 -1.6704457 2.3509886e-38
1.4012532 1.7495908 -1.6440438 2.3509886e-38
1.3873698 1.742159 -1.6234204 2.3509886e-38
1.3758373 1.7359723 -1.6062511 1.3270762e-38
1.3592067 1.7271898 -1.5818872 1.4290707e-38
1.3409859 1.7196411 -1.5610875 2.3037707e-38
1.3233509 1.7102398 -1.535001 1.6666465e-38
1.3111815 1.7061431 -1.5237954 1.5471259e-38
1.2954422 1.699554 -1.5056335 2.3509886e-38
1.2837372 1.6932713 -1.4881978 2.3509886e-38
1.2718593 1.6868553 -1.4703889 2.3509886e-38
1.2587539 1.6798301 -1.4508929 2.3509886e-38
1.247439 1.6737145 -1.4339182 2.3509886e-38
1.2281336 1.6652408 -1.4105282 2.2958155e-38
1.2319385 1.6675252 -1.4168842 2.3509886e-38
1.2159575 1.6596482 -1.3950708 2.3142544e-38
1.2057407 1.6547966 -1.3816488 2.3234379e-38
1.2025387 1.6556817 -1.38428 2.3509886e-38
1.1903654 1.649096 -1.3659997 2.1296086e-38
1.1785268 1.6428573 -1.3486935 2.0926229e-38
1.1654238 1.6359794 -1.329616 2.1203912e-38
1.1646286 1.6352471 -1.3275634 2.314073e-38
1.1484774 1.626917 -1.3044684 2.2494641e-38
1.1391551 1.6225649 -1.2924337 9.7608327e-39
1.1366631 1.6223381 -1.2918786 6.6301498e-39
1.5025848 1.8028523 -1.7917805 1.1804279e-38
1.5086704 1.8060014 -1.8005123 1.4841724e-38
1.4865075 1.7948189 -1.7695262 1.558149e-38
1.4685136 1.7855461 -1.7438179 2.009937e-38
1.4591748 1.7805243 -1.7298806 2.1943287e-38
1.4383252 1.7708427 -1.7031134 2.3509886e-38
1.393882 1.7513525 -1.6493163 2.3509886e-38
1.3800771 1.7439094 -1.6286577 2.3509886e-38
1.3560349 1.7313901 -1.5939399 1.9447877e-38
1.3635173 1.7351538 -1.6043679 3.6752626e-39
1.3469888 1.7263002 -1.5797986 2.285513e-38
1.3213838 1.714525 -1.5472516 2.1181212e-38
1.3063706 1.7070197 -1.5264596 1.1963085e-38
1.2736082 1.6930962 -1.4880641 2.3509886e-38
1.2688723 1.6907504 -1.4815673 2.3509886e-38
1.2515951 1.6816733 -1.4563897 2.341805e-38
1.2411098 1.6758064 -1.4400916 2.323402e-38
1.2318178 1.6700119 -1.4239563 2.2958873e-38
1.2222915 1.6676267 -1.41752 2.3049991e-38
1.2134612 1.6626463 -1.4036821 2.3326215e-38
1.2077243 1.6594914 -1.3949213 2.3509886e-38
1.1662729 1.6410075 -1.343877 2.2033302e-38
1.1524254 1.6333474 -1.3226029 2.203474e-38
1.142014 1.6281303 -1.3081493 2.2494999e-38
1.1350869 1.6236289 -1.2956041 1.3542636e-38
1.1309417 1.6237544 -1.29611 9.3895195e-39
1.129845 1.6234399 -1.2952559 6.7230657e-39
1.1282303 1.6220802 -1.2914493 6.0831305e-39
1.458609 1.7858176 -1.7449462 1.9822789e-38
1.4412222 1.7772894 -1.7213322 2.2128762e-38
1.4441324 1.778892 -1.7257828 2.3509886e-38
1.4211974 1.7673806 -1.6938893 2.3509886e-38
1.4168285 1.764668 -1.6863366 2.3509886e-38
1.3443569 1.7304134 -1.591584 1.7697211e-38
1.3164049 1.7155632 -1.5503812 2.2120827e-38
1.3088372 1.7135401 -1.5449034 1.563148e-38
1.2982774 1.7077719 -1.5288887 1.3798812e-38
1.2931646 1.7049303 -1.5209959 2.3508092e-38
1.2512177 1.6857221 -1.4679109 2.3509886e-38
1.2313087 1.6748897 -1.4378387 2.2958155e-38
1.216972 1.6675788 -1.4175748 2.3509886e-38
1.2184438 1.6700022 -1.42441 2.3049991e-38
1.2136641 1.6681299 -1.4192603 2.3509886e-38
1.2006025 1.661425 -1.4006732 2.3326215e-38
1.192048 1.6565529 -1.3871331 2.3326215e-38
1.1767145 1.6487298 -1.3654498 2.3509886e-38
1.1737161 1.6468199 -1.3601296 1.8900809e-38
1.148008 1.636338 -1.3312619 2.2034381e-38
1.140787 1.6313 -1.3172023 2.3417323e-38
1.1299074 1.6268358 -1.3049054 2.1480127e-38
1.1303706 1.6274188 -1.3065459 1.1513252e-38
1.1237183 1.6242698 -1.2978351 6.0759124e-39
1.1266266 1.6258246 -1.3021497 6.6363057e-39
1.4714223 1.7977065 -1.7782763 2.1483745e-38
1.4370112 1.780834 -1.7315582 2.2221319e-38
1.4375724 1.7811663 -1.7324827 2.3509886e-38
1.4366169 1.7814217 -1.7332426 2.3509886e-38
1.3997122 1.7615279 -1.6780276 2.3234379e-38
1.3874601 1.7546604 -1.658949 2.3509886e-38
1.3679495 1.744085 -1.6295931 2.3509886e-38
1.3604205 1.7398793 -1.61791 9.2160345e-39
1.3377775 1.7313451 -1.5944684 1.4556439e-38
1.2999055 1.7138605 -1.5461355 2.0369831e-38
1.2814237 1.7035207 -1.5174117 1.1585417e-38
1.2684873 1.6974341 -1.5005779 1.8993041e-38
1.2590138 1.6922325 -1.4861343 2.3509886e-38
1.2650939 1.6948879 -1.4934629 2.3509886e-38
1.2450924 1.6848124 -1.4655454 2.3326215e-38
1.2320484 1.678683 -1.4485937 2.3234379e-38
1.2137393 1.6700267 -1.4246488 2.2958155e-38
1.2208151 1.6751763 -1.4390308 2.3509886e-38
1.201756 1.6657177 -1.4128326 2.3050349e-38
1.1912912 1.6613176 -1.400703 2.3234379e-38
1.1827885 1.6564382 -1.3871405 2.3326215e-38
1.1722922 1.6505197 -1.3706963 2.3509886e-38
1.1670604 1.6480578 -1.3638871 1.8437674e-38
1.1599461 1.6439171 -1.3523743 2.2218417e-38
1.1184466 1.6238916 -1.2969497 2.2402455e-38
1.1177716 1.6236035 -1.296155 9.2105064e-39
1.1154041 1.6229281 -1.2943205 6.4468291e-39
1.1212659 1.6276795 -1.3076144 6.6341477e-39
1.488876 1.8094034 -1.8108937 1.3461015e-38
1.430113 1.7836378 -1.7397752 2.2773767e-38
1.4023455 1.7684892 -1.6977185 2.3509886e-38
1.3997974 1.7671543 -1.694016 2.3509886e-38
1.3776509 1.7552496 -1.6609768 2.3509886e-38
1.3509926 1.7408997 -1.6211498 2.3509886e-38
1.3587972 1.7451086 -1.6328318 2.3509886e-38
1.3441404 1.7393916 -1.6171095 2.111134e-38
1.3241447 1.7284839 -1.5868268 2.1748074e-38
1.3044412 1.7204762 -1.5647756 2.2400992e-38
1.2959859 1.7154198 -1.5507084 1.5808309e-38
1.2716722 1.7044734 -1.5204706 1.6589859e-38
1.2702844 1.7030991 -1.5166146 2.3509886e-38
1.2623657 1.6992376 -1.5059239 2.3509886e-38
1.2557701 1.6953702 -1.495169 2.3509886e-38
1.2377373 1.6854771 -1.4676996 2.3509886e-38
1.2166589 1.6761502 -1.4419485 2.3509886e-38
1.2106465 1.675104 -1.4391911 2.3326215e-38
1.2080747 1.6733435 -1.4342799 2.3509886e-38
1.1927897 1.6670011 -1.4168031 2.3509886e-38
1.1807576 1.6602528 -1.3980554 2.341805e-38
1.172092 1.6559528 -1.3861457 2.3050708e-38
1.1600101 1.6491841 -1.3673419 1.9541505e-38
1.1518021 1.6444589 -1.354207 2.2218775e-38
1.1414047 1.6385107 -1.3376749 2.231061e-38
1.1218995 1.6323434 -1.3208476 2.2587562e-38
1.1162547 1.6289729 -1.311471 1.465187e-38
1.1127648 1.6264668 -1.3044734 7.00184e-39
1.1089476 1.6263493 -1.3042771 6.1767737e-39
1.4623654 1.800804 -1.7874056 1.7331357e-38
1.4548602 1.7984904 -1.7811002 2.1300094e-38
1.4418302 1.7908092 -1.7597369 2.3509886e-38
1.4310554 1.7893374 -1.7559412 2.3509886e-38
1.3811303 1.7636949 -1.6848547 2.3142544e-38
1.3648061 1.7541965 -1.6584455 2.3509886e-38
1.3532984 1.7478316 -1.6407688 2.3509886e-38
1.3243338 1.7341532 -1.6029334 2.3416959e-38
1.3054283 1.7260729 -1.5806475 2.3509886e-38
1.7060733 1.7867597 -1.7387214 6.7357082e-39
1.7044007 1.7855092 -1.7352273 7.9325614e-39
1.7103167 1.7876732 -1.7411649 2.3509886e-38
1.7202035 1.7993436 -1.7739794 1.1244648e-38
1.7185096 1.7980775 -1.7704414 4.4279448e-39
1.7112182 1.8010578 -1.779175 8.9368664e-39
1.6625264 1.7764987 -1.7111233 2.3509886e-38
1.6947919 1.7993388 -1.7748799 8.9328727e-39
1.700539 1.8015022 -1.780822 8.7481031e-39
1.6902282 1.7961818 -1.7660713 9.2776748e-40
1.673951 1.7944753 -1.7618066 3.1270872e-39
1.6633464 1.7985891 -1.7738806 1.2894328e-38
1.2256743 1.6132199 -1.2627605 8.8529749e-39
1.468347 1.7387686 -1.6108707 1.1540025e-38
1.2302251 1.6190282 -1.2791054 1.1884631e-38
1.563924 1.7912024 -1.7564621 2.1216233e-39
1.562422 1.7896746 -1.7521741 1.5026526e-38
1.4768534 1.7463305 -1.6320578 2.0558235e-38
1.4709625 1.7456517 -1.6303403 1.8811911e-38
1.2423117 1.6310537 -1.3128499 1.5113621e-38
1.2082965 1.6121978 -1.2604808 5.7175864e-39
1.4795899 1.7536608 -1.6527938 2.3509886e-38
1.2389926 1.6336477 -1.3203422 2.0283402e-38
1.2355721 1.6314838 -1.3143151 1.7233732e-38
1.1924354 1.6105454 -1.2563548 5.2515356e-39
1.5570298 1.800703 -1.7837135 4.4448585e-39
1.4531387 1.7454263 -1.6303408 2.3509886e-38
1.4372622 1.7401334 -1.6158684 2.3509886e-38
1.4357544 1.7389802 -1.6126448 1.6976651e-38
1.3415401 1.6913279 -1.4805948 1.770161e-38
1.33086 1.6856123 -1.4647338 2.1203584e-38
1.3025621 1.6707604 -1.4235388 2.3509886e-38
1.2746748 1.6571895 -1.3859702 2.2957796e-38
1.271666 1.6544881 -1.3784004 2.2865243e-38
1.5393312 1.797385 -1.7749194 7.3086543e-39
1.4694103 1.7628297 -1.67922 2.3509886e-38
1.4255999 1.7390864 -1.6133119 4.5306193e-39
1.4240978 1.7379323 -1.6100856 1.0060608e-38
1.4074492 1.7291695 -1.5857787 2.1111374e-38
1.3815453 1.7157582 -1.5485923 1.7967335e-38
1.3541852 1.7014495 -1.5089077 1.0974965e-38
1.3385128 1.6951556 -1.4915829 2.3509886e-38
1.3232005 1.6870465 -1.4690858 2.3509886e-38
1.540953 1.8038886 -1.7933455 1.1839571e-41
1.5140647 1.7893795 -1.7530746 2.3509886e-38
1.4056581 1.7342495 -1.6002816 2.5758206e-39
1.373601 1.7172426 -1.553097 1.9156275e-38
1.3253436 1.7050376 -1.5201434 1.9824223e-38
1.5131406 1.8178988 -1.8341668 1.6684929e-38
1.4812013 1.8172576 -1.8334936 1.8894666e-38
1.4739705 1.8201523 -1.8419809 1.8526221e-38
1.4305638 1.7962961 -1.7757372 1.2347373e-38
1.4343597 1.7986593 -1.7823175 1.556923e-38
1.432224 1.797533 -1.7791934 2.3509886e-38
1.3676169 1.7617271 -1.6797481 2.3509886e-38
1.3293432 1.7426987 -1.6270417 2.3509886e-38
1.3291063 1.7406248 -1.6211556 1.990957e-38
1.3198618 1.7376412 -1.6130083 2.3507341e-38
1.28495 1.717906 -1.5581717 1.7472513e-38
1.2745671 1.7119141 -1.5415146 1.3981349e-38
1.2583979 1.7027947 -1.5161771 1.3907545e-38
1.2630032 1.7049937 -1.5222616 2.3509886e-38
1.2533946 1.6994373 -1.5068141 2.3509886e-38
1.2351239 1.6891741 -1.478301 2.3509886e-38
1.4651301 1.8217963 -1.8469718 1.9629354e-38
1.4405942 1.808441 -1.8098954 1.4929176e-38
1.4244387 1.7996489 -1.7854869 2.3509886e-38
1.3478602 1.7566296 -1.6659707 2.2215886e-38
1.3261911 1.7449377 -1.6335187 2.1289224e-38
1.3209285 1.7441877 -1.6315765 2.3507719e-38
1.3102911 1.7379992 -1.61437 2.3509886e-38
1.2728882 1.7174636 -1.5573483 1.6212004e-38
1.2710912 1.7157468 -1.5525331 1.528145e-38
1.2485048 1.7026886 -1.5162313 1.2790111e-38
1.2552645 1.7064217 -1.5265986 2.3509886e-38
1.2457105 1.7008551 -1.5111207 2.3509886e-38
1.2315882 1.6928085 -1.4887583 2.3509886e-38
1.2180459 1.6850431 -1.4671742 2.3509886e-38
1.2067822 1.6793978 -1.451534 2.3326215e-38
1.1954643 1.674757 -1.4387507 2.3509886e-38
1.1790832 1.6654043 -1.4127576 2.3326215e-38
1.1689413 1.6602582 -1.3984959 2.3234379e-38
1.1594833 1.6549178 -1.3836577 2.3509886e-38
1.1484256 1.6478838 -1.3640629 1.9449308e-38
1.1513367 1.6490289 -1.367213 2.3509874e-38
1.1394469 1.6421887 -1.348199 2.3509874e-38
1.4188837 1.804093 -1.7983185 1.4472199e-38
1.4222376 1.803696 -1.7970694 1.2899846e-38
1.3445021 1.7608297 -1.6780292 2.2487048e-38
1.3235143 1.7491311 -1.6455336 2.1843468e-38
1.3022085 1.7394782 -1.6188645 2.3509886e-38
1.2734573 1.7232 -1.573632 1.6589744e-38
1.2589239 1.7148017 -1.5502846 1.2709673e-38
1.2489176 1.7089372 -1.5339766 1.4914213e-38
1.2475207 1.7078468 -1.5309277 2.3509886e-38
1.2282116 1.697872 -1.5032716 2.3509886e-38
1.2239743 1.6942029 -1.4929955 2.3509886e-38
1.2145176 1.688661 -1.4775841 2.3509886e-38
1.2009255 1.6835992 -1.4636863 2.3509886e-38
1.1880338 1.676123 -1.442901 2.3509886e-38
1.1670138 1.6647593 -1.4113586 2.3234379e-38
1.1630738 1.6620866 -1.4039038 2.341805e-38
1.1546023 1.6569675 -1.389659 2.3509886e-38
1.141152 1.6488897 -1.3671833 1.9176683e-38
1.1332569 1.6440796 -1.3537961 2.221841e-38
1.1253741 1.6392825 -1.3404452 2.2310964e-38
1.1085091 1.629921 -1.3144441 1.5386179e-38
1.0995499 1.6273763 -1.307534 7.000719e-39
1.4220973 1.8102195 -1.8156157 1.8525921e-38
1.4205265 1.8089911 -1.8121808 1.6588316e-38
1.4140978 1.808316 -1.8104931 1.2995627e-38
1.4119869 1.8035551 -1.7970376 2.0101191e-38
1.3548669 1.7741888 -1.7156259 2.2029316e-38
1.2656558 1.7246665 -1.5780808 1.907877e-38
1.2468905 1.713853 -1.5480216 1.2988453e-38
1.2364415 1.7081841 -1.532285 1.326257e-38
1.2397718 1.709269 -1.5352489 2.2958873e-38
1.2233343 1.700364 -1.5105296 2.3509886e-38
1.2208239 1.6983016 -1.5047579 2.341805e-38
1.2021667 1.6883548 -1.4771582 2.3509886e-38
1.193403 1.6849717 -1.467858 2.3509886e-38
1.1768955 1.675014 -1.4401494 2.3326215e-38
1.1595887 1.6657897 -1.4145542 2.3050708e-38
1.1556853 1.6631207 -1.407109 2.341805e-38
1.1504712 1.6597722 -1.397779 2.3509886e-38
1.1362379 1.6522851 -1.3770108 1.9728416e-38
1.1285197 1.647526 -1.3637623 2.2310608e-38
1.1207004 1.642718 -1.3503778 2.2310611e-38
1.1128931 1.637923 -1.3370301 2.2310974e-38
1.0967965 1.6312073 -1.3185215 1.3912137e-38
1.0931585 1.6287092 -1.3115519 7.18006e-39
1.0948957 1.6288067 -1.3117669 5.7143284e-39
1.4526393 1.8319405 -1.8762536 2.3509886e-38
1.4149535 1.8130554 -1.823933 1.926529e-38
1.4133844 1.8118267 -1.820497 1.9633715e-38
1.4118156 1.810598 -1.8170614 1.8617395e-38
1.3930961 1.8025237 -1.7947859 1.5208678e-38
1.4043158 1.8093666 -1.813831 1.621959e-38
1.3622005 1.784222 -1.743879 2.1562203e-38
1.3463418 1.7753764 -1.7193083 2.1012273e-38
1.3192735 1.759113 -1.6740576 2.1936031e-38
1.3118956 1.7545412 -1.6613284 2.313386e-38
1.2869309 1.7425213 -1.6280633 1.9910268e-38
1.2526269 1.7232364 -1.5744853 1.4731589e-38
1.2324709 1.7112831 -1.5412358 1.9640568e-38
1.2271441 1.7079548 -1.5319673 2.3509886e-38
1.1959771 1.6902192 -1.4826797 2.3509886e-38
1.1865407 1.685385 -1.4692795 2.3142544e-38
1.1723201 1.6791037 -1.4519382 2.1305834e-38
1.159754 1.6715554 -1.4309359 2.3509165e-38
1.1515561 1.6664732 -1.416786 2.3509525e-38
1.1376563 1.6586332 -1.3950031 2.2772684e-38
1.122776 1.6498423 -1.3705522 2.1941465e-38
1.1179456 1.6464245 -1.3610117 2.2310611e-38
1.110185 1.6416162 -1.3476247 2.2310975e-38
1.1024365 1.6368209 -1.3342738 2.2402811e-38
1.0889217 1.6317436 -1.320329 7.6363367e-39
1.086095 1.6290758 -1.3128483 6.0809459e-39
1.4383618 1.8339684 -1.8825308 2.3509886e-38
1.4256753 1.8264112 -1.8615079 2.3509886e-38
1.4051781 1.8141035 -1.8272635 1.9818835e-38
1.388816 1.8045613 -1.8007307 1.7605412e-38
1.3876427 1.8033469 -1.7973212 1.834189e-38
1.3807141 1.8025364 -1.7952671 1.133427e-38
1.3775879 1.8012884 -1.7918322 1.032336e-38
1.3478203 1.782794 -1.7403378 2.1286346e-38
1.3331599 1.7739265 -1.7156616 2.1473611e-38
1.3201989 1.7660687 -1.6937939 2.3225688e-38
1.262138 1.7342886 -1.6055557 2.3326215e-38
1.2489182 1.7270672 -1.5855066 1.1324581e-38
1.2261053 1.7137924 -1.5485969 6.7169742e-39
1.2208095 1.7104609 -1.5393186 1.8801828e-38
1.2194239 1.7093732 -1.5362768 1.7970633e-38
1.2017987 1.6996541 -1.5092869 1.5028277e-38
1.1868534 1.6900411 -1.4825019 1.1898319e-38
1.1735624 1.685006 -1.4686692 2.6064151e-42
1.1611819 1.6776446 -1.4481918 1.8253637e-38
1.1475186 1.6692711 -1.4248836 2.3507355e-38
1.1350658 1.6619152 -1.4044244 2.3509877e-38
1.1156211 1.65087 -1.3737305 2.2218774e-38
1.1106627 1.6476266 -1.3646905 2.2310614e-38
1.1003128 1.6412929 -1.347061 2.2310617e-38
1.0767747 1.6304997 -1.3172308 6.9974988e-39
1.4042394 1.8204745 -1.8454055 2.0835122e-38
1.3921566 1.8132185 -1.8252165 1.8250768e-38
1.3841674 1.8083336 -1.81162 1.8526284e-38
1.3769292 1.804529 -1.8010665 1.797238e-38
1.3761952 1.8064476 -1.8065464 1.2990564e-38
1.3688086 1.8025007 -1.7955941 1.0867845e-38
1.3626827 1.7980316 -1.7831119 2.1283809e-38
1.3509957 1.7909949 -1.7635326 2.2573838e-38
1.3265053 1.7761317 -1.722169 2.1197747e-38
1.2992802 1.7600822 -1.6775316 2.1657645e-38
1.2916325 1.7556521 -1.6652149 2.3225695e-38
1.281013 1.749257 -1.6474206 2.0643843e-38
1.2558154 1.737304 -1.614354 2.3509886e-38
1.2365043 1.7259386 -1.5827451 1.6859256e-38
1.2183411 1.7152082 -1.5528998 7.6328013e-39
1.207327 1.709244 -1.5363449 6.3471281e-39
1.2076098 1.708421 -1.5339954 2.3060384e-39
1.1908388 1.69886 -1.5074242 3.1376236e-39
1.1821773 1.6934323 -1.4923089 2.5869791e-39
1.1754533 1.6891789 -1.4804615 4.1485329e-39
1.1624579 1.6842824 -1.467012 5.6149329e-40
1.1537683 1.6790017 -1.4523154 1.8251121e-38
1.1488483 1.6758754 -1.4436067 2.3509876e-38
1.140031 1.6705624 -1.4288231 2.3508435e-38
1.1313893 1.665321 -1.4142364 2.3509879e-38
1.1082407 1.6518248 -1.3767101 2.2218778e-38
1.1034255 1.6486131 -1.3677547 2.2310974e-38
1.0945109 1.6430295 -1.3522052 2.2310617e-38
1.0868684 1.6382211 -1.3388138 2.2586479e-38
1.08022 1.6349123 -1.3296483 1.1690084e-38
1.0709833 1.6319466 -1.3215512 6.9063878e-39
1.3839583 1.8154744 -1.8319234 1.6592684e-38
1.377062 1.8111399 -1.8198521 1.8801779e-38
1.3693154 1.8069501 -1.8082218 1.6958953e-38
1.3739607 1.8087008 -1.8130308 1.8246806e-38
1.3598691 1.8016262 -1.79343 1.2439904e-38
1.3562398 1.8014987 -1.7931981 1.1142273e-38
1.3378245 1.789816 -1.7606556 2.0823197e-38
1.3211248 1.7807231 -1.7354121 2.0733906e-38
1.2799118 1.7559333 -1.666436 2.110735e-38
1.2750878 1.7526469 -1.6572688 2.1935675e-38
1.2729208 1.7507461 -1.6519444 1.7783617e-38
1.2623833 1.7475295 -1.643181 1.4834452e-38
1.243944 1.736683 -1.6130158 2.1382911e-38
1.2130448 1.7186587 -1.5628977 1.1413167e-38
1.2009391 1.7111614 -1.5420241 7.6407508e-39
1.1861914 1.7020941 -1.5167831 4.9796808e-39
1.171522 1.6927385 -1.4907199 3.5074346e-39
1.1605363 1.6862204 -1.4725893 6.6431623e-39
1.1467891 1.6807959 -1.4576659 1.2936451e-39
1.1411469 1.6780427 -1.4500436 1.3822854e-38
1.1346067 1.6723169 -1.4340051 2.2402091e-38
1.1249987 1.6677808 -1.4214575 2.2218054e-38
1.1170003 1.6627021 -1.4073107 2.2218775e-38
1.1009663 1.6528063 -1.3797613 2.2310615e-38
1.0917907 1.6480016 -1.3664348 2.2402811e-38
1.0843384 1.6432245 -1.3531255 2.2310975e-38
1.0781157 1.6391745 -1.341838 2.2495005e-38
1.0647696 1.6340983 -1.3278905 1.0124935e-38
1.0650835 1.6338173 -1.3270808 6.6276373e-39
1.3683987 1.812724 -1.8246658 1.8063131e-38
1.3620292 1.8086697 -1.8133717 1.796913e-38
1.3556124 1.8047212 -1.8023801 1.6310324e-38
1.3544618 1.8035098 -1.7989783 1.3634491e-38
1.3309357 1.7927639 -1.7692822 9.1165227e-39
1.326532 1.7893391 -1.7597064 1.695028e-38
1.3128687 1.7808971 -1.7362037 1.7144772e-38
1.293801 1.7709454 -1.7086046 2.1204282e-38
1.2693201 1.7561845 -1.667531 2.1851442e-38
1.2531737 1.7458377 -1.6387036 2.1383585e-38
1.2521034 1.7447073 -1.6355296 1.6215244e-38
1.2455374 1.743879 -1.6334113 1.4183692e-38
1.2396265 1.7401452 -1.6230116 1.4828344e-38
1.2276917 1.7336257 -1.6049106 1.5936136e-38
1.1622633 1.6932669 -1.492555 5.4410289e-39
1.1619501 1.6930341 -1.4919044 5.8105261e-39
1.1495063 1.6849902 -1.4694896 5.7186864e-39
1.1389617 1.6826288 -1.4631571 9.2233185e-40
1.1323462 1.678284 -1.4510461 1.1886371e-38
1.1270077 1.6747258 -1.4411248 2.2309173e-38
1.1218086 1.6711512 -1.4311522 2.3508807e-38
1.1067479 1.6620303 -1.4057704 2.2310615e-38
1.0946488 1.655515 -1.3876871 2.2310617e-38
1.0857401 1.6498944 -1.3720326 2.2402812e-38
1.0854359 1.6488566 -1.3690941 2.3509886e-38
1.0709894 1.6401435 -1.3448488 2.240317e-38
1.0589145 1.6357595 -1.3328227 1.1416758e-38
1.0579937 1.6347785 -1.3300679 6.3503077e-39
1.3534056 1.8102514 -1.8181773 1.6954604e-38
1.3518665 1.8090353 -1.8147763 1.6768778e-38
1.3503273 1.8078192 -1.8113755 1.483052e-38
1.3438087 1.803648 -1.7997544 1.150818e-38
1.3271704 1.7969822 -1.781407 2.0638848e-38
1.2804544 1.7701122 -1.7067162 2.0096841e-38
1.2658499 1.7605926 -1.6801845 2.1205376e-38
1.2418486 1.7455872 -1.6383991 2.3509865e-38
1.2362911 1.7418797 -1.6280614 2.073931e-38
1.239241 1.7434334 -1.6323713 1.3822091e-38
1.2209589 1.73489 -1.6087466 1.2896182e-38
1.1672204 1.702835 -1.5195717 3.6918189e-39
1.1553003 1.6952034 -1.4983095 4.7045289e-39
1.1522416 1.6933601 -1.4931806 5.6250545e-39
1.1509067 1.692305 -1.4902296 5.7190452e-39
1.1495718 1.6912498 -1.4872786 4.7056093e-39
1.1400332 1.6883657 -1.4794244 3.1288921e-39
1.1233649 1.6784564 -1.4518591 1.0868255e-38
1.1154546 1.6733416 -1.4376063 2.1200313e-38
1.1144847 1.6724817 -1.435197 2.3508809e-38
1.0976571 1.662992 -1.4088306 2.2218781e-38
1.0898762 1.6579973 -1.3949142 2.2310975e-38
1.0784949 1.6508615 -1.375042 2.2402814e-38
1.0711212 1.6460886 -1.3617414 2.2402814e-38
1.0651635 1.6420989 -1.3506162 2.2403174e-38
1.0531187 1.6377094 -1.3385732 1.437206e-38
1.0485667 1.6343418 -1.3291656 5.9822623e-39
1.3463137 1.8130465 -1.8263768 1.6772378e-38
1.3203501 1.799436 -1.7886267 1.3819248e-38
1.3310411 1.8038199 -1.8007021 1.3450453e-38
1.2059429 1.7288291 -1.5920602 1.2806883e-38
1.194701 1.7248889 -1.5812659 3.1397269e-39
1.1397626 1.6926003 -1.4914699 4.9807542e-39
1.1434139 1.6936707 -1.4943808 5.6268355e-39
1.1292105 1.6850092 -1.4702739 3.5038151e-39
1.1157998 1.6796947 -1.4556509 9.0250501e-39
1.1121398 1.6770183 -1.4481757 1.9264929e-38
1.1071553 1.6738094 -1.4392346 2.3508451e-38
1.0863149 1.6616164 -1.405329 2.2310619e-38
1.0800513 1.6574651 -1.393755 2.2402815e-38
1.0712452 1.6518221 -1.3780328 2.2495009e-38
1.0639228 1.6470441 -1.3647159 2.2495009e-38
1.0540154 1.6407188 -1.3470945 2.2587206e-38
1.0489733 1.6406536 -1.3470905 2.1664163e-38
1.0393866 1.6335069 -1.3271228 3.1245593e-39
1.0428064 1.6370972 -1.3372043 7.0936419e-39
1.349156 1.821794 -1.8511375 1.9173802e-38
1.3418937 1.8171962 -1.8383306 1.6398557e-38
1.3183454 1.8035909 -1.8005081 1.4555759e-38
1.3016595 1.7939843 -1.7738041 1.2534344e-38
1.1725252 1.7177415 -1.5617485 6.5433912e-39
1.1337851 1.6939909 -1.4956374 5.2562705e-39
1.1228167 1.6879057 -1.4787362 4.2406725e-39
1.1315877 1.6924787 -1.4914184 5.3452138e-39
1.1127927 1.6830024 -1.4651603 4.4228735e-39
1.1048836 1.677904 -1.4509543 6.2624225e-39
1.108898 1.6811278 -1.4599723 1.4555346e-38
1.1039245 1.6778995 -1.4509758 2.2675084e-38
1.0955422 1.6726067 -1.4362338 2.3509886e-38
1.08373 1.665275 -1.4158204 2.3509886e-38
1.0671645 1.6550938 -1.3874788 2.2310979e-38
1.0566802 1.649418 -1.3717241 2.2495731e-38
1.0494361 1.6446424 -1.3584111 2.2587927e-38
1.0396618 1.6394171 -1.3439111 2.2310978e-38
1.0391182 1.6373218 -1.3379753 5.3300475e-39
1.0356392 1.6382678 -1.3407891 6.9996596e-39
1.3357836 1.8205423 -1.8480608 1.9264551e-38
1.3342453 1.8193198 -1.8446414 1.7134313e-38
1.3274994 1.8149778 -1.8325428 1.6490731e-38
1.3311688 1.8168747 -1.8378025 1.5198968e-38
1.3061706 1.80328 -1.8000622 1.3365927e-38
1.1301963 1.6980429 -1.5072831 4.3350345e-39
1.1262063 1.6948751 -1.498423 5.9880398e-39
1.1086277 1.6845739 -1.4697766 7.5517319e-39
1.099743 1.6821811 -1.4632957 1.3357512e-38
1.091904 1.6769828 -1.4488026 1.8524836e-38
1.0882382 1.673931 -1.4402606 2.3509527e-38
1.0685252 1.6617161 -1.4062521 2.2402816e-38
1.0599144 1.6560612 -1.3904891 2.2403535e-38
1.0520864 1.6519438 -1.3790681 2.2588285e-38
1.0448917 1.6471605 -1.3657321 2.2680122e-38
1.0377567 1.6424222 -1.3525208 2.2864512e-38
1.0290872 1.6394323 -1.3443351 5.5126409e-39
1.0285197 1.639209 -1.3437208 7.2758751e-39
1.3192033 1.8176938 -1.8405609 1.547874e-38
1.3230244 1.8191471 -1.8445542 1.6027262e-38
1.3214883 1.8179244 -1.8411342 1.7414284e-38
1.3002256 1.8085827 -1.8153477 1.6232993e-38
1.1260835 1.7014979 -1.5172511 4.7001989e-39
1.1247489 1.7004384 -1.5142881 3.5945688e-39
1.1183335 1.696999 -1.5047426 4.6051096e-39
1.1153243 1.6941476 -1.4967467 5.8933134e-39
1.1025643 1.6864548 -1.475341 8.2889312e-39
1.0936832 1.6840591 -1.4688514 1.3909996e-38
1.0858985 1.6788526 -1.4543333 1.8431223e-38
1.0739828 1.6711576 -1.432891 2.1849284e-38
1.0626198 1.6637863 -1.4123486 2.2310979e-38
1.0548929 1.6596856 -1.4009715 2.2495734e-38
1.0448511 1.6528947 -1.3820313 2.2680125e-38
1.0377078 1.6481066 -1.368679 2.2772679e-38
1.0262269 1.6413889 -1.3499987 2.2127666e-38
1.0277016 1.6412841 -1.349648 7.5337561e-39
1.0193162 1.638846 -1.34302 7.9201712e-39
1.3103818 1.8188735 -1.8442314 1.6583665e-38
1.3092589 1.8176526 -1.8408017 1.5108164e-38
1.3081354 1.8164315 -1.8373716 1.4649108e-38
1.1138471 1.6997025 -1.5125885 2.5811315e-39
1.11252 1.6986459 -1.5096333 4.0565951e-39
1.1029761 1.6927949 -1.4933463 5.5252372e-39
1.0964949 1.6883415 -1.4809216 9.1176031e-39
1.0861404 1.6850532 -1.4719483 1.3082388e-38
1.0766596 1.678205 -1.4528248 1.529728e-38
1.06657 1.6721305 -1.4359225 2.083407e-38
1.0620072 1.6691833 -1.4277101 2.3416974e-38
1.0489584 1.6614672 -1.4062486 2.2587571e-38
1.0317612 1.6497899 -1.3736776 2.3048549e-38
1.0200605 1.6421573 -1.3524045 2.2311341e-38
1.0141197 1.6408367 -1.348865 1.5193573e-38
1.0122206 1.6389717 -1.3436323 5.9909069e-39
1.303687 1.8223867 -1.8544577 1.6593399e-38
1.3170906 1.8296661 -1.8746653 1.9625432e-38
1.3155457 1.8284328 -1.8712155 1.8981059e-38
1.2884388 1.8119502 -1.8253429 1.6587749e-38
1.0958185 1.6944915 -1.4984261 1.0322999e-38
1.0983659 1.6958245 -1.5021229 6.3499952e-39
1.0931973 1.6923989 -1.4925727 6.5350829e-39
1.0836426 1.686046 -1.47486 8.3796723e-39
1.0775526 1.685353 -1.4731091 1.0685632e-38
1.0756404 1.6813486 -1.4617965 1.5203973e-38
1.0632535 1.6756175 -1.4459529 1.7327009e-38
1.055873 1.6705939 -1.4319401 2.074223e-38
1.044219 1.6640128 -1.4136543 2.2587929e-38
1.0370519 1.659124 -1.4000168 2.2771963e-38
1.0262501 1.651987 -1.3801202 2.2864878e-38
1.0149149 1.6456267 -1.3624506 2.3417333e-38
1.0106189 1.64252 -1.353775 1.1231316e-38
1.0028688 1.6386085 -1.3429365 4.5971572e-39
1.3163348 1.8368229 -1.8950337 2.3509886e-38
1.3098769 1.8324885 -1.8829468 2.2487437e-38
1.3083336 1.831255 -1.8794961 2.1746948e-38
1.2936304 1.821543 -1.8524215 1.8610869e-38
1.279671 1.8131137 -1.8289654 1.8059601e-38
1.2654055 1.8037177 -1.802773 1.3647246e-38
1.0850868 1.6937442 -1.496688 2.0918726e-38
1.0837837 1.6927009 -1.4937693 6.8981355e-39
1.0857617 1.6937408 -1.4966543 5.3383292e-39
1.0799968 1.6908562 -1.4886627 8.0101906e-39
1.0709945 1.6862669 -1.4759426 7.9190697e-39
1.0629964 1.6826695 -1.4660057 1.2064978e-38
1.0516136 1.6750802 -1.4448442 1.5202155e-38
1.0443052 1.670054 -1.4308218 1.972518e-38
1.0368952 1.6649716 -1.4166429 2.2034045e-38
1.0172281 1.6529037 -1.3830504 2.304891e-38
1.0077761 1.6465611 -1.3653634 2.341805e-38
1.0031193 1.6432408 -1.3560938 1.1879554e-38
0.99619496 1.6395756 -1.3459252 3.4937005e-39
0.99954492 1.6403408 -1.3479798 7.3684407e-39
1.3350806 1.8560814 -1.9490966 2.0834378e-38
1.3230704 1.8482203 -1.9271859 2.212695e-38
1.3112974 1.8405148 -1.9057084 2.2489569e-38
1.3044211 1.8359307 -1.8929263 2.1739761e-38
1.2825879 1.8226726 -1.8560293 2.1368106e-38
1.2779535 1.8192002 -1.8463262 1.9620369e-38
1.2635858 1.810644 -1.8225248 1.5290855e-38
1.2302545 1.7892003 -1.7627754 1.1515593e-38
1.0738198 1.6921325 -1.4925125 5.0624738e-39
1.0683382 1.6908108 -1.4889529 5.4345129e-39
1.0700654 1.6906012 -1.4882953 6.9974932e-39
1.064851 1.6866153 -1.4771541 9.9444757e-39
1.050104 1.6802675 -1.4596422 1.3538303e-38
1.0412595 1.6742435 -1.4428388 1.7229026e-38
1.0367061 1.6709158 -1.4335446 2.00936e-38
1.0180722 1.6584775 -1.3988624 2.1574862e-38
1.0156319 1.6578505 -1.3971682 2.2772682e-38
1.0059372 1.6513222 -1.3789617 2.323366e-38
0.99667335 1.6450449 -1.3614535 2.3325852e-38
0.98600239 1.6382737 -1.3425918 3.5859032e-39
1.4068335 1.9065235 -2.0898843 1.4656602e-38
1.4025869 1.9032813 -2.080822 1.4471855e-38
1.3276252 1.8579149 -1.9545764 1.9449682e-38
1.3115339 1.8492165 -1.9304321 1.574958e-38
1.2868257 1.8336602 -1.8871061 1.6928005e-38
1.0677549 1.6953524 -1.5018826 7.7383204e-39
1.0652313 1.6933088 -1.4961648 7.8276322e-39
1.0587423 1.6885117 -1.4827636 9.485706e-39
1.0498608 1.6841433 -1.4706671 1.0593473e-38
1.0426396 1.6812422 -1.4626813 1.3723034e-38
1.0338492 1.6752057 -1.4458405 1.7412692e-38
1.0266551 1.6701726 -1.431794 1.9815208e-38
1.0185311 1.6646049 -1.4162614 2.2863809e-38
1.0014683 1.6548165 -1.3890542 2.2312071e-38
0.99874848 1.6522515 -1.3818616 2.3325856e-38
0.98955333 1.6459659 -1.3643272 2.2956716e-38
0.98976648 1.64564 -1.3633933 4.2244328e-39
0.98447114 1.6418365 -1.3527732 7.2751745e-39
1.3217103 1.8623607 -1.9674253 2.0925531e-38
1.2963022 1.8467424 -1.923948 1.5938664e-38
1.295117 1.8455499 -1.9206015 1.7114202e-38
1.0644788 1.6986951 -1.511501 7.8272889e-39
1.0592027 1.69556 -1.5027803 6.5369144e-39
1.0542881 1.691943 -1.4926767 9.3963886e-39
1.0506827 1.6891824 -1.4849598 1.0222898e-38
1.0351142 1.6824648 -1.466427 1.3537217e-38
1.0278485 1.677338 -1.4521168 1.6951705e-38
1.0206474 1.6719733 -1.4371278 2.0182193e-38
1.0077541 1.6632146 -1.4126973 2.1572348e-38
0.99968004 1.6588156 -1.4004849 2.0378862e-38
0.98907727 1.6515846 -1.3803139 2.0653273e-38
0.9836657 1.6476574 -1.3693465 1.512912e-38
0.97160375 1.6418298 -1.3532172 4.9716808e-39
0.97554576 1.642735 -1.3556479 7.0003841e-39
1.0570344 1.7000395 -1.5155901 7.5489069e-39
1.0446202 1.6924074 -1.4943444 5.3372824e-39
1.0440863 1.6912115 -1.4909643 9.9492037e-39
1.036818 1.6860559 -1.4765724 1.0961172e-38
1.0209215 1.678081 -1.454478 1.1418891e-38
1.020425 1.6782945 -1.4551023 1.7412685e-38
1.0127521 1.6740854 -1.4434152 2.0090723e-38
1.0013467 1.6661812 -1.4213598 1.6962939e-38
0.9966529 1.6627139 -1.4116735 1.5762907e-38
0.98600674 1.6553867 -1.3912309 2.0377752e-38
0.97653395 1.648571 -1.3721999 1.0786147e-38
0.97170502 1.6464591 -1.366371 4.1397776e-39
0.97089982 1.6452293 -1.3629049 7.0014631e-39
1.2842408 1.8504262 -1.9348524 1.4741551e-38
1.2830658 1.849234 -1.9315059 1.4187666e-38
1.0495845 1.7013813 -1.519672 7.6357034e-39
1.0482856 1.7003323 -1.516737 8.3761341e-39
1.0365609 1.6921887 -1.4940126 9.8552186e-39
1.0284169 1.6877085 -1.4815718 1.1143752e-38
1.0212283 1.6825609 -1.4671996 1.4366621e-38
1.011027 1.679215 -1.4580564 1.8335733e-38
1.002781 1.6726071 -1.4395722 1.8895057e-38
0.9908222 1.665068 -1.4185746 1.2173039e-38
0.98413843 1.6602517 -1.405126 1.9084495e-38
0.9797895 1.6569711 -1.3959578 2.2864882e-38
0.96944636 1.6510304 -1.3794451 2.3136801e-38
0.96215326 1.6457818 -1.3647894 3.6734241e-39
0.96129644 1.6447994 -1.3620281 6.6326805e-39
0.9563396 1.642248 -1.3549548 5.8983623e-39
1.2791568 1.8570043 -1.9537319 1.6402863e-38
1.2768313 1.8537744 -1.9446355 1.5937584e-38
1.0300453 1.6951751 -1.5027349 5.6938386e-39
1.0315529 1.695773 -1.5043802 6.437879e-39
1.025492 1.6924503 -1.495154 8.7463557e-39
1.0146675 1.684546 -1.4730779 1.1418535e-38
1.0080814 1.6807973 -1.4626603 1.3262081e-38
1.0014355 1.6787133 -1.4569761 1.86145e-38
0.99605685 1.6738693 -1.4434012 1.723987e-38
0.98566276 1.667431 -1.4254762 1.5488174e-38
0.9768936 1.6611707 -1.4079984 2.2587934e-38
0.96880955 1.6554185 -1.39194 2.3233662e-38
0.95787537 1.6489991 -1.3740876 2.267869e-38
0.95504415 1.646682 -1.367604 6.9899654e-39
0.95098776 1.6435716 -1.3589092 6.0791494e-39
0.95136917 1.643388 -1.3583738 7.0965412e-39
1.0281398 1.6997665 -1.5158533 6.340287e-39
1.0225912 1.6969607 -1.5080785 6.9928437e-39
1.0179406 1.6934063 -1.4981433 8.9285764e-39
1.0086093 1.6867155 -1.479462 1.1602198e-38
1.0012591 1.682333 -1.4672703 1.2526315e-38
0.99533832 1.678062 -1.455344 1.5753921e-38
0.99383897 1.6776704 -1.4542845 1.6868971e-38
0.98179942 1.6705066 -1.4343569 1.3083879e-38
0.97366959 1.6652608 -1.4197392 2.2126232e-38
0.96905154 1.6617711 -1.4099866 2.286416e-38
0.96146649 1.656279 -1.3946497 2.3509886e-38
0.94864428 1.6485221 -1.3730642 1.8250805e-38
0.94540608 1.6459445 -1.3658545 2.3877257e-39
0.94332963 1.6441609 -1.3608598 6.8167173e-39
1.0287915 1.7032115 -1.5256215 3.2142522e-39
1.0255375 1.7041153 -1.5283073 6.0669259e-39
1.0172489 1.6994534 -1.5153552 7.5431448e-39
1.0126287 1.6958946 -1.5054067 9.021481e-39
1.0053341 1.6905445 -1.4904628 1.243086e-38
1.0008726 1.6871016 -1.4808376 1.5935029e-38
0.99533898 1.6838133 -1.4716905 1.5939742e-38
0.99330723 1.6813661 -1.4648081 1.6498336e-38
0.97925943 1.6754129 -1.4483929 2.0740406e-38
0.97201943 1.6703197 -1.4341775 2.3509886e-38
0.96175468 1.6639733 -1.4165087 2.3233302e-38
0.9480139 1.6542164 -1.3892717 2.3509886e-38
0.94046122 1.6487939 -1.3741311 2.1386511e-38
0.93831295 1.6468368 -1.3686458 2.6635881e-39
0.9362421 1.6450478 -1.3636354 7.0925783e-39
1.0157101 1.7045065 -1.5297729 7.1826692e-39
1.01951 1.705987 -1.533844 3.0305812e-39
1.0167553 1.7057561 -1.533287 7.2625936e-39
1.0093412 1.7002677 -1.5179541 7.8229491e-39
1.0047634 1.6967095 -1.5080057 1.040402e-38
0.99766874 1.6914505 -1.4933133 1.4367691e-38
0.99276322 1.687711 -1.4828615 1.8333209e-38
0.98122162 1.680796 -1.4636226 1.5116836e-38
0.97481906 1.6786095 -1.4576381 2.1481589e-38
0.96762252 1.6735047 -1.4433882 2.3509886e-38
0.95573699 1.6660247 -1.4225554 2.2956357e-38
0.94357705 1.6572349 -1.3980106 2.341805e-38
0.9339515 1.6500235 -1.3778601 1.7512865e-38
0.93121421 1.647723 -1.3714199 3.1252767e-39
0.93323594 1.6490688 -1.3751723 7.920911e-39
1.3443491 1.9287838 -2.1554015 1.5581096e-38
1.0080903 1.7054586 -1.5327532 7.0962315e-39
1.015689 1.7107415 -1.5474952 4.1325973e-39
1.0090775 1.7067049 -1.5362598 7.629937e-39
1.0130938 1.7086338 -1.5415977 9.1136739e-39
1.0008219 1.7001595 -1.5179532 1.0773149e-38
0.99171054 1.6934414 -1.4991868 1.5474395e-38
0.98464698 1.6895822 -1.488472 1.8981843e-38
0.98270857 1.6869985 -1.4811981 1.2721533e-38
0.9585945 1.6722256 -1.4400772 1.8526643e-38
0.94928873 1.6679257 -1.4281908 2.2771965e-38
0.94843149 1.6669199 -1.4253631 2.2957075e-38
0.93827057 1.6594532 -1.4045063 2.3509886e-38
0.92943782 1.6529564 -1.3863584 2.0095059e-38
0.9241097 1.6486026 -1.3741757 3.9557521e-39
0.92628837 1.6503011 -1.3789247 8.0130955e-39
1.3350883 1.9300413 -2.1593087 1.5211224e-38
1.0037049 1.7073761 -1.5383611 1.0689713e-38
1.0117947 1.7145815 -1.5585496 3.8570908e-39
1.0068805 1.7110142 -1.5485868 8.6408533e-39
0.99319881 1.7010951 -1.5208868 1.1603266e-38
0.98408073 1.6957657 -1.5060673 1.6397095e-38
0.97711754 1.6905043 -1.4913636 1.8521243e-38
0.96431804 1.6811981 -1.4653738 1.0786924e-38
0.95381051 1.6735184 -1.4439242 2.1573057e-38
0.94197434 1.6688147 -1.4309804 2.2864522e-38
0.93926412 1.666494 -1.4244822 2.3509886e-38
0.93105763 1.6603447 -1.4072995 2.3509886e-38
0.92360884 1.6544394 -1.3907833 2.3509886e-38
0.9201234 1.6519467 -1.3838235 2.8530044e-39
0.91744554 1.6496539 -1.3774036 7.4592028e-39
1.3302794 1.934332 -2.1716771 1.5304496e-38
1.3290796 1.9330411 -2.168051 1.4936075e-38
1.3222018 1.9304154 -2.1608355 1.4383617e-38
0.99881881 1.7088298 -1.5426685 1.0966667e-38
0.99936396 1.712338 -1.5526201 8.8259537e-39
0.98308116 1.7002817 -1.5189388 1.2615622e-38
0.97401029 1.6949511 -1.5041142 1.7411981e-38
0.96759945 1.6900042 -1.4902846 1.8154975e-38
0.95833814 1.6830978 -1.4709883 1.4931044e-38
0.94779438 1.675325 -1.4492751 2.2495379e-38
0.93650699 1.6703926 -1.4356622 2.3509886e-38
0.92566794 1.6625384 -1.4137287 2.3509886e-38
0.92037296 1.6586809 -1.4029549 1.6406168e-38
0.9109686 1.6527855 -1.3865374 3.0377726e-39
0.90832454 1.6504993 -1.3801346 7.1847753e-39
1.3209903 1.9355814 -2.1755626 1.5212663e-38
1.3096441 1.9298778 -2.1597593 1.4752041e-38
1.3129013 1.9316592 -2.1647055 1.4475815e-38
1.0051606 1.7199107 -1.5739352 3.1528935e-39
1.0002533 1.7163136 -1.5638875 1.0244279e-38
0.99170083 1.7115191 -1.5505681 1.0790183e-38
0.99313587 1.7147142 -1.5595976 6.0611554e-39
0.98243105 1.706874 -1.5376991 8.8342059e-39
0.97540629 1.7014782 -1.5226159 1.2707095e-38
0.96782511 1.6971502 -1.5105871 1.7688207e-38
0.96158403 1.6922778 -1.4969629 1.7694376e-38
0.95329225 1.6860098 -1.4794459 1.6594503e-38
0.94418079 1.6788372 -1.4593878 2.2956717e-38
0.94050217 1.676151 -1.4518853 2.3509886e-38
0.92461163 1.6685269 -1.4307874 2.3325856e-38
0.91198182 1.6580837 -1.4015594 2.3509886e-38
0.90814167 1.6571875 -1.3991503 3.8672545e-39
0.90895474 1.6567619 -1.3979117 7.7343338e-39
0.89946514 1.650522 -1.3805175 5.7128921e-39
1.3115715 1.9374225 -2.181134 1.5581087e-38
1.3103888 1.9361308 -2.1775053 1.5212663e-38
1.3047652 1.9341797 -2.1721618 1.5119746e-38
0.98709869 1.7135874 -1.5566124 1.0047936e-38
0.99004591 1.7171761 -1.5667063 6.3366969e-39
0.97512943 1.7084342 -1.5423962 8.5500912e-39
0.98521143 1.7119769 -1.5521027 9.4759978e-39
0.96746242 1.7041876 -1.5306023 1.0218187e-38
0.95830745 1.6966549 -1.509522 1.8703446e-38
0.95162272 1.6914536 -1.494979 1.7508889e-38
0.94338942 1.6851755 -1.4774312 1.6501957e-38
0.9362514 1.6796113 -1.4618733 2.2310985e-38
0.92522347 1.6744035 -1.4474682 2.3233303e-38
0.92450666 1.6721116 -1.44098 2.3509886e-38
0.90998316 1.6627411 -1.4148685 2.3509886e-38
0.91295552 1.6661613 -1.4244828 2.3509886e-38
0.89215022 1.6517069 -1.3841485 7.3468397e-40
0.89132458 1.6507734 -1.381525 6.7198329e-39
1.3022559 1.9386462 -2.1849473 1.5856596e-38
1.3010817 1.9373543 -2.1813176 1.5396695e-38
1.2941427 1.9347146 -2.1740642 1.4843166e-38
0.98521197 1.7189479 -1.5719161 1.0429775e-38
0.9767279 1.7128422 -1.5548675 7.8197625e-39
0.96724808 1.7082545 -1.5421692 6.3470987e-39
0.96019977 1.7053539 -1.5341783 1.086318e-38
0.95344299 1.700047 -1.5193379 1.6765527e-38
0.94439113 1.6930873 -1.4998825 1.9721945e-38
0.94399834 1.6921121 -1.4971246 1.6591927e-38
0.93398046 1.6847103 -1.4764473 2.1200682e-38
0.92336094 1.6778651 -1.4573741 2.3417691e-38
0.9171744 1.672989 -1.4437374 2.3509886e-38
0.91383082 1.6696893 -1.4344791 2.3509886e-38
0.90283275 1.6651865 -1.4220766 2.3509168e-38
0.89311218 1.6579881 -1.4019663 2.0279143e-39
0.8871665 1.6537704 -1.3901929 7.1804523e-39
1.2869663 1.9355141 -2.176595 1.5581445e-38
1.2917614 1.9385622 -2.1850858 1.5121905e-38
1.2905951 1.93727 -2.1814551 1.502827e-38
1.2848022 1.9359171 -2.1778183 1.4935717e-38
0.97285253 1.7166389 -1.565798 9.857797e-39
0.96548164 1.7123661 -1.5539188 8.4607823e-39
0.96085876 1.7101696 -1.5478419 6.3388423e-39
0.9604978 1.7080923 -1.5419507 8.2792469e-39
0.95410854 1.7073826 -1.5401634 1.1878404e-38
0.94740528 1.7020673 -1.5252973 1.7596019e-38
0.93927026 1.6957351 -1.5075924 1.9999608e-38
0.93669724 1.6933912 -1.5010228 1.6593791e-38
0.92011333 1.6809663 -1.4663049 2.3509886e-38
0.90936017 1.6737894 -1.4462932 2.3417691e-38
0.90150547 1.6676278 -1.4290631 2.3509886e-38
0.88735962 1.6580973 -1.4024837 2.2039083e-38
0.88203567 1.6534343 -1.3894222 1.0966601e-38
0.88045847 1.6548442 -1.3934861 7.0929314e-39
1.2776997 1.9367212 -2.1803591 1.5491048e-38
1.2777524 1.93969 -2.1887956 1.558288e-38
1.2766008 1.9383973 -2.1851625 1.502899e-38
1.2754488 1.9371046 -2.1815298 1.4569817e-38
0.96850556 1.720402 -1.57665 4.8998475e-39
0.96538085 1.7178274 -1.5694451 1.0420352e-38
0.96270913 1.7171117 -1.5675063 7.6368034e-39
0.96401513 1.7169746 -1.5670704 8.5504486e-39
0.95484895 1.710502 -1.5490031 7.9093769e-39
0.94645268 1.7082969 -1.5430378 1.3169886e-38
0.93980342 1.7029756 -1.5281527 1.8704881e-38
0.9317258 1.696631 -1.5104098 1.9631914e-38
0.9268434 1.6927555 -1.4995704 1.9176691e-38
0.91674721 1.6847543 -1.4771924 2.3140749e-38
0.91037977 1.6796639 -1.4629533 2.3325856e-38
0.90203494 1.674665 -1.4490452 2.3417691e-38
0.89596307 1.6697893 -1.4354057 2.3509886e-38
0.8823384 1.6593635 -1.4062634 2.0287027e-38
0.87429762 1.6571839 -1.4003577 1.6676958e-38
1.2684194 1.9379128 -2.1840801 1.5491406e-38
0.95907152 1.7203916 -1.57696 1.1615996e-38
0.95299721 1.7165296 -1.5662016 7.6339307e-39
0.95212877 1.7154676 -1.5632143 7.9104756e-39
0.95522976 1.7172314 -1.5681159 8.1866757e-39
0.93219525 1.7038773 -1.5309889 1.9259516e-38
0.92417514 1.6975198 -1.5132079 1.8620643e-38
0.92280436 1.6964486 -1.5102127 1.9545118e-38
0.90714437 1.6856028 -1.4799495 2.3325856e-38
0.89665502 1.6778774 -1.4583696 2.3509886e-38
0.89915305 1.6784438 -1.4598894 2.3509886e-38
0.8833729 1.6667032 -1.4270873 2.341805e-38
0.87649256 1.6611707 -1.4116104 2.0100814e-38
0.8668462 1.6568229 -1.3995998 1.889905e-38
0.8668052 1.6573744 -1.4011687 4.8773454e-39
0.86737835 1.6549515 -1.3942616 6.8145439e-39
1.2531438 1.9383738 -2.1859398 1.549105e-38
1.2520188 1.9370849 -2.182317 1.5399214e-38
1.250893 1.9357963 -2.1786945 1.5030795e-38
0.95037085 1.7200282 -1.5762398 8.9441125e-39
0.94716436 1.7192229 -1.5740663 8.007025e-39
0.94435161 1.7166734 -1.5669215 7.8168548e-39
0.94348681 1.7156109 -1.5639327 7.4530553e-39
0.93913406 1.7119328 -1.553635 1.298334e-38
0.92786855 1.7075874 -1.5416895 1.8707421e-38
0.91805041 1.6994529 -1.5189226 1.7884164e-38
0.91309965 1.6972939 -1.5129646 1.7700143e-38
0.90106559 1.6878183 -1.4864653 2.3509886e-38
0.89128113 1.6797384 -1.463852 2.3509886e-38
0.88220859 1.6725153 -1.4436485 2.2865951e-38
0.87613273 1.6675556 -1.4297705 1.8629303e-38
0.87200665 1.6653752 -1.4237219 2.3509886e-38
0.86281872 1.6583084 -1.4039668 7.9295346e-39
1.243807 1.9395349 -2.1895757 1.5583249e-38
1.2426902 1.9382458 -2.1859517 1.5306665e-38
1.241573 1.9369564 -2.1823275 1.5123353e-38
1.2404554 1.9356673 -2.1787035 1.5673644e-38
0.94671118 1.7250639 -1.5906845 9.4061837e-39
0.94276148 1.7219515 -1.5819802 8.0941802e-39
0.94148362 1.7208973 -1.5790302 7.6349691e-39
0.94020563 1.7198431 -1.5760797 8.3721249e-39
0.92976707 1.7132192 -1.5576284 1.464393e-38
0.92199087 1.7086574 -1.5449424 1.6401823e-38
0.91435879 1.7038621 -1.5315874 2.0647165e-38
0.90743983 1.6984829 -1.5165473 1.9822436e-38
0.89284694 1.6880866 -1.4875234 2.3509886e-38
0.88668847 1.6830038 -1.4732984 2.341769e-38
0.87758309 1.6756829 -1.4528182 1.8629292e-38
0.87155807 1.6707115 -1.4389051 2.1758904e-38
0.85842073 1.6623774 -1.4156901 2.3325138e-38
0.85714298 1.6603919 -1.4100929 3.1224069e-39
0.85844731 1.6605772 -1.4105724 7.7354198e-39
0.95730722 1.7381283 -1.6274354 3.3981432e-39
0.9524802 1.7326539 -1.612049 1.0231397e-38
0.94044077 1.7274231 -1.5976154 9.3176511e-39
0.93915784 1.7263654 -1.5946552 1.041351e-38
0.93523878 1.7232543 -1.5859538 7.7264669e-39
0.93396193 1.7221997 -1.5830023 7.1747238e-39
0.93268538 1.7211452 -1.5800509 8.8352513e-39
0.92361337 1.7152776 -1.5637 1.5291108e-38
0.91738296 1.7101475 -1.5493435 1.9449685e-38
0.90799433 1.7039328 -1.5320172 1.8993394e-38
0.90167677 1.6987312 -1.5174602 1.6221442e-38
0.89615798 1.6968926 -1.5124333 2.3509886e-38
0.87983829 1.6845131 -1.4778347 1.697338e-38
0.87222362 1.6782469 -1.4602983 2.314075e-38
0.86462611 1.6719972 -1.4428085 2.304891e-38
0.85992491 1.6681135 -1.4319394 2.2221319e-38
0.85216779 1.6632848 -1.4184941 2.323402e-38
0.84898818 1.6600416 -1.4093906 7.1822432e-39
1.211697 1.9338267 -2.1745067 1.5950954e-38
0.9506979 1.7399244 -1.632778 1.7451e-39
0.93034011 1.7276179 -1.5985322 9.1303577e-39
0.92771035 1.7245545 -1.58992 7.1700631e-39
0.92643493 1.7234997 -1.5869676 6.6233269e-39
0.92515969 1.7224449 -1.5840156 9.9408786e-39
0.91362303 1.7144145 -1.5616062 1.6488227e-38
0.90340245 1.7062365 -1.5387303 2.1294685e-38
0.89758313 1.7013001 -1.5249091 1.7425385e-38
0.8804493 1.6884043 -1.4888726 1.9458342e-38
0.87377495 1.6867319 -1.4843594 2.1206088e-38
0.86623496 1.6804613 -1.466808 2.3416974e-38
0.86012632 1.6752787 -1.4522974 2.2312068e-38
0.85199296 1.6702839 -1.4383938 2.3509886e-38
0.84621793 1.6654088 -1.4247451 2.3509886e-38
0.84255278 1.662171 -1.4156743 9.4842893e-39
0.84182864 1.6608871 -1.4120512 6.8134565e-39
1.2041003 1.9341799 -2.1757839 1.5399221e-38
1.2030268 1.9328986 -2.1721809 1.5675449e-38
1.1970882 1.9315723 -2.1686246 1.5674728e-38
1.2011729 1.934316 -2.176276 1.5767646e-38
0.92610908 1.7263829 -1.5951743 8.9329834e-39
0.91758376 1.7235377 -1.5873944 6.1619648e-39
0.91490179 1.7210076 -1.5802995 1.2062098e-38
0.90593463 1.7154188 -1.5647373 1.907333e-38
0.89806902 1.7088913 -1.5464677 2.1847133e-38
0.89003849 1.7021887 -1.527706 1.4572715e-38
0.87625402 1.691092 -1.4966625 2.0006113e-38
0.86477113 1.6863203 -1.4835134 2.3417333e-38
0.85573131 1.6787894 -1.4624337 2.1574513e-38
0.84986013 1.6737969 -1.4484549 2.2127318e-38
0.83772391 1.6652557 -1.4246154 2.3509886e-38
0.83538264 1.6630116 -1.4183214 8.1960938e-39
0.83460414 1.6620207 -1.4155328 6.1652144e-39
1.1981535 1.9373616 -2.185041 1.5767284e-38
1.1878215 1.9327003 -2.172164 1.5859117e-38
1.1918459 1.9354291 -2.1797752 1.5583253e-38
0.92324978 1.7313919 -1.609514 1.023493e-38
0.91858113 1.7276769 -1.599123 8.1013885e-39
0.9146139 1.7255665 -1.5932676 5.888287e-39
0.90743762 1.7244116 -1.590243 6.3463574e-39
0.90316004 1.7206242 -1.579632 1.3078777e-38
0.89824653 1.7163148 -1.5675609 1.9907065e-38
0.88891816 1.7085986 -1.5459648 2.0649697e-38
0.88096517 1.7018971 -1.5272039 1.4657693e-38
0.86728847 1.6907775 -1.4960914 2.2310276e-38
0.84353232 1.6758164 -1.4544226 2.148159e-38
0.83418697 1.6697893 -1.4376283 2.3325856e-38
0.83901554 1.6722782 -1.4445285 2.3509886e-38
0.83364898 1.6679046 -1.4322907 2.3509886e-38
0.83027005 1.6654832 -1.4255302 6.1713675e-39
0.82743096 1.6628548 -1.4181616 5.7964277e-39
1.1899481 1.93979 -2.1922386 1.5767643e-38
1.1785405 1.9338131 -2.1756608 1.549142e-38
1.1050143 1.8773155 -2.0177259 5.2573495e-39
0.89389771 1.7203239 -1.5791118 1.4277693e-38
