# .PCD v0.7 - Point Cloud Data file format
VERSION 0.7
FIELDS x y z rgb
SIZE 4 4 4 4
TYPE F F F F
COUNT 1 1 1 1
WIDTH 1025
HEIGHT 1
VIEWPOINT 0 0 0 1 0 0 0
POINTS 1025
DATA ascii
-1.5492902 0.8464601 0.099685408 1.9074748e-38
-1.5377339 0.84647 0.1007423 1.9258412e-38
-1.5155662 0.84648252 0.10278514 1.9442449e-38
-1.5012881 0.84649301 0.1040949 1.9349531e-38
-1.4885395 0.8456924 0.10722707 1.925697e-38
-1.4701678 0.84568965 0.10895199 1.9258053e-38
-1.4570485 0.84537226 0.11094787 1.695353e-38
-1.448395 0.84430766 0.11433674 1.806024e-38
-1.4341201 0.84395355 0.11652976 1.9258779e-38
-1.41994 0.84380513 0.11821555 1.8243898e-38
-1.4085791 0.84387511 0.11910836 1.8152066e-38
-1.3980279 0.84394985 0.11991419 1.8613401e-38
-1.3884593 0.84402496 0.12062697 1.7969475e-38
-1.3738835 0.84322381 0.12393139 1.8521567e-38
-1.3632538 0.84303987 0.1253712 1.6218117e-38
-1.3573061 0.84308285 0.12582321 1.7230475e-38
-1.3477231 0.84181595 0.12978913 1.8243544e-38
-1.3362632 0.8419022 0.13065203 1.7969116e-38
-1.3257401 0.84176815 0.13196087 1.8336819e-38
-1.311305 0.84187043 0.13306311 1.8153512e-38
-1.2990291 0.84195524 0.13400565 1.8705235e-38
-1.2902023 0.84181219 0.13517794 1.8520837e-38
-1.2833289 0.84126049 0.13715741 1.8428644e-38
-1.2719743 0.84091121 0.13906556 1.6308522e-38
-1.2599826 0.84103513 0.13988687 1.6217039e-38
-1.2532036 0.8397885 0.14354147 1.8521926e-38
-1.2442284 0.83988649 0.14414333 1.8246422e-38
-1.2342507 0.83999908 0.14480376 1.8523372e-38
-1.2221527 0.83987707 0.1462308 1.8707763e-38
-1.2159671 0.83994794 0.1466376 1.87978e-38
-1.2096467 0.83947295 0.14837947 1.7232635e-38
-1.2043164 0.83906311 0.14987105 1.6770931e-38
-1.1968737 0.83935219 0.1498667 1.8799241e-38
-1.1874819 0.83900654 0.15158255 1.6678382e-38
-1.1785626 0.83915758 0.15205082 1.6678022e-38
-1.1701653 0.83793426 0.15580034 1.8614845e-38
-1.1597329 0.83809865 0.15637751 1.8707407e-38
-1.1548363 0.83793467 0.15723284 1.9264561e-38
-1.1527724 0.83806098 0.15711978 1.7792317e-38
-1.1509221 0.83813137 0.1571223 1.7975987e-38
-1.74253 0.85022187 0.072498314 0
-1.7248081 0.84964693 0.075548738 2.7644312e-39
-1.7200265 0.84966385 0.075955048 2.4892904e-39
-1.7094072 0.84967345 0.07692492 2.1219456e-39
-1.6995796 0.84877574 0.080019146 6.5440905e-39
-1.6902554 0.84840381 0.08179231 7.2791135e-39
-1.5635976 0.84598154 0.099506848 1.9073654e-38
-1.5484831 0.84416115 0.10533112 1.9074021e-38
-1.538548 0.84418017 0.10621439 1.9074022e-38
-1.5257037 0.84420258 0.10736112 1.9166942e-38
-1.513239 0.84422469 0.10847337 1.9535004e-38
-1.5020953 0.84425092 0.10945205 1.9442086e-38
-1.4709449 0.84348512 0.11422086 1.9257694e-38
-1.4585454 0.84368485 0.11489647 1.8058431e-38
-1.4477711 0.84317797 0.11713234 1.7321949e-38
-1.4390786 0.84322327 0.11783556 1.7414872e-38
-1.4371048 0.84179443 0.12148213 1.953536e-38
-1.4220322 0.84168607 0.12315428 1.7968388e-38
-1.4116964 0.84176475 0.12393032 1.8611235e-38
-1.4003847 0.84190148 0.12465694 1.861304e-38
-1.3869108 0.84199691 0.1256859 1.8520844e-38
-1.3734833 0.84120387 0.12886326 1.852085e-38
-1.3626691 0.84128839 0.12966979 1.8337539e-38
-1.3568285 0.84136444 0.13003166 1.8520848e-38
-1.3364724 0.83966988 0.1360413 1.8336096e-38
-1.3217907 0.83979255 0.13711712 1.8611959e-38
-1.3102497 0.83988637 0.13796927 1.8336812e-38
-1.3015026 0.83976579 0.13907947 1.8521559e-38
-1.2919068 0.8398484 0.13977663 1.8336816e-38
-1.2803406 0.83911759 0.14262915 1.8153141e-38
-1.2731907 0.83920753 0.14307988 1.8611954e-38
-1.2609221 0.83936846 0.14383742 1.842972e-38
-1.2443159 0.83790058 0.14894719 1.9628278e-38
-1.2327791 0.83783048 0.15019593 1.7325186e-38
-1.2303421 0.83806914 0.14984548 1.6771652e-38
-1.2229403 0.83799052 0.15072829 1.8983267e-38
-1.2145793 0.83788103 0.15177558 1.889107e-38
-1.206719 0.83738643 0.15370902 1.8982894e-38
-1.197313 0.83749384 0.15432841 1.8799234e-38
-1.1890968 0.83759797 0.15484458 1.8798874e-38
-1.1794666 0.83750665 0.15596648 1.8798511e-38
-1.1578881 0.8360973 0.16139945 1.9263838e-38
-1.1545111 0.83624959 0.16134606 1.7975986e-38
-1.1513436 0.83609241 0.16202322 1.650158e-38
-1.7324576 0.84730291 0.080512933 1.0166631e-39
-1.7302136 0.84716529 0.081056319 2.0250753e-39
-1.7235259 0.84734732 0.081240609 1.5414283e-44
-1.7163883 0.84718299 0.082306266 2.3038188e-39
-1.704035 0.84629565 0.085611694 7.188748e-39
-1.5644387 0.8436619 0.10504865 1.9073655e-38
-1.5330675 0.84190613 0.11223692 1.9165859e-38
-1.5237103 0.84193653 0.11303826 1.9258772e-38
-1.5121971 0.84197742 0.11401597 1.9534644e-38
-1.4985105 0.84202421 0.11518264 1.9718664e-38
-1.4924353 0.84164435 0.11667123 1.898002e-38
-1.4669558 0.84116209 0.1202226 1.8427558e-38
-1.4536276 0.84125525 0.12124333 1.8059506e-38
-1.4405316 0.84089071 0.12335137 1.6124847e-38
-1.4223157 0.83961284 0.12815127 1.7600328e-38
-1.410058 0.83970499 0.12907439 1.8611954e-38
-1.4011825 0.83981669 0.12963384 1.8429011e-38
-1.3889471 0.8399182 0.13053222 1.8337183e-38
-1.3772943 0.83941579 0.13283923 1.7047883e-38
-1.3651267 0.83944589 0.13390423 1.6955683e-38
-1.3606033 0.83923566 0.13483661 1.8614116e-38
-1.3523602 0.83911288 0.13590512 1.8244983e-38
-1.3409126 0.83912712 0.13694116 1.6309228e-38
-1.3238765 0.83783412 0.14166741 1.8428293e-38
-1.3138191 0.83771819 0.14288887 1.8337176e-38
-1.3033693 0.8378377 0.14357656 1.8153148e-38
-1.2947761 0.8376736 0.14477782 1.6862049e-38
-1.2810066 0.83741772 0.14668553 1.6586545e-38
-1.275579 0.83724296 0.14761667 1.8336813e-38
-1.2672282 0.8371399 0.14864731 1.8153139e-38
-1.2575775 0.83725339 0.14927489 1.8797791e-38
-1.2513782 0.83725005 0.14986286 1.6586182e-38
-1.2315775 0.83630282 0.15400979 1.6955316e-38
-1.2215908 0.83644944 0.1545884 1.6862776e-38
-1.2162532 0.8360033 0.15616871 1.8798874e-38
-1.2089792 0.83578944 0.15736708 1.7232628e-38
-1.1999459 0.83554226 0.15881088 1.7508494e-38
-1.1911558 0.83546984 0.15980831 1.8614483e-38
-1.1826658 0.83559412 0.16030121 1.8523006e-38
-1.1748847 0.83570558 0.16075899 1.8706681e-38
-1.1649523 0.83562052 0.16189396 1.8430092e-38
-1.1636149 0.83461189 0.16446283 1.8803227e-38
-1.158093 0.83456904 0.16508316 1.6131711e-38
-1.1529086 0.83446592 0.16581792 1.8160018e-38
-1.1508322 0.83402932 0.16706997 1.6409383e-38
-1.1482189 0.83403516 0.16730024 1.4749136e-38
-1.9783691 0.8495822 0.05199194 1.5022493e-38
-1.7378575 0.84465706 0.086418711 2.394571e-39
-1.7288425 0.84619117 0.083544746 2.3970962e-39
-1.7215042 0.84458619 0.088119976 1.8428448e-39
-1.580062 0.84128708 0.10934182 1.9349167e-38
-1.5652652 0.84134132 0.11059409 1.9072944e-38
-1.5481681 0.84138185 0.11209487 1.9257334e-38
-1.5105578 0.83955884 0.12002942 1.8152793e-38
-1.4987131 0.83992833 0.120242 1.6676576e-38
-1.4969665 0.8397482 0.12084164 1.8520124e-38
-1.4841324 0.83885109 0.12421569 1.8427564e-38
-1.466213 0.83903664 0.12544197 1.8059143e-38
-1.4539093 0.83914769 0.1263236 1.8058431e-38
-1.4443065 0.83901376 0.12754619 1.7968032e-38
-1.4349324 0.83910841 0.12819354 1.8244256e-38
-1.4052384 0.83767819 0.13443597 1.8245696e-38
-1.3925543 0.83757859 0.13586354 1.8520844e-38
-1.3804476 0.83769834 0.13670574 1.8245701e-38
-1.3701645 0.83812201 0.13664095 1.6309959e-38
-1.3637619 0.83697253 0.14002478 1.8520848e-38
-1.355233 0.83707118 0.14058346 1.8244982e-38
-1.3443959 0.83719414 0.14129892 1.8060226e-38
-1.3337111 0.83726025 0.14213821 1.9533561e-38
-1.3094295 0.83603859 0.14736913 1.6309954e-38
-1.2991861 0.83565956 0.14924537 1.8337173e-38
-1.2867403 0.83579737 0.15007545 1.8336096e-38
-1.2780527 0.83524996 0.15221439 1.9626115e-38
-1.2674506 0.83519667 0.15333496 1.824462e-38
-1.2612925 0.83524948 0.15378301 1.6493993e-38
-1.252552 0.83543444 0.15415218 1.8430816e-38
-1.2431954 0.83554691 0.15475479 1.9074734e-38
-1.2336676 0.83546019 0.15585597 1.7508853e-38
-1.2250422 0.83521414 0.15725882 1.7232989e-38
-1.2184243 0.83410537 0.1605643 1.8799593e-38
-1.2117373 0.83421683 0.16091965 1.8798157e-38
-1.2002875 0.83415574 0.16213852 1.8983629e-38
-1.1913447 0.83367509 0.16413942 1.8246417e-38
-1.182304 0.83380991 0.16465832 1.8523366e-38
-1.1736258 0.83372575 0.16567382 1.8523371e-38
-1.1671575 0.83380127 0.16609581 1.658763e-38
-1.1613601 0.83379048 0.16666406 1.7142605e-38
-1.1559684 0.83257002 0.17012541 1.7791241e-38
-1.1546757 0.83264571 0.17006296 1.7975631e-38
-1.7605429 0.84199327 0.090751611 2.9509734e-39
-1.7349362 0.8420732 0.092952706 2.9498972e-39
-1.722818 0.84190696 0.094488844 1.7520715e-39
-1.5831151 0.83885098 0.11495885 1.8981465e-38
-1.5648413 0.83893985 0.11645258 1.9072584e-38
-1.5522532 0.83899105 0.11750574 1.916514e-38
-1.5381649 0.83886772 0.11912218 1.815099e-38
-1.5278528 0.83896846 0.11984248 1.7969477e-38
-1.5104647 0.83762795 0.12471671 1.6308523e-38
-1.5028319 0.83779114 0.12503524 1.6676933e-38
-1.5007865 0.83747637 0.12598909 1.9625753e-38
-1.4867243 0.83702612 0.12839516 1.7047512e-38
-1.4731795 0.83707792 0.12953648 1.6585095e-38
-1.4615049 0.83687466 0.13112077 1.8149905e-38
-1.4494082 0.8370012 0.13194555 1.7874041e-38
-1.4391991 0.83687544 0.13320503 1.8243901e-38
-1.4267415 0.83701187 0.13403946 1.8152422e-38
-1.418714 0.83711874 0.13453129 1.8152064e-38
-1.4037169 0.83598542 0.13868001 1.6217042e-38
-1.3942145 0.83616161 0.13914165 1.6217399e-38
-1.382704 0.83598667 0.14064208 1.6311037e-38
-1.3718438 0.83615184 0.14125751 1.6034094e-38
-1.369941 0.83481652 0.14467101 1.8613048e-38
-1.3567526 0.83501124 0.14543258 1.8336813e-38
-1.347946 0.83513725 0.1459509 1.8153145e-38
-1.3373519 0.83526635 0.14662884 1.861268e-38
-1.32972 0.83515722 0.14760706 1.8520127e-38
-1.3190777 0.83528912 0.14828263 1.8337533e-38
-1.3054497 0.83484483 0.15063375 1.6679452e-38
-1.2966764 0.83375686 0.15409045 1.824534e-38
-1.2897159 0.83439374 0.15319809 1.7507424e-38
-1.2824852 0.83355606 0.15590417 1.6862407e-38
-1.2749741 0.833354 0.15709622 1.8520488e-38
-1.265543 0.83328217 0.15815228 1.8797072e-38
-1.2586122 0.83339942 0.15851642 1.8338618e-38
-1.2471684 0.83332735 0.15976132 1.8706323e-38
-1.2350775 0.83348852 0.16050151 1.8706321e-38
-1.2287124 0.83359855 0.16083011 1.8982901e-38
-1.2196611 0.83253127 0.1642627 1.6954969e-38
-1.2127101 0.8323406 0.16537476 1.8798155e-38
-1.2003713 0.83230537 0.166614 1.8614487e-38
-1.194617 0.83181036 0.16835159 1.8522287e-38
-1.1825951 0.83176607 0.16958323 1.8614486e-38
-1.1745447 0.83190292 0.17000446 1.852265e-38
-1.1670011 0.83203685 0.17038542 1.8708485e-38
-1.1615391 0.83215296 0.17061496 1.9173085e-38
-1.1604444 0.83113647 0.17318039 1.5947687e-38
-1.8277291 0.84285742 0.082374297 1.9350292e-39
-1.8140066 0.8429628 0.08340244 1.474421e-39
-1.7402588 0.84151292 0.093812481 2.5811189e-39
-1.7310861 0.84011632 0.098054372 1.5673257e-39
-1.7045888 0.8392027 0.10274614 1.4189823e-38
-1.6113286 0.83722305 0.11626463 1.8798517e-38
-1.562273 0.83664829 0.12224509 1.8059509e-38
-1.5531881 0.83652753 0.12338752 1.7967319e-38
-1.5424771 0.83663923 0.12411863 1.5939741e-38
-1.5239453 0.83674026 0.12560689 1.8060234e-38
-1.5122805 0.83652949 0.12720847 1.8246431e-38
-1.4959174 0.83570671 0.13073227 1.6676581e-38
-1.4922878 0.83575153 0.13096328 1.7783285e-38
-1.4776789 0.83565342 0.13256726 1.6308511e-38
-1.4620199 0.83447289 0.13689214 1.7966231e-38
-1.4507754 0.83465856 0.13749389 1.7689647e-38
-1.4390136 0.83479702 0.13825838 1.8243897e-38
-1.4269865 0.83493888 0.13903943 1.8243894e-38
-1.4179242 0.83522409 0.13919589 1.5940813e-38
-1.4108094 0.83459681 0.1413812 1.6678372e-38
-1.4036237 0.83464676 0.14193226 1.6588343e-38
-1.3926811 0.83417696 0.14409381 1.8613041e-38
-1.3823941 0.83431739 0.14471574 1.8613761e-38
-1.3665792 0.83311629 0.14910503 1.6862414e-38
-1.3584337 0.83272815 0.1508072 1.8337533e-38
-1.3476636 0.83287585 0.15145664 1.8245338e-38
-1.338889 0.83301473 0.15194082 1.8428648e-38
-1.3297936 0.83315104 0.15246099 1.8153148e-38
-1.3176512 0.8332876 0.1532658 1.9535007e-38
-1.3077239 0.83323079 0.15433191 1.8245706e-38
-1.2992473 0.83236659 0.15721859 1.7506688e-38
-1.2903062 0.83231765 0.15817341 1.5941896e-38
-1.2836703 0.83160776 0.16051401 1.8246781e-38
-1.2724466 0.83162284 0.16152719 1.8429734e-38
-1.2657474 0.83139896 0.16269612 1.8521207e-38
-1.2561109 0.83131754 0.16379462 1.8431172e-38
-1.247359 0.8314665 0.16425221 1.8706681e-38
-1.2338018 0.8316592 0.16505331 1.8890348e-38
-1.2272054 0.83178186 0.16537279 1.8797795e-38
-1.2199643 0.83106875 0.16777799 1.870704e-38
-1.2118803 0.83096558 0.16878405 1.695425e-38
-1.206375 0.83105713 0.16907704 1.8153513e-38
-1.2012651 0.83010709 0.17185688 1.7140079e-38
-1.1900121 0.83024549 0.17257392 1.7416301e-38
-1.1823611 0.8299461 0.17401491 1.8614482e-38
-1.1753045 0.83007753 0.1743564 1.8522286e-38
-1.1679476 0.83021361 0.17471477 1.8985436e-38
-1.1635407 0.8301062 0.17538722 1.8528436e-38
-1.1586894 0.82991987 0.17629232 1.6500857e-38
-1.1584073 0.82947552 0.17739527 1.7791593e-38
-1.7938775 0.83982462 0.092888728 8.4077908e-45
-1.8021872 0.83898532 0.094145231 3.227926e-39
-1.7662141 0.83889043 0.097739354 1.2939674e-39
-1.7389086 0.83878714 0.10054335 4.2038954e-45
-1.7366419 0.83902705 0.100174 3.0424516e-39
-1.7335895 0.83811861 0.10266062 1.8453517e-39
-1.6195412 0.83628535 0.11776875 1.7968395e-38
-1.6046342 0.83537382 0.12137158 1.5664947e-38
-1.5929189 0.83557189 0.12198731 1.5572397e-38
-1.5794916 0.83570564 0.12291893 1.723047e-38
-1.5626031 0.83411014 0.12836435 1.8150983e-38
-1.553041 0.83424175 0.12893969 1.7783649e-38
-1.5410101 0.83438182 0.1297254 1.8336453e-38
-1.5252645 0.83454907 0.13079277 1.8429014e-38
-1.5088031 0.8347097 0.13194293 1.8244991e-38
-1.4967563 0.83423698 0.13421515 1.7046077e-38
-1.4899246 0.83401394 0.13539451 1.8520483e-38
-1.4758968 0.83393687 0.136893 1.8242459e-38
-1.4652255 0.83234298 0.14175305 1.8242817e-38
-1.4537252 0.83248931 0.14247401 1.7781834e-38
-1.4371278 0.83268392 0.14355472 1.8244253e-38
-1.4302506 0.83251345 0.14461103 1.8244259e-38
-1.4179142 0.83272821 0.14524442 1.7968395e-38
-1.4072909 0.83288366 0.14586124 1.8244986e-38
-1.392921 0.83214206 0.14900209 1.8337183e-38
-1.3807198 0.83174217 0.15111211 1.6401069e-38
-1.3698624 0.83194125 0.15164499 1.6493992e-38
-1.3614619 0.83081651 0.15515602 1.9258773e-38
-1.3498943 0.83087337 0.15610002 1.8336812e-38
-1.3391035 0.83104593 0.15669101 1.8337176e-38
-1.3300104 0.83119357 0.15718377 1.7785084e-38
-1.3176464 0.83110052 0.15856546 1.8429002e-38
-1.3092238 0.83124101 0.1590129 1.8245345e-38
-1.2953335 0.8305403 0.16200969 1.8429004e-38
-1.2854705 0.83047509 0.16309008 1.6218474e-38
-1.2724864 0.83077794 0.16357067 1.6493982e-38
-1.2651176 0.82946771 0.16743435 1.8889266e-38
-1.2599013 0.82952541 0.16778244 2.018037e-38
-1.2490736 0.82954067 0.16875823 1.8982544e-38
-1.235445 0.82980192 0.16939981 1.8614838e-38
-1.225763 0.82996196 0.16991746 1.8798154e-38
-1.2180327 0.82922381 0.17242891 1.8613759e-38
-1.2092808 0.82937413 0.17288329 1.8521566e-38
-1.2021571 0.82905787 0.17431565 1.6679091e-38
-1.1923834 0.82927984 0.17469193 1.6680534e-38
-1.1808393 0.82818919 0.17841423 1.8337896e-38
-1.1749257 0.8283093 0.17867628 1.8430448e-38
-1.1675106 0.82825136 0.17951018 1.9170548e-38
-1.1642059 0.82835054 0.17957887 1.8436601e-38
-1.1623462 0.82843083 0.17955813 1.7607563e-38
-1.7489837 0.83644009 0.10528804 2.4896351e-39
-1.7393835 0.83649129 0.10606179 2.6726027e-39
-1.6215149 0.83430243 0.12238877 1.9258057e-38
-1.6073906 0.8334434 0.12579112 1.7875838e-38
-1.5948644 0.83360076 0.12658124 1.8059866e-38
-1.5756086 0.83354342 0.12852105 1.7783998e-38
-1.5641228 0.83192134 0.13352562 1.9256255e-38
-1.5520518 0.83195978 0.1345613 1.7783639e-38
-1.5390406 0.83218831 0.13522442 1.8244617e-38
-1.5231276 0.83238214 0.13624299 1.8244627e-38
-1.5100074 0.83228773 0.13769884 1.8336821e-38
-1.4958682 0.83248019 0.13855481 1.8612677e-38
-1.4893333 0.83163232 0.14122032 1.8244613e-38
-1.4800228 0.83178848 0.14171273 1.8243177e-38
-1.4522527 0.83034533 0.14780656 1.7690726e-38
-1.4392163 0.83053237 0.14857265 1.7875115e-38
-1.4282992 0.83045477 0.14978164 1.8059514e-38
-1.418887 0.83061284 0.1502789 1.7968039e-38
-1.406085 0.83054852 0.15163192 1.8337182e-38
-1.3930224 0.83005655 0.15404572 1.8245345e-38
-1.3842127 0.83017403 0.15458491 1.9626841e-38
-1.3734449 0.83028257 0.15532891 1.9350615e-38
-1.337471 0.82881021 0.16226086 1.8244972e-38
-1.3267496 0.82898915 0.16283004 1.8062392e-38
-1.317118 0.82915992 0.16331702 1.8337173e-38
-1.3076154 0.82932913 0.16379571 1.8336816e-38
-1.2937952 0.82864588 0.16674373 1.8428287e-38
-1.2857285 0.82880354 0.16711612 1.8245699e-38
-1.2738671 0.82899886 0.16775218 1.8430451e-38
-1.2492775 0.82766193 0.17329118 1.7324107e-38
-1.2433879 0.82792526 0.17320403 1.6862773e-38
-1.2335032 0.82794446 0.17408188 1.8614843e-38
-1.2266436 0.82781285 0.17504227 1.8890348e-38
-1.218135 0.82735103 0.17695716 1.8520487e-38
-1.2092155 0.82729292 0.1779321 1.8613764e-38
-1.2014027 0.82744187 0.17830193 1.8797795e-38
-1.1923215 0.82767832 0.17857821 1.8798162e-38
-1.1720761 0.82645994 0.18342376 2.0274367e-38
-1.1657963 0.82645375 0.18402611 1.8712829e-38
-1.1654723 0.8266893 0.18348552 1.622462e-38
-1.1634007 0.82662266 0.18384086 1.8068539e-38
-1.9886539 0.83762491 0.080002621 1.5207587e-38
-1.7329078 0.83376682 0.11326887 5.6051939e-45
-1.7325662 0.83344465 0.11408135 2.5814524e-39
-1.6223185 0.83191788 0.12809131 1.934989e-38
-1.6029469 0.83113682 0.13179557 1.7876196e-38
-1.5931439 0.83128721 0.1323479 1.7875486e-38
-1.5796937 0.83120787 0.13379808 1.75085e-38
-1.5393748 0.82994413 0.1406308 1.8152062e-38
-1.5293089 0.83009738 0.14120093 1.8336456e-38
-1.5169153 0.83001703 0.14255467 1.8246061e-38
-1.4995025 0.8302452 0.14363031 1.8245339e-38
-1.4871947 0.8296603 0.14619865 1.6402864e-38
-1.4823375 0.82934725 0.14741129 1.6216316e-38
-1.4776779 0.82961643 0.14719491 1.824318e-38
-1.4637671 0.82980835 0.14803089 1.805843e-38
-1.4285104 0.82838023 0.1547886 1.8150265e-38
-1.418703 0.82830644 0.15588441 1.8243543e-38
-1.4055356 0.82850611 0.15663223 1.8244619e-38
-1.3910235 0.82836592 0.15832897 1.6770208e-38
-1.3845433 0.82817811 0.15939014 1.852121e-38
-1.3734821 0.82855254 0.15951738 1.6862407e-38
-1.366081 0.82808411 0.16134453 1.6309592e-38
-1.3599179 0.82833242 0.16131935 1.8336094e-38
-1.3448818 0.82809138 0.1633095 1.6308873e-38
-1.340398 0.82718539 0.16592409 1.7784359e-38
-1.3294115 0.82695901 0.16750008 1.8061306e-38
-1.3180404 0.82721573 0.16794154 1.8244622e-38
-1.3041505 0.82744551 0.16868368 1.8244261e-38
-1.2955463 0.82666105 0.17138913 1.8337176e-38
-1.2857382 0.82709658 0.17125124 1.6495067e-38
-1.2814354 0.82684982 0.17225161 1.9259132e-38
-1.2692758 0.82687193 0.17333518 1.852121e-38
-1.2608458 0.82703704 0.17372352 1.86134e-38
-1.2532326 0.82714194 0.17418125 1.6954603e-38
-1.2463541 0.82604772 0.17747587 1.6862777e-38
-1.2375929 0.82625651 0.1777894 1.6771294e-38
-1.2251743 0.8259986 0.17957571 1.8798516e-38
-1.2179109 0.82587028 0.18056591 1.695424e-38
-1.2145441 0.82583022 0.18097793 1.842793e-38
-1.2038003 0.82554382 0.18267667 1.8614482e-38
-1.1960276 0.82572937 0.18295386 1.8798516e-38
-1.1849835 0.8259511 0.18344949 1.8614126e-38
-1.1771228 0.82589042 0.1843317 1.8430092e-38
-1.1678566 0.82486951 0.18767193 1.7144057e-38
-1.164052 0.82479542 0.1882074 1.8067823e-38
-1.1621934 0.82487857 0.18817967 1.7791962e-38
-1.1607103 0.82428944 0.18974587 1.6409736e-38
-1.6330336 0.82951385 0.13291417 1.5479462e-38
-1.6193312 0.82943797 0.13437946 1.815242e-38
-1.6042168 0.82885653 0.13720192 1.7691444e-38
-1.5928267 0.82876313 0.13849343 1.7875476e-38
-1.5540819 0.82934511 0.14070682 1.7966957e-38
-1.526855 0.82766926 0.14731374 1.8152419e-38
-1.5178049 0.82761693 0.14828695 1.667801e-38
-1.506704 0.82828075 0.14771658 1.6309948e-38
-1.4978098 0.82779771 0.14971897 1.7968751e-38
-1.4868258 0.82726395 0.15203942 1.8427923e-38
-1.4786482 0.82715774 0.15306154 1.8335378e-38
-1.464579 0.82737297 0.15385598 1.778328e-38
-1.4525969 0.82762814 0.15435816 1.7599607e-38
-1.4395654 0.82783878 0.15506649 1.7967313e-38
-1.4222717 0.82664686 0.15957184 1.6123409e-38
-1.4130353 0.82625997 0.16137305 1.7968033e-38
-1.3945435 0.82627708 0.16306113 1.6769857e-38
-1.392392 0.82697976 0.16155972 1.6401069e-38
-1.3798637 0.82592219 0.16529381 1.8429009e-38
-1.3676256 0.82613158 0.16593099 1.8520837e-38
-1.3578618 0.82606566 0.16700393 1.824462e-38
-1.349992 0.82622838 0.16734566 1.815279e-38
-1.340917 0.82619548 0.16827418 1.6769496e-38
-1.3230671 0.82535404 0.17198235 1.6309598e-38
-1.3119029 0.8252213 0.17334804 1.9534286e-38
-1.3010148 0.82527453 0.17423728 1.8337175e-38
-1.2901481 0.82482684 0.17633837 1.824534e-38
-1.2828928 0.82500011 0.17659697 1.6494695e-38
-1.2702123 0.82498735 0.17781384 1.8429374e-38
-1.2617159 0.82517159 0.1781621 1.852121e-38
-1.2547882 0.82532799 0.17843112 1.852265e-38
-1.2479767 0.82492691 0.18003985 1.7048241e-38
-1.2389323 0.82506055 0.18056194 1.7232625e-38
-1.231642 0.82395554 0.18392125 1.8890711e-38
-1.2219642 0.82415903 0.18433326 1.8705235e-38
-1.2112796 0.8243801 0.18479688 1.8613394e-38
-1.2032193 0.82390368 0.18670498 1.6955325e-38
-1.1958858 0.82387066 0.18747085 1.8522294e-38
-1.1862622 0.82403493 0.18797278 1.8152427e-38
-1.1801713 0.823955 0.18873616 1.6955686e-38
-1.174422 0.82412469 0.18886274 1.8521937e-38
-1.1691567 0.82426131 0.18902406 1.9355302e-38
-1.1671829 0.82283175 0.19267248 1.8897948e-38
-1.1623259 0.82282078 0.19315332 1.7792315e-38
-1.5680456 0.82692945 0.14525403 1.796803e-38
-1.5396802 0.82689065 0.1480009 1.7325189e-38
-1.5355624 0.8271057 0.14786491 1.6309229e-38
-1.5211145 0.82584101 0.15228054 1.6309239e-38
-1.5131903 0.82511306 0.15478545 1.6769853e-38
-1.5042326 0.82550949 0.15466265 1.8336098e-38
-1.4862485 0.82542664 0.15654528 1.64929e-38
-1.4777446 0.82504058 0.15827601 1.7966954e-38
-1.4633694 0.82530457 0.15898071 1.6584016e-38
-1.4566681 0.8253479 0.15950248 1.7874753e-38
-1.4460027 0.82554084 0.16003241 1.7966949e-38
-1.4343778 0.82575107 0.16061021 1.7691083e-38
-1.4182364 0.8254748 0.16278914 1.6768051e-38
-1.4143112 0.82452714 0.16545251 1.6217037e-38
-1.3985773 0.82483214 0.16618496 1.6309602e-38
-1.3891977 0.825082 0.16645667 1.658509e-38
-1.3832057 0.82401437 0.16960406 1.7046436e-38
-1.3735101 0.82393754 0.17069693 1.8428288e-38
-1.3622864 0.82389885 0.17184024 1.8336451e-38
-1.3526772 0.82410282 0.17224483 1.8152067e-38
-1.3440593 0.82428193 0.17261675 1.8428646e-38
-1.333516 0.82455182 0.17294882 1.8429004e-38
-1.31955 0.8243922 0.17464177 1.8244989e-38
-1.3136082 0.82367289 0.17694029 1.6586542e-38
-1.3061343 0.82352483 0.17799813 1.6401791e-38
-1.2956861 0.82311898 0.17995852 1.6954244e-38
-1.2848417 0.8229171 0.18146193 1.6954604e-38
-1.2787577 0.82287121 0.18214208 1.8521211e-38
-1.2650154 0.82313144 0.1827969 1.8706314e-38
-1.258231 0.82329684 0.18303041 1.8430452e-38
-1.2498759 0.82324272 0.18394303 1.870703e-38
-1.2387484 0.8234899 0.1843847 1.8983264e-38
-1.2345426 0.8223787 0.1874705 1.6863849e-38
-1.2211363 0.82269889 0.18794852 1.6493986e-38
-1.2130005 0.82247543 0.18925093 2.0088164e-38
-1.2076986 0.82305056 0.18835317 1.7969121e-38
-1.2055571 0.82182413 0.19152512 1.8705598e-38
-1.1939908 0.82207125 0.19200799 1.8614119e-38
-1.1831256 0.8223213 0.19241829 1.8429727e-38
-1.1780279 0.8222515 0.19306418 1.4927759e-38
-1.1708591 0.82242459 0.19331519 1.9355303e-38
-1.1678761 0.8222906 0.19391894 1.8068177e-38
-1.5479054 0.82473856 0.15244611 1.5848258e-38
-1.5370623 0.82487851 0.15312105 1.7968393e-38
-1.5264003 0.82432175 0.1554673 1.6677655e-38
-1.5128933 0.82390624 0.1577373 1.7598902e-38
-1.4960266 0.82394886 0.1592114 1.630816e-38
-1.4830074 0.8241716 0.15988934 1.6308518e-38
-1.4729708 0.82291305 0.16387749 1.7781839e-38
-1.4601293 0.82314026 0.16452789 1.7598166e-38
-1.4468616 0.82312691 0.16580099 1.7690723e-38
-1.4349618 0.82336664 0.16633311 1.778328e-38
-1.4279858 0.82378834 0.16596372 1.7413419e-38
-1.4147336 0.82346815 0.16797891 1.6860245e-38
-1.4047122 0.82321447 0.16953078 1.6770208e-38
-1.3960165 0.82315344 0.17049201 1.8520128e-38
-1.3869523 0.8223595 0.17326333 1.8427928e-38
-1.3698241 0.82226074 0.17510445 1.6769136e-38
-1.3634934 0.82188255 0.17661303 1.8336814e-38
-1.3531197 0.82210517 0.17704374 1.8152423e-38
-1.3422643 0.82233673 0.17749794 1.8335375e-38
-1.331964 0.82256591 0.17790593 1.8244261e-38
-1.3223279 0.82277977 0.17828879 1.8336453e-38
-1.3113924 0.82209456 0.1809718 1.8244977e-38
-1.3024788 0.8216818 0.18280552 1.6586178e-38
-1.2883415 0.82116294 0.18538497 1.8244264e-38
-1.2782998 0.82108861 0.18650429 1.6770576e-38
-1.2693362 0.82114363 0.18720917 1.8430455e-38
-1.2588304 0.82111973 0.1882496 1.861448e-38
-1.2516133 0.82130468 0.1884764 1.8523368e-38
-1.2413615 0.8216024 0.18871394 1.8339701e-38
-1.2318107 0.82148409 0.1898936 1.8798161e-38
-1.2227355 0.8212133 0.19139861 1.9720463e-38
-1.2117412 0.8211534 0.19257186 1.6771292e-38
-1.2001276 0.82041758 0.19544105 1.6955688e-38
-1.1955228 0.82036382 0.19600192 1.843082e-38
-1.1820186 0.82033646 0.19733112 1.8521206e-38
-1.1757348 0.82050633 0.19750719 1.8521923e-38
-1.172339 0.82063079 0.19752316 1.9355673e-38
-1.1701028 0.82048875 0.19807658 1.7883431e-38
-1.1682366 0.82057738 0.19803631 1.76994e-38
-1.8428659 0.82470435 0.12494355 1.364276e-38
-1.6536671 0.8235234 0.14549939 7.2862826e-39
-1.6140417 0.82306296 0.15032083 1.557239e-38
-1.6022633 0.82288772 0.15184693 1.5572385e-38
-1.5661603 0.82209754 0.15713814 1.6217397e-38
-1.54319 0.82239425 0.15856735 1.9165497e-38
-1.5319351 0.82241219 0.15957649 1.7968033e-38
-1.5179269 0.82267261 0.16025552 1.8152789e-38
-1.5060297 0.82216293 0.16260323 1.8335735e-38
-1.4925195 0.82215416 0.16388799 1.8059865e-38
-1.4836322 0.82234687 0.1642523 1.7966944e-38
-1.472216 0.8207947 0.16908084 1.7782192e-38
-1.460658 0.82094532 0.16979662 1.8704159e-38
-1.447877 0.82108575 0.17065181 1.5847531e-38
-1.4394864 0.82118434 0.17119765 1.7506699e-38
-1.4284751 0.82134014 0.17184994 1.7599249e-38
-1.4177526 0.82162213 0.17216952 1.8520122e-38
-1.4078877 0.82151997 0.17333959 1.8152425e-38
-1.3963089 0.82106489 0.1755251 1.8520478e-38
-1.3888079 0.82077181 0.17693681 1.6585103e-38
-1.379688 0.82102638 0.17717279 1.6677304e-38
-1.3625429 0.81991714 0.18146411 1.8244612e-38
-1.3540151 0.82011634 0.18177888 1.8520124e-38
-1.3414626 0.82037789 0.18231909 1.8335735e-38
-1.3297241 0.82034421 0.18349849 1.8336812e-38
-1.318995 0.82060277 0.18387538 1.8244261e-38
-1.3107858 0.81986976 0.18641928 1.7969474e-38
-1.3044271 0.82004315 0.18659385 1.8429739e-38
-1.2912438 0.82014102 0.18758963 1.6493621e-38
-1.2788645 0.82009125 0.18886799 1.6495065e-38
-1.2698596 0.81917691 0.19192563 1.9996687e-38
-1.2597735 0.81923038 0.19273917 1.8613757e-38
-1.2517117 0.81944513 0.1929729 1.861484e-38
-1.2386467 0.81976032 0.19343106 1.9075461e-38
-1.2275749 0.8200441 0.19377898 1.8797432e-38
-1.2215673 0.81927091 0.19621423 1.879743e-38
-1.2140094 0.81922048 0.19704333 1.852193e-38
-1.205683 0.81919855 0.19787516 1.6677655e-38
-1.19353 0.81961989 0.19799082 1.6954953e-38
-1.18494 0.81845373 0.20161964 1.8520844e-38
-1.1796074 0.81865686 0.20162632 1.8522646e-38
-1.1761806 0.81849027 0.20235035 1.8895773e-38
-1.1734837 0.8183763 0.20287868 1.6592692e-38
-1.1727954 0.8187409 0.20205979 1.6132072e-38
-1.8418907 0.82520139 0.12383045 1.4375648e-38
-1.840156 0.82390016 0.1271456 1.2995971e-38
-1.8308002 0.82259148 0.13119131 6.1792484e-39
-1.8239024 0.82224274 0.13268155 8.388338e-39
-1.6237808 0.82117867 0.1539757 1.5665306e-38
-1.5725087 0.81962657 0.16253148 1.7507055e-38
-1.5613439 0.81986493 0.16299811 1.7967666e-38
-1.5437502 0.82026869 0.16366522 1.7968035e-38
-1.5353864 0.82011741 0.16481397 1.806023e-38
-1.5170113 0.82051229 0.16557568 1.8152422e-38
-1.5034871 0.81976616 0.16864845 1.7876195e-38
-1.4949671 0.81997484 0.16893955 1.7875479e-38
-1.4802092 0.82027662 0.16958848 1.759781e-38
-1.4621116 0.81868422 0.17513944 1.8520125e-38
-1.4447083 0.81892431 0.17618528 1.7690722e-38
-1.4263686 0.8193047 0.17697887 1.7967675e-38
-1.4178036 0.81945503 0.17741562 1.9350245e-38
-1.4050096 0.81952715 0.17843741 1.7968747e-38
-1.3975031 0.81900924 0.18039428 1.8428647e-38
-1.3893925 0.81920993 0.18066654 1.8520838e-38
-1.3777066 0.8192206 0.18173362 1.8336814e-38
-1.3542794 0.81800634 0.18686666 1.9443161e-38
-1.3404337 0.81826997 0.1875228 1.935025e-38
-1.3298327 0.81839156 0.18821958 1.8428288e-38
-1.3191178 0.81866485 0.1885595 1.8336454e-38
-1.3085266 0.81826872 0.1905099 1.6678375e-38
-1.3008888 0.81818932 0.19141656 1.7968754e-38
-1.2883064 0.81849277 0.19185799 1.8336819e-38
-1.2817938 0.81859356 0.19222292 1.9720831e-38
-1.2498544 0.81757337 0.19768202 1.8982545e-38
-1.2416431 0.81756163 0.19847836 1.8798876e-38
-1.2307799 0.81785095 0.1987932 1.8889631e-38
-1.2208321 0.81746894 0.20064917 1.888999e-38
-1.2132648 0.81742591 0.20146118 1.8337537e-38
-1.2041628 0.81766987 0.20172125 1.8337532e-38
-1.1947739 0.81792194 0.20198849 1.8429379e-38
-1.1800983 0.81690437 0.20582666 1.935386e-38
-1.176605 0.8170144 0.20588672 1.7974902e-38
-1.1738898 0.81678253 0.20670249 1.7975987e-38
-1.8259118 0.82145315 0.13440685 5.0718218e-39
-1.8266088 0.82147729 0.13428316 6.4519102e-39
-1.5426097 0.81773371 0.16991419 1.7968036e-38
-1.5318063 0.81798184 0.17032325 1.8151707e-38
-1.5205961 0.81821984 0.17079492 1.7875838e-38
-1.5059357 0.81749737 0.17391656 1.7967672e-38
-1.497761 0.81771111 0.17416325 1.7691802e-38
-1.4808202 0.81773931 0.17567939 1.7689283e-38
-1.4685358 0.81807983 0.17600305 1.741378e-38
-1.4294662 0.81718844 0.18181671 1.8150977e-38
-1.4180297 0.81745541 0.18223961 1.8243897e-38
-1.4083884 0.81742918 0.18320474 1.8060583e-38
-1.3966222 0.81735516 0.18448451 1.6402517e-38
-1.3880469 0.81695306 0.18626074 1.815278e-38
-1.3772699 0.81728506 0.18646419 1.6678015e-38
-1.3793166 0.81703299 0.1868837 1.7874764e-38
-1.3638464 0.81747097 0.1872692 1.8336094e-38
-1.3326769 0.81632048 0.19297183 1.8612673e-38
-1.31949 0.81665742 0.19338863 1.8336456e-38
-1.3135411 0.81678486 0.19363618 1.9719029e-38
-1.3018413 0.81645435 0.19553131 1.6954236e-38
-1.2946872 0.81640816 0.19631231 1.8521201e-38
-1.2813238 0.81685603 0.19647682 1.6770569e-38
-1.2764217 0.81645328 0.19791113 1.6954965e-38
-1.2658719 0.81685847 0.19791602 1.8706677e-38
-1.2538239 0.81711841 0.198413 1.7139713e-38
-1.2472746 0.81600857 0.2017148 1.7323384e-38
-1.2401549 0.81590867 0.20262261 1.6955325e-38
-1.2325708 0.8159641 0.20319755 1.8890352e-38
-1.2266027 0.81586832 0.2039877 1.7139717e-38
-1.2186849 0.81557643 0.20543545 1.6770929e-38
-1.2093567 0.81599224 0.20530048 1.8336091e-38
-1.1980381 0.81594658 0.20646948 1.852084e-38
-1.1877228 0.81628257 0.20662019 1.7968029e-38
-1.1785165 0.81611681 0.20788279 1.6217038e-38
-1.1795321 0.81609058 0.2078514 1.7138647e-38
-1.1744794 0.81620741 0.20804092 1.7145506e-38
-1.1737422 0.8148936 0.21129316 1.6224629e-38
-1.1748747 0.8149069 0.21115512 1.9266727e-38
-1.8212711 0.81915808 0.14040172 8.6638557e-39
-1.8198675 0.81926507 0.14027376 8.0191869e-39
-1.5843879 0.81675267 0.16838402 1.7874747e-38
-1.5701793 0.81677157 0.16966701 1.7599964e-38
-1.5592265 0.81703079 0.17006324 1.7875109e-38
-1.5309968 0.81580281 0.17567882 1.8059507e-38
-1.5202754 0.81576681 0.17676868 1.7968035e-38
-1.5047224 0.81530726 0.17933674 1.7968025e-38
-1.4976732 0.81545359 0.17964143 1.8980743e-38
-1.4809625 0.815606 0.18083495 1.7598163e-38
-1.471926 0.81583869 0.18111624 1.7690003e-38
-1.4590887 0.81613553 0.18159769 1.7690362e-38
-1.4499545 0.81608844 0.18256603 1.7782912e-38
-1.4184072 0.81560516 0.18668734 1.7600686e-38
-1.4083184 0.81532717 0.18830438 1.8245331e-38
-1.3999319 0.81514829 0.18952227 1.7417385e-38
-1.3945866 0.81603628 0.18787046 1.6585456e-38
-1.3867747 0.81490874 0.19133304 1.8244257e-38
-1.3736356 0.81522995 0.19178358 1.8428287e-38
-1.3635163 0.81521976 0.19275476 1.8336096e-38
-1.3538836 0.81548744 0.1930069 1.8152418e-38
-1.3414723 0.81578755 0.19344059 1.8153141e-38
-1.3250507 0.81474924 0.19749214 1.6493984e-38
-1.3193666 0.81472403 0.1980848 1.8153148e-38
-1.3094542 0.81467056 0.19914143 1.8153864e-38
-1.2973064 0.8153699 0.19858302 1.6585465e-38
-1.2897524 0.81429434 0.20189571 1.8337173e-38
-1.2811409 0.81453961 0.2021067 1.8797069e-38
-1.2686461 0.81487399 0.20246506 1.8614124e-38
-1.2600746 0.81510317 0.20271131 1.8707398e-38
-1.2539434 0.81475753 0.2041222 1.7139359e-38
-1.2405621 0.81507146 0.20461294 1.713972e-38
-1.2427064 0.81420285 0.20651716 1.8429732e-38
-1.2300119 0.81411707 0.20791219 1.8798509e-38
-1.2239733 0.81427109 0.20810385 1.9994534e-38
-1.2090572 0.81508911 0.2075167 1.6677297e-38
-1.2071868 0.81383574 0.21072848 1.8335734e-38
-1.1963552 0.81415552 0.21096674 1.8059862e-38
-1.1885165 0.81439298 0.21112444 1.8059869e-38
-1.1789973 0.81440717 0.21198039 1.8521571e-38
-1.1763291 0.81452692 0.21193966 1.9173084e-38
-1.1713338 0.81354129 0.21479519 1.6316463e-38
-1.8241429 0.81650829 0.14655365 1.0047516e-38
-1.5864537 0.81410885 0.17459674 1.7598889e-38
-1.5728742 0.81442767 0.17509426 1.7691093e-38
-1.558131 0.81482875 0.1755013 1.7783278e-38
-1.5421042 0.81519312 0.1761173 1.8059507e-38
-1.5298487 0.81397337 0.18021885 1.6309948e-38
-1.503945 0.81354427 0.18368115 1.6125207e-38
-1.4926683 0.81378317 0.184157 1.630779e-38
-1.4823009 0.81344348 0.18594959 1.7598523e-38
-1.472295 0.81370014 0.18626359 1.7414858e-38
-1.4602453 0.81400496 0.18665197 1.7782201e-38
-1.4512722 0.81396216 0.1875948 1.7783278e-38
-1.434186 0.81436396 0.18821917 1.7783638e-38
-1.4222605 0.81432581 0.1894269 1.6584736e-38
-1.415269 0.8133406 0.19246787 1.6033721e-38
-1.4053631 0.81375909 0.19238031 1.6401778e-38
-1.3957415 0.81406629 0.19253586 1.6584737e-38
-1.392316 0.81291902 0.19563593 1.6586182e-38
-1.3790369 0.8130011 0.19667898 1.9901259e-38
-1.3698883 0.81298316 0.1975781 1.6493623e-38
-1.3592868 0.81326675 0.1978824 1.8152779e-38
-1.3500589 0.81352693 0.19811502 1.7876917e-38
-1.3384801 0.81382096 0.1984854 1.8520124e-38
-1.3250746 0.81355315 0.20038806 1.6769491e-38
-1.3230536 0.81294417 0.20205255 1.7600702e-38
-1.3078287 0.81310117 0.20309608 1.6678015e-38
-1.3012692 0.81267822 0.20473446 1.6678015e-38
-1.2960937 0.81260335 0.20539972 1.7785084e-38
-1.285463 0.81243074 0.20681226 1.8521564e-38
-1.2755661 0.81271988 0.20703717 1.8614482e-38
-1.2683644 0.81267834 0.20781142 1.8707043e-38
-1.2578267 0.81296563 0.20810093 1.8614842e-38
-1.2473058 0.81333065 0.20820022 1.870632e-38
-1.2345302 0.81343013 0.20915417 1.7048234e-38
-1.2273034 0.81270593 0.21158469 1.6771661e-38
-1.2153466 0.81310296 0.21174094 1.6861679e-38
-1.2192154 0.81197149 0.21412063 1.7228312e-38
-1.2079989 0.81226134 0.21446736 1.6493986e-38
-1.1951507 0.81213099 0.21598472 1.8243536e-38
-1.1887513 0.81235832 0.21603251 1.8428288e-38
-1.181613 0.8125791 0.21616507 1.8799239e-38
-1.1777359 0.81272608 0.21617153 1.8988694e-38
-1.1768631 0.81273228 0.2162381 1.8989779e-38
-1.1739502 0.81203699 0.21819527 1.8343686e-38
-1.8168731 0.81400472 0.15329969 1.3460563e-38
-1.822233 0.81392503 0.15299146 1.4473624e-38
-1.5842516 0.81189466 0.18016766 1.7506333e-38
-1.5718526 0.81220454 0.18057644 1.7782926e-38
-1.5558012 0.81259239 0.18113777 1.7783635e-38
-1.5482619 0.81253171 0.18199 1.8152423e-38
-1.5391067 0.81303 0.18163881 1.7783282e-38
-1.5257881 0.81255561 0.18403387 1.621776e-38
-1.5169665 0.81226575 0.18556127 1.6124482e-38
-1.5042646 0.81219482 0.18692103 1.6124126e-38
-1.491701 0.81256795 0.18719195 1.5755341e-38
-1.4790426 0.81129885 0.19145079 1.7230821e-38
-1.4576949 0.81159377 0.19273265 1.7875113e-38
-1.4433814 0.81197953 0.19313666 1.7599245e-38
-1.4292101 0.81244963 0.19332297 1.5848974e-38
-1.425106 0.81176525 0.19536494 1.630852e-38
-1.4104333 0.81208545 0.19596143 1.6585823e-38
-1.4035362 0.81202447 0.19675413 1.8337176e-38
-1.3964674 0.81185246 0.19783205 1.8335384e-38
-1.3814976 0.81121045 0.20078751 1.6492189e-38
-1.3723685 0.81091553 0.202356 1.8151704e-38
-1.3605253 0.81124318 0.20266967 1.8060226e-38
-1.3501314 0.81155282 0.2028915 1.8060941e-38
-1.3381002 0.81159824 0.20390658 1.8152423e-38
-1.3319025 0.81212461 0.20321083 1.8244622e-38
-1.322189 0.81166577 0.20523109 1.6585819e-38
-1.3137869 0.81186444 0.2055355 1.6678375e-38
-1.3057173 0.81123722 0.20780982 1.658582e-38
-1.2932508 0.81164432 0.20798945 1.6585104e-38
-1.2851083 0.81072658 0.2109746 1.6770217e-38
-1.2756243 0.81083363 0.21160221 1.8521559e-38
-1.2664663 0.8108446 0.21243201 1.879887e-38
-1.2570503 0.81112629 0.2126302 1.898326e-38
-1.2465813 0.81144732 0.21283142 1.9166212e-38
-1.2396621 0.81181532 0.21258694 1.6678743e-38
-1.2346349 0.81157655 0.21363559 1.7323743e-38
-1.2285173 0.81105095 0.21548121 1.8982901e-38
-1.2164719 0.81080794 0.21719645 1.6676922e-38
-1.2076097 0.81112945 0.21724638 1.6493256e-38
-1.1994179 0.81033337 0.21994138 1.9534992e-38
-1.1931255 0.81050742 0.22010806 1.9626837e-38
-1.1850036 0.81066555 0.22048442 1.9076916e-38
-1.1797611 0.8109026 0.22040045 1.8988333e-38
-1.1806817 0.8107987 0.22056614 1.8897224e-38
-1.8185112 0.81156373 0.15906094 1.3643878e-38
-1.5762658 0.80991286 0.18571644 1.6492543e-38
-1.5569501 0.81029528 0.18659623 1.7783278e-38
-1.5425572 0.81064308 0.18709965 1.7967312e-38
-1.5290689 0.81070638 0.18820776 1.7507774e-38
-1.5223899 0.81051576 0.18929431 1.6216316e-38
-1.5025671 0.81033754 0.19157989 1.7781834e-38
-1.4896157 0.81067592 0.1919713 1.7781834e-38
-1.4739263 0.80952662 0.19622341 1.5847888e-38
-1.4673154 0.8092137 0.19759986 1.7506692e-38
-1.4547585 0.8096599 0.19769293 1.5848971e-38
-1.4483141 0.80971968 0.19815086 1.7415222e-38
-1.4401128 0.80991745 0.19843872 1.7875115e-38
-1.4304069 0.81016529 0.19874601 1.8980745e-38
-1.4191755 0.81041354 0.19919473 1.9075097e-38
-1.4047093 0.80989718 0.2017989 1.8244261e-38
-1.3913776 0.8103345 0.20198597 1.8336458e-38
-1.3846687 0.80998325 0.20346461 1.667765e-38
-1.3587046 0.80925089 0.20766722 1.8060944e-38
-1.3484399 0.80929434 0.20852202 1.8245338e-38
-1.3369886 0.80961919 0.20880577 1.8245335e-38
-1.3240054 0.81000668 0.20908119 1.8521194e-38
-1.3153495 0.81027818 0.20923284 1.8336451e-38
-1.3053452 0.80963331 0.21173085 1.824534e-38
-1.2945712 0.80995834 0.21195106 1.8613398e-38
-1.2884872 0.80993533 0.21257579 1.8337537e-38
-1.2692535 0.80889356 0.21689877 1.8890347e-38
-1.2551745 0.80927384 0.21729407 1.8705958e-38
-1.2455131 0.80958301 0.2174485 1.9072933e-38
-1.2367162 0.80960554 0.21821672 1.8890706e-38
-1.2275417 0.80925649 0.2199204 1.861304e-38
-1.2174134 0.80931687 0.22072132 1.852012e-38
-1.2083843 0.80960727 0.22086218 1.7969108e-38
-1.1840414 0.8089754 0.22466977 1.7233726e-38
-1.1815561 0.80913705 0.22451051 1.7697227e-38
-1.1840553 0.80883938 0.22499795 2.0093966e-38
-1.1801049 0.80892998 0.2251479 1.8989414e-38
-1.8153619 0.80880034 0.16605113 9.4035353e-39
-1.5797173 0.8092249 0.18706051 1.5754984e-38
-1.578984 0.80738127 0.1915963 1.7873314e-38
-1.564999 0.80745178 0.19273344 1.7598169e-38
-1.5538327 0.80777448 0.19299564 1.8152062e-38
-1.5343789 0.80834353 0.19343637 1.7968388e-38
-1.5264288 0.8085801 0.1936067 1.8059134e-38
-1.5174762 0.80773306 0.19649617 1.7875113e-38
-1.5036213 0.80816454 0.19674645 1.7506681e-38
-1.4903467 0.80823195 0.19782463 1.7413776e-38
-1.4629852 0.80715483 0.20299339 1.7691088e-38
-1.448686 0.80757082 0.20332281 1.7691805e-38
-1.4401807 0.80783761 0.20347184 1.8335012e-38
-1.4288623 0.80816174 0.20374505 1.7875836e-38
-1.4159559 0.8085385 0.20403907 1.7968392e-38
-1.4044696 0.80757737 0.20744206 1.8152067e-38
-1.392086 0.8079468 0.20770514 1.8152786e-38
-1.3827169 0.80825025 0.20784613 1.8520132e-38
-1.3729821 0.80854213 0.2080493 1.8244619e-38
-1.3476284 0.80728519 0.21346602 1.815243e-38
-1.3380767 0.8075766 0.21365313 1.8152785e-38
-1.3269441 0.80793023 0.21383767 1.8520844e-38
-1.3153753 0.80834919 0.21390432 1.8520127e-38
-1.3047941 0.80766481 0.21655215 1.8153508e-38
-1.2929027 0.80809504 0.2166218 1.8337536e-38
-1.2850872 0.80834985 0.21673532 1.8429016e-38
-1.276059 0.80832541 0.21763891 1.8613045e-38
-1.2735919 0.80673534 0.22172247 1.8705598e-38
-1.26658 0.80705303 0.22160843 1.8798509e-38
-1.256865 0.80736864 0.22175224 1.8889628e-38
-1.2470384 0.80736291 0.22268519 1.8797074e-38
-1.2360953 0.80778897 0.22267626 1.8798511e-38
-1.2275517 0.80742782 0.22435036 1.8520841e-38
-1.2166345 0.80752724 0.22513033 1.8337177e-38
-1.2059597 0.80788207 0.22526902 1.8060583e-38
-1.1986532 0.80813569 0.22533774 1.8152059e-38
-1.192518 0.80836189 0.22536361 1.8889627e-38
-1.1917871 0.80682498 0.22915581 1.8983261e-38
-1.1886243 0.80696452 0.22911358 1.9079442e-38
-1.1837333 0.80716133 0.229094 1.8067455e-38
-1.1814445 0.80700624 0.22968382 1.7883423e-38
-1.6042827 0.80627561 0.19190937 1.5663504e-38
-1.5785643 0.80483317 0.19780949 1.7874033e-38
-1.5397358 0.80594701 0.19874215 1.7875828e-38
-1.5282054 0.80600035 0.19969124 1.8058786e-38
-1.503382 0.80596042 0.20210952 1.7690002e-38
-1.4831923 0.80622655 0.20335287 1.7414857e-38
-1.4743257 0.8065058 0.20350547 1.7505972e-38
-1.4633448 0.80498314 0.20822175 1.787511e-38
-1.4487309 0.8054812 0.20838176 1.7782915e-38
-1.4410759 0.80537063 0.20936564 1.7966947e-38
-1.4284294 0.80581415 0.20947377 1.8058779e-38
-1.4175122 0.80614173 0.209701 1.815242e-38
-1.4064928 0.80548555 0.21232152 1.8335375e-38
-1.3911233 0.80595428 0.21262303 1.8059863e-38
-1.3806356 0.80625165 0.21288338 1.8151341e-38
-1.3674735 0.80635709 0.21385881 1.7968391e-38
-1.3556341 0.80672884 0.21406534 1.824354e-38
-1.348491 0.80529636 0.21820436 1.8060234e-38
-1.051585 0.9535346 -0.11320928 1.7141887e-38
-1.0554751 0.95198244 -0.10981219 1.7050414e-38
-1.055411 0.95237094 -0.11074763 1.5849714e-38
-1.6103437 0.99265105 -0.26024485 2.7766169e-40
-1.0637927 0.95076358 -0.10763677 1.7326637e-38
-1.1946303 0.95831507 -0.13817042 2.397787e-39
-1.6168715 0.98784208 -0.24920332 1.1031022e-39
-1.6687843 0.97207695 -0.21585949 1.0761972e-42
-1.6174542 0.96970832 -0.20531979 1.4758349e-39
-1.6749096 0.96994704 -0.2112716 1.4349296e-42
-1.6602014 0.96652055 -0.20159358 1.8403e-39
-1.614233 0.96112549 -0.18422237 2.213051e-39
-1.855273 0.9603349 -0.20484942 1.4747317e-38
-1.7839057 0.95715916 -0.19048019 2.6718572e-39
-1.0875667 0.91523749 -0.023780413 1.7970205e-38
-1.8256624 0.92958683 -0.1275775 6.3604153e-39
-1.659234 0.92308772 -0.096265405 7.3756784e-40
-1.8847313 0.92907476 -0.13186108 6.2653316e-39
-1.860563 0.92820531 -0.1274942 6.1760226e-39
-1.8303211 0.92705446 -0.12187751 6.5444282e-39
-1.819626 0.92591929 -0.11812656 5.8097316e-39
-1.8207134 0.92622751 -0.11897515 5.2554914e-39
-1.6555181 0.91936386 -0.086895071 9.2338142e-40
-1.6431046 0.91649789 -0.078789957 2.7658689e-39
-1.9022292 0.92107588 -0.11411633 1.0230816e-38
-1.6876519 0.90992415 -0.067027867 2.7658549e-40
-1.6597559 0.90923631 -0.062752262 1.660222e-39
-1.6582906 0.90977818 -0.063928187 3.9611485e-39
-1.6652211 0.90436041 -0.051449109 8.333578e-40
-1.1191969 0.87200886 0.078004241 2.0555294e-38
-1.9508069 0.88616848 -0.034078933 1.8986166e-38
-1.7195255 0.85747349 0.057079066 1.6584367e-39
-1.8250101 0.85309654 0.057819236 4.4199644e-39
-1.7719475 0.85201663 0.06539847 5.0707582e-39
-1.8587123 0.85038579 0.06123545 5.6210552e-39
-1.8410209 0.85043222 0.062777564 4.7905616e-39
-1.8223264 0.85051054 0.064336121 2.9506203e-39
-1.8248345 0.81885606 0.14080039 7.9291759e-39
-1.8018827 0.81685573 0.14779368 1.1706307e-38
-1.8083266 0.81624323 0.14867504 1.1608331e-38
-1.8311597 0.8080672 0.16635011 1.1900785e-38
-1.8323007 0.80816144 0.16601504 1.2176278e-38
-1.8368539 0.8048138 0.17370062 4.7145524e-39
-1.8296616 0.80523092 0.17336254 5.3613525e-39
-1.8703089 0.80144101 0.17874406 7.6547302e-39
-1.8618973 0.80170768 0.17888463 7.1051549e-39
-1.853115 0.80160105 0.17996421 6.1853426e-39
-1.5886382 0.80411136 0.19861631 1.9441347e-38
-1.5928059 0.80161488 0.20427562 1.9348807e-38
-1.5782101 0.80220228 0.20421736 1.9348082e-38
-1.5667932 0.80262697 0.20425603 1.934952e-38
-1.5557561 0.80303884 0.2042903 1.9625388e-38
-1.5265293 0.80369288 0.20543891 1.9073654e-38
-1.5141785 0.80322522 0.20772712 1.8613037e-38
-1.5015461 0.80368751 0.20778836 1.8887099e-38
-1.4870185 0.80418777 0.20793501 1.8705228e-38
-1.4773625 0.8042044 0.20879771 1.8980738e-38
-1.5794809 0.7997781 0.20997226 1.9349872e-38
-1.5692946 0.80019218 0.20992169 1.9441716e-38
-1.5551733 0.80077714 0.20982504 1.9533187e-38
-1.525974 0.80146635 0.21088578 1.8797425e-38
-1.5115373 0.80060333 0.21432698 1.8980739e-38
-1.497641 0.80120444 0.21417013 1.9071121e-38
-1.4831147 0.80172843 0.21425909 1.870487e-38
-1.4740462 0.80210936 0.21418414 1.907257e-38
-1.4593886 0.80227238 0.21515997 1.9533904e-38
-1.4467219 0.80274153 0.21520795 1.9349159e-38
-1.4365079 0.80314404 0.21518768 1.9348804e-38
-1.4244795 0.80360323 0.21520022 1.9257686e-38
-1.4171065 0.80393887 0.21507637 1.9350961e-38
-1.4051487 0.80314535 0.21811746 1.9718298e-38
-1.3877343 0.8038457 0.2180492 1.9902327e-38
-1.3749943 0.80432957 0.21806815 1.9626822e-38
-1.367659 0.80429 0.21885006 1.9535345e-38
-1.3547872 0.80477506 0.21887861 1.9810494e-38
-1.3373134 0.8055017 0.21875216 1.9810857e-38
-1.3252383 0.80595011 0.21879505 1.9995248e-38
-1.3141681 0.80636227 0.21883158 2.0178202e-38
-1.3044809 0.8056044 0.2215739 2.0088889e-38
-1.293484 0.80568254 0.22241299 1.9996334e-38
-1.2833772 0.80607796 0.22240016 1.9903424e-38
-1.5788977 0.79748881 0.21557379 1.8797064e-38
-1.5681 0.79753667 0.21646754 1.9349517e-38
-1.5555803 0.79801601 0.21647704 1.9073298e-38
-1.5397513 0.79860824 0.21652238 1.9165489e-38
-1.5234402 0.79789233 0.21978256 1.9072926e-38
-1.5109835 0.79839385 0.21973237 1.8981088e-38
-1.4987273 0.79888171 0.21969646 1.8794906e-38
-1.4825608 0.79955548 0.21957591 1.8703786e-38
-1.4721112 0.79952312 0.22063158 1.9164399e-38
-1.4576055 0.80015612 0.22045444 1.9349522e-38
-1.4461769 0.80061263 0.22041708 1.9165488e-38
-1.4359617 0.80102783 0.22036643 1.9440996e-38
-1.4266639 0.80141526 0.22029725 1.9258046e-38
-1.4156309 0.80062938 0.22323336 1.9718663e-38
-1.4006803 0.80118376 0.22328836 1.9533917e-38
-1.3915024 0.80157799 0.22319144 1.9532835e-38
-1.3782326 0.80209506 0.2231795 1.9719019e-38
-1.3661215 0.8022036 0.22404929 1.9810858e-38
-1.3558596 0.80263424 0.2239655 1.9809778e-38
-1.3453532 0.80314362 0.22371382 1.9443523e-38
-1.3344618 0.80358177 0.22367072 1.9903048e-38
-1.3282391 0.80374324 0.22386159 2.2022473e-38
-1.3179389 0.80336547 0.22574015 1.8610866e-38
-1.3004117 0.80339873 0.22729875 1.9811939e-38
-1.2909552 0.80379564 0.22722156 1.9627552e-38
-1.2838804 0.80412209 0.22709206 1.9996334e-38
-1.2735007 0.80454636 0.22703487 2.027256e-38
-1.2661278 0.80487907 0.22691825 2.0181799e-38
-1.2552857 0.80498648 0.22767183 2.0455506e-38
-1.2474856 0.80532724 0.22757582 2.0547706e-38
-1.236534 0.80575883 0.22755428 1.9903779e-38
-1.2281317 0.80572057 0.22843271 1.8980013e-38
-1.2088498 0.80575353 0.23015618 1.9350951e-38
-1.2012929 0.80608505 0.23005956 1.9716852e-38
-1.5776682 0.79481876 0.22215825 1.9072932e-38
-1.5647377 0.79535037 0.22207938 1.9348074e-38
-1.5490568 0.7959376 0.22212316 1.9256601e-38
-1.5363542 0.79644841 0.22207342 1.8981101e-38
-1.501989 0.79650396 0.22515275 1.8703778e-38
-1.487365 0.79708624 0.22510959 1.8888175e-38
-1.4777151 0.79710126 0.22597557 1.9072216e-38
-1.4610817 0.79773998 0.22598366 1.9441354e-38
-1.4518617 0.79814762 0.2258582 1.9441714e-38
-1.4391996 0.79864955 0.22582619 1.944136e-38
-1.4269743 0.79914635 0.22576573 1.9718653e-38
-1.4167848 0.79934108 0.22624695 1.8152053e-38
-1.4114783 0.79861808 0.22849511 1.9719026e-38
-1.3962948 0.79882866 0.22940479 1.962647e-38
-1.3831005 0.79937428 0.22931679 1.9717944e-38
-1.3728175 0.79982263 0.22919208 1.9350247e-38
-1.3586251 0.8004443 0.229013 1.9441357e-38
-1.3505263 0.80081284 0.22887753 1.9350969e-38
-1.3380619 0.80096173 0.22968249 1.9625741e-38
-1.3302158 0.80132353 0.2295396 1.9902688e-38
-1.3184921 0.80179685 0.22948924 1.9718659e-38
-1.3094665 0.80218422 0.22939473 1.9627553e-38
-1.2970561 0.80150592 0.23219895 1.9902693e-38
-1.287606 0.80191541 0.23209041 1.9812302e-38
-1.2782426 0.80233014 0.23196131 2.0181079e-38
-1.2724025 0.80257106 0.23192373 2.2483813e-38
-1.261835 0.80296165 0.23196553 2.2576369e-38
-1.2492386 0.80323786 0.23247428 2.0455868e-38
-1.2422571 0.80356836 0.23232646 2.0178556e-38
