# .PCD v0.7 - Point Cloud Data file format
VERSION 0.7
FIELDS x y z rgb
SIZE 4 4 4 4
TYPE F F F F
COUNT 1 1 1 1
WIDTH 987
HEIGHT 1
VIEWPOINT 0 0 0 1 0 0 0
POINTS 987
DATA ascii
-0.81867337 0.98792678 -0.32568651 1.7491834e-39
-0.81863123 0.99235529 -0.32308781 2.02505e-39
-0.81731659 0.9953205 -0.32081413 1.2885696e-39
-0.81909502 1.0012245 -0.31811056 1.1041797e-39
-0.82252514 1.0091481 -0.31491497 1.1045413e-39
-0.82156491 1.0128342 -0.31236812 1.0130645e-39
-0.83714646 1.0577832 -0.29263216 0
-0.83572996 1.0605867 -0.29041061 1.4718805e-39
-0.83592838 1.0654646 -0.28764969 1.1048958e-39
-0.84284604 1.0904768 -0.27594042 3.6805945e-40
-0.84493756 1.0972887 -0.27283758 3.6805945e-40
-0.84360188 1.1009427 -0.27015367 5.5208917e-40
-0.84405702 1.1062651 -0.2672402 2.7550649e-40
-0.83893186 1.1066391 -0.26489618 0
-0.83940601 1.111709 -0.26213774 7.3468397e-40
-0.8362872 1.1136745 -0.25969839 8.268782e-40
-0.83692342 1.1192136 -0.25673378 9.1907243e-40
-0.84483218 1.1461666 -0.24430433 0
-0.76946348 0.67720425 -0.48638448 1.1235932e-38
-0.77165443 0.68192804 -0.48453996 1.1421042e-38
-0.77148932 0.68539423 -0.48245111 1.197351e-38
-0.77198094 0.69320005 -0.47810528 1.0127803e-38
-0.77581906 0.69858444 -0.47655901 1.0406533e-38
-0.77579713 0.70295113 -0.47400472 1.0406536e-38
-0.77776819 0.70700872 -0.47245732 1.003703e-38
-0.77443337 0.70952803 -0.46960551 1.0037748e-38
-0.77557373 0.71381164 -0.46758178 1.0129953e-38
-0.77702963 0.71840388 -0.46550903 1.031398e-38
-0.77682966 0.72194499 -0.46336204 1.0590561e-38
-0.78494686 0.73042679 -0.46178541 1.1047948e-38
-0.78463203 0.73394245 -0.45960563 1.1324175e-38
-0.78287017 0.73661208 -0.45731872 1.1140495e-38
-0.78111082 0.73927855 -0.4550347 1.0680953e-38
-0.77951437 0.74214184 -0.45270354 9.8529947e-39
-0.77581412 0.74361777 -0.45030835 7.5459474e-39
-0.75348073 0.74099237 -0.44257426 1.6956074e-38
-0.75150722 0.74711466 -0.43818709 1.3817782e-38
-0.75014323 0.75072044 -0.43551961 1.4187644e-38
-0.75107855 0.7542789 -0.43383345 1.372738e-38
-0.7531172 0.76006895 -0.43130431 1.3820656e-38
-0.75360179 0.76408684 -0.4291634 1.4003254e-38
-0.75362962 0.76793063 -0.42693451 1.3818871e-38
-0.75284803 0.77107328 -0.42477855 1.3358599e-38
-0.75163215 0.77410913 -0.42250463 1.345044e-38
-0.75237799 0.7783314 -0.42035303 1.418621e-38
-0.75141126 0.78904057 -0.41370997 1.4095806e-38
-0.75281596 0.79377234 -0.41153461 1.2805794e-38
-0.75493854 0.79832274 -0.40976277 1.3267494e-38
-0.75544268 0.80542511 -0.40583214 1.3819586e-38
-0.75519311 0.8090679 -0.40360531 1.3633765e-38
-0.75467783 0.81253946 -0.40136814 1.1607238e-38
-0.75455821 0.81629896 -0.39912719 8.9328727e-39
-0.75430185 0.81995976 -0.39688709 7.5477719e-39
-0.7539438 0.82367319 -0.39457411 6.7190818e-39
-0.75554293 0.8286823 -0.3923178 4.9688208e-39
-0.75612849 0.83301061 -0.3900378 9.4878234e-39
-0.75625449 0.83699518 -0.38776761 7.551376e-39
-0.75678301 0.84140295 -0.3854177 8.103489e-39
-0.75720066 0.84562945 -0.38312745 4.7844253e-39
-0.75490957 0.85585338 -0.37621784 2.8504877e-39
-0.75631785 0.86087638 -0.37387428 2.4820695e-39
-0.7566871 0.86528182 -0.37145963 2.1147275e-39
-0.75826859 0.87030184 -0.36918962 1.1963726e-39
-0.75897539 0.87484306 -0.36683589 1.6551913e-39
-0.7568137 0.88534558 -0.35981756 2.2973237e-39
-0.75749511 0.8895244 -0.35766453 1.6577025e-39
-0.75681996 0.89343143 -0.35510716 1.4708029e-39
-0.75686544 0.90211827 -0.3500627 6.4284847e-40
-0.75419939 0.90413457 -0.34778154 6.4284847e-40
-0.75914127 0.9117015 -0.34542099 1.5633558e-39
-0.75471359 0.91286927 -0.34290361 3.6734198e-40
-0.7580291 0.91903031 -0.34068787 1.0105492e-39
-0.75899094 0.92876905 -0.33541045 2.7550649e-40
-0.75928855 0.93323141 -0.33293289 2.7550649e-40
-0.75751495 0.93625045 -0.33043751 1.1970928e-39
-0.75691676 0.93972194 -0.32816589 3.6805945e-40
-0.7595005 0.9564755 -0.31947252 3.6734198e-40
-0.83977401 1.0532575 -0.29636014 9.2158355e-40
-0.84099716 1.0592065 -0.29339999 1.1070482e-39
-0.8514747 1.1121916 -0.26686284 1.8367099e-40
-0.83715111 1.1183921 -0.25730699 2.7550649e-40
-0.77715802 0.64501518 -0.50833839 1.1051913e-38
-0.77564824 0.6477381 -0.50612497 1.0867877e-38
-0.77602732 0.65140861 -0.50414282 1.0867156e-38
-0.77551192 0.65472442 -0.50199634 1.0866443e-38
-0.77586198 0.6584031 -0.49999735 1.0407617e-38
-0.7743336 0.6618672 -0.4973442 1.0314702e-38
-0.77222145 0.66428047 -0.49506146 1.0589852e-38
-0.77104229 0.66726434 -0.49283308 1.0498734e-38
-0.78577328 0.67837936 -0.49246514 9.8508465e-39
-0.78539652 0.68201995 -0.4901869 1.0589845e-38
-0.78552765 0.68567741 -0.4881095 1.0682762e-38
-0.7852689 0.68913162 -0.48598874 1.0682761e-38
-0.78703862 0.69370103 -0.48405945 1.0958255e-38
-0.78591937 0.69671106 -0.48184073 1.0865722e-38
-0.78211898 0.6982336 -0.47937679 1.0774246e-38
-0.79037768 0.70661545 -0.47791713 1.0773876e-38
-0.79152435 0.71092379 -0.47588158 1.0589851e-38
-0.79295772 0.71540701 -0.47386307 1.068276e-38
-0.79258859 0.71898365 -0.47162521 1.0498367e-38
-0.79469705 0.72388995 -0.46964011 1.0866069e-38
-0.79470545 0.72760308 -0.46747926 1.0958612e-38
-0.79511714 0.73237145 -0.46487075 1.1140855e-38
-0.80100983 0.73880583 -0.46356475 1.1508549e-38
-0.79710853 0.74110031 -0.46060902 1.1232692e-38
-0.79458219 0.74314654 -0.45836836 9.6668056e-39
-0.78922367 0.74402744 -0.45563209 9.0214376e-39
-0.78324836 0.74417746 -0.45306599 8.4693568e-39
-0.7783221 0.74492544 -0.4505865 1.0771697e-38
-0.75326705 0.74809176 -0.43834761 1.3817426e-38
-0.75216103 0.75105977 -0.43615887 1.3174211e-38
-0.75203204 0.75465107 -0.43401209 1.3266769e-38
-0.75212234 0.75838327 -0.43187419 1.3542993e-38
-0.7537322 0.76321501 -0.42972565 1.3542269e-38
-0.75485224 0.76765299 -0.42760348 1.3173858e-38
-0.75341797 0.76955336 -0.42590085 1.2897635e-38
-0.75422847 0.77317631 -0.42412534 1.299055e-38
-0.75311255 0.77617162 -0.42191654 1.3174222e-38
-0.75199652 0.77916712 -0.41970766 1.3265334e-38
-0.75206321 0.78294843 -0.41753128 1.3266048e-38
-0.75222284 0.78691894 -0.41528317 1.3449359e-38
-0.75261462 0.79094446 -0.41309941 1.3541551e-38
-0.7552079 0.79648387 -0.41094637 1.3634476e-38
-0.75504458 0.80016655 -0.40873206 1.3911416e-38
-0.7538107 0.80315071 -0.40648085 1.3726657e-38
-0.75452191 0.80744773 -0.40427125 1.3725591e-38
-0.75519085 0.81185144 -0.40198195 1.372702e-38
-0.75468498 0.81532973 -0.39974472 1.4186209e-38
-0.75355178 0.81836784 -0.39750385 1.3818147e-38
-0.75403982 0.82343811 -0.39475095 1.3817432e-38
-0.75439602 0.82755131 -0.39250126 1.2988743e-38
-0.7558831 0.83163452 -0.39073816 1.3450796e-38
-0.75612915 0.83581275 -0.38840482 1.3358606e-38
-0.7565971 0.84094775 -0.38560587 1.3910702e-38
-0.75722653 0.84531695 -0.38332036 1.3636282e-38
-0.75702715 0.84909314 -0.38103658 1.3266775e-38
-0.75649637 0.85263366 -0.37875277 1.1238833e-38
-0.75588334 0.85623896 -0.37639701 1.1239212e-38
-0.75775677 0.86159605 -0.37405163 9.9463268e-39
-0.75694722 0.86484379 -0.37182283 1.0962614e-38
-0.75985998 0.87115872 -0.36935034 1.28991e-38
-0.75870091 0.87426627 -0.36705822 1.1793444e-38
-0.75815791 0.87785208 -0.36474288 9.1176283e-39
-0.75688982 0.88100767 -0.36237758 8.9328797e-39
-0.75865006 0.88639706 -0.3599664 6.6261855e-39
-0.75873113 0.89049685 -0.35761037 3.8653655e-39
-0.75841796 0.89431149 -0.35525703 9.9509777e-39
-0.75962323 0.89931619 -0.35283992 7.7350568e-39
-0.75831395 0.90257704 -0.35039619 4.8780797e-39
-0.75979078 0.91012317 -0.34661034 2.9430407e-39
-0.75976706 0.91814715 -0.34192353 9.1835496e-40
-0.75833017 0.92939728 -0.33477014 1.6530389e-39
-0.75788456 0.94170779 -0.32740983 0
-0.75963545 0.94742727 -0.32480243 0
-0.76010484 0.9691084 -0.31235984 1.8367099e-40
-0.76077747 0.9783653 -0.30724332 1.8367099e-40
-0.76344341 0.99386096 -0.29931721 3.6805945e-40
-0.76367843 0.99846756 -0.29672965 2.7550649e-40
-0.76439148 1.0033011 -0.29420808 2.7550649e-40
-0.76317632 1.0066248 -0.29176676 0
-0.7634005 1.0112565 -0.2891601 0
-0.83438009 1.1098034 -0.26116359 0
-0.76067251 0.54118705 -0.56201828 1.188311e-38
-0.7832042 0.62838644 -0.52053893 1.1235224e-38
-0.78690612 0.6336841 -0.5189867 1.1235586e-38
-0.78516537 0.63631946 -0.51672846 1.1143748e-38
-0.78076577 0.63661563 -0.51473081 1.1051185e-38
-0.78009158 0.63933855 -0.51286405 1.1144109e-38
-0.78404236 0.64475101 -0.51134813 1.0959361e-38
-0.78483933 0.64871246 -0.50936973 1.0959711e-38
-0.78279585 0.65119791 -0.50707334 1.0775684e-38
-0.78613144 0.65646815 -0.50538516 1.0776037e-38
-0.78464973 0.65924275 -0.50315326 1.0958992e-38
-0.78260601 0.66172844 -0.50085664 1.0867155e-38
-0.78316402 0.66554773 -0.49886194 1.0774243e-38
-0.78578049 0.67082572 -0.49687091 9.8526472e-39
-0.78861672 0.67558706 -0.49527219 1.0773526e-38
-0.79219085 0.68180007 -0.49313349 1.0590933e-38
-0.79436445 0.68587071 -0.49166247 1.0590568e-38
-0.79515558 0.6906932 -0.48917976 1.0773878e-38
-0.79805994 0.69519395 -0.4877612 1.0682764e-38
-0.79731143 0.69923842 -0.48509327 1.1049751e-38
-0.79747123 0.70298135 -0.48297787 1.0957194e-38
-0.79821241 0.70705736 -0.48090962 1.0681681e-38
-0.80501544 0.71458805 -0.47934222 1.1142657e-38
-0.80520785 0.71841341 -0.47719237 1.0866421e-38
-0.80529016 0.72228867 -0.47496775 1.1234119e-38
-0.80636406 0.726632 -0.47288153 1.114228e-38
-0.80613005 0.73024452 -0.4706789 1.1325963e-38
-0.80520231 0.7334618 -0.46841878 1.1325602e-38
-0.80440784 0.73676509 -0.46616378 1.1415642e-38
-0.80487549 0.74087274 -0.46396357 1.1416723e-38
-0.8023963 0.74319082 -0.461584 1.0771354e-38
-0.79961216 0.74531698 -0.4591898 9.663563e-39
-0.79491204 0.74639666 -0.4566108 9.0185677e-39
-0.78546691 0.74448365 -0.4538078 1.0678075e-38
-0.77837467 0.74475467 -0.45070779 1.2521602e-38
-0.75550508 0.76698554 -0.42826337 1.2805798e-38
-0.75517452 0.7697863 -0.42649373 1.2991264e-38
-0.7531718 0.77596045 -0.42206424 1.3266411e-38
-0.75205684 0.7789523 -0.41985789 1.3265682e-38
-0.75321692 0.78346199 -0.41771054 1.3172776e-38
-0.75379813 0.78771389 -0.41547331 1.2897988e-38
-0.75419015 0.79174095 -0.41328865 1.3081649e-38
-0.75498545 0.79606044 -0.41110086 1.3266405e-38
-0.75386029 0.79907745 -0.40887561 1.354263e-38
-0.75359428 0.80272299 -0.40664038 1.3449003e-38
-0.75448912 0.80725569 -0.40436962 1.3172787e-38
-0.75614429 0.81222498 -0.40215972 1.3265337e-38
-0.75501251 0.81526083 -0.39992073 1.3265327e-38
-0.75450933 0.81874359 -0.39768204 1.3265325e-38
-0.75527883 0.82313907 -0.39543921 1.3355368e-38
-0.75553477 0.82729602 -0.39312238 1.2712156e-38
-0.75568819 0.83118486 -0.39091939 1.2804711e-38
-0.75545031 0.83527285 -0.38843796 1.1238107e-38
-0.75571108 0.83908647 -0.38632324 1.3080576e-38
-0.75669593 0.84370518 -0.38403967 1.252957e-38
-0.75642091 0.84831023 -0.38124144 1.2437012e-38
-0.75684488 0.85255486 -0.37894326 1.2529563e-38
-0.75649542 0.85544825 -0.37711179 1.2622131e-38
-0.75808704 0.86150289 -0.37424299 1.3267862e-38
-0.75779009 0.86526936 -0.37192443 1.2344461e-38
-0.75789213 0.86931962 -0.36960599 1.2437374e-38
-0.75767756 0.87313861 -0.36729097 1.2437377e-38
-0.75726068 0.87693447 -0.3649056 1.2436297e-38
-0.75785822 0.88139367 -0.36255431 1.2529927e-38
-0.7587961 0.88613504 -0.36017972 1.271397e-38
-0.7597065 0.89088595 -0.35778821 1.2438095e-38
-0.75977159 0.89698374 -0.35426095 1.2715042e-38
-0.75959694 0.90033466 -0.35223535 1.2991254e-38
-0.75926173 0.9045319 -0.34964988 1.1701242e-38
-0.76105767 0.90978914 -0.34733063 1.3084194e-38
-0.75988358 0.91293478 -0.34501004 1.2991993e-38
-0.76140249 0.91827267 -0.34252885 1.1701611e-38
-0.76003951 0.92183119 -0.33988926 1.0134317e-38
-0.76171947 0.92679209 -0.33769459 6.6294239e-39
-0.76239294 0.93163407 -0.33515173 1.1885655e-38
-0.76007938 0.93431079 -0.3326318 9.8587877e-39
-0.76112831 0.93889219 -0.33039659 1.0503437e-38
-0.76081651 0.94339961 -0.32764 7.6464765e-39
-0.759628 0.94665009 -0.32525232 5.5252526e-39
-0.76161945 0.95200652 -0.32295632 6.7223496e-39
-0.76217276 0.95769602 -0.31986961 8.2760267e-40
-0.76234877 0.96161318 -0.31765944 6.4464928e-39
-0.76297557 0.96584857 -0.31545076 5.7096158e-39
-0.75756079 0.46958971 -0.60245949 1.1883843e-38
-0.76258504 0.49019948 -0.59253085 1.1882383e-38
-0.76114225 0.49279523 -0.59041935 1.1975293e-38
-0.76362592 0.50296193 -0.58552378 1.1144475e-38
-0.76052409 0.50560862 -0.58269435 1.2160432e-38
-0.75983614 0.50853932 -0.58070076 1.19753e-38
-0.75978631 0.5116607 -0.57886076 1.142106e-38
-0.76203215 0.5156498 -0.57746726 1.0868967e-38
-0.76252025 0.51895821 -0.57574129 1.1053703e-38
-0.76574081 0.52327645 -0.57456028 1.0961881e-38
-0.76479173 0.5260874 -0.57252818 1.1421416e-38
-0.76689583 0.5301047 -0.57105941 1.114519e-38
-0.76585913 0.53289253 -0.56900454 1.1421413e-38
-0.76266783 0.53485793 -0.56653506 1.1053716e-38
-0.76857781 0.54039371 -0.56576002 1.2249022e-38
-0.76753569 0.54319531 -0.56369478 1.1789123e-38
-0.76762092 0.54663002 -0.56172812 1.1051193e-38
-0.77269769 0.5516566 -0.5609042 1.1606166e-38
-0.79464018 0.63508159 -0.52138036 1.1696913e-38
-0.7944845 0.63850045 -0.51932299 1.1605077e-38
-0.79404181 0.64253426 -0.51678818 1.1695481e-38
-0.79293758 0.64550686 -0.51459748 1.1419255e-38
-0.79409355 0.64968556 -0.51264131 1.1327057e-38
-0.80105317 0.65674764 -0.51141208 1.1419967e-38
-0.79913825 0.65934664 -0.50910282 1.0959711e-38
-0.79802108 0.66234785 -0.50689006 1.0867159e-38
-0.79690391 0.66534913 -0.5046773 1.1050474e-38
-0.79616225 0.66854268 -0.50250822 1.0958993e-38
-0.79640681 0.67224908 -0.5004493 1.0867158e-38
-0.79789507 0.67660964 -0.49852502 1.0958633e-38
-0.80618978 0.68472505 -0.49723566 1.1603631e-38
-0.80456674 0.68750268 -0.49494332 1.1419604e-38
-0.80607873 0.69195133 -0.49297753 1.1602561e-38
-0.80829489 0.69688886 -0.49101895 1.1418174e-38
-0.80915082 0.70103133 -0.48895946 1.151145e-38
-0.8089301 0.70459956 -0.48678809 1.132741e-38
-0.81062567 0.71003747 -0.48432186 1.1326695e-38
-0.81354189 0.71460444 -0.4828696 1.1235212e-38
-0.81147128 0.71801519 -0.48002267 1.1602201e-38
-0.812096 0.72189552 -0.47802004 1.0403645e-38
-0.81192708 0.72585785 -0.47564042 1.1601822e-38
-0.81237358 0.72986549 -0.47348973 1.1417794e-38
-0.81243539 0.73366499 -0.47130072 1.1602191e-38
-0.80994666 0.73600733 -0.46890309 1.1694016e-38
-0.81069332 0.74021482 -0.46676037 1.1784048e-38
-0.81559533 0.74636573 -0.46520868 1.1048284e-38
-0.81455475 0.74817538 -0.46372223 9.4773767e-39
-0.80693567 0.74713069 -0.46117061 9.8468851e-39
-0.79827225 0.7466225 -0.45787308 1.1231232e-38
-0.79120421 0.74616492 -0.45520779 1.1322713e-38
-0.78213781 0.74445277 -0.45244482 1.2243589e-38
-0.77607173 0.74450099 -0.44990042 1.4088929e-38
-0.7565912 0.81608099 -0.40009758 1.2989828e-38
-0.75589037 0.82333159 -0.39558068 1.224939e-38
-0.75648755 0.82767433 -0.39329717 1.2713238e-38
-0.75648248 0.8311938 -0.3912437 1.2161858e-38
-0.7572847 0.83590144 -0.38883251 1.2346248e-38
-0.75666678 0.83946687 -0.38649797 1.2621045e-38
-0.75679201 0.84345889 -0.38422313 1.2621407e-38
-0.75650644 0.8471511 -0.38195252 1.2437007e-38
-0.75682938 0.85143822 -0.37958768 1.2254051e-38
-0.75631326 0.8549847 -0.37730637 1.2068239e-38
-0.75756353 0.85985708 -0.3749851 1.1791651e-38
-0.759642 0.86772299 -0.37126246 1.2068592e-38
-0.75848609 0.87081861 -0.36897862 1.1977475e-38
-0.75879002 0.87517101 -0.36656782 1.2070388e-38
-0.75763172 0.87827176 -0.36428002 1.1792731e-38
-0.75647348 0.88137269 -0.36199209 1.188528e-38
-0.75740165 0.88610905 -0.3596164 1.1701602e-38
-0.75882947 0.89124435 -0.35721549 1.2161145e-38
-0.75831312 0.89499837 -0.35481319 1.1238471e-38
-0.75872523 0.89927948 -0.35248885 1.0779288e-38
-0.7593953 0.90384924 -0.35010317 1.1977107e-38
-0.75997978 0.90853298 -0.34761566 1.1978197e-38
-0.75973946 0.91242504 -0.34524739 1.2253699e-38
-0.76029998 0.91697299 -0.34282902 1.2438802e-38
-0.75984102 0.92085075 -0.3403784 1.2346607e-38
-0.76197475 0.92672825 -0.3378377 1.2345905e-38
-0.76336938 0.93202567 -0.33532852 1.1793809e-38
-0.7621851 0.93519515 -0.33298984 1.1701614e-38
-0.76100081 0.93836468 -0.33065116 1.1977835e-38
-0.76276642 0.94401592 -0.32808962 1.2161869e-38
-0.76146144 0.94724238 -0.32566762 1.2530293e-38
-0.76259434 0.95239359 -0.32313517 1.2254784e-38
-0.76345265 0.95734447 -0.32060543 1.2346615e-38
-0.76272124 0.9611423 -0.31808841 1.1146987e-38
-0.76253778 0.96501946 -0.31575239 1.2530645e-38
-0.76216483 0.96894062 -0.31331214 1.2437739e-38
-0.76300079 0.97392029 -0.31075642 1.1147e-38
-0.76375002 0.97813374 -0.30861133 7.9219522e-39
-0.76389837 0.9814617 -0.3067331 8.1992748e-39
-0.76401657 0.99566001 -0.29850632 8.8442897e-39
-0.76596093 1.0007081 -0.29637048 7.829765e-39
-0.76676983 1.0059329 -0.29366067 9.6740405e-39
-0.76637071 1.0099367 -0.29116139 7.369161e-39
-0.76651365 1.0364783 -0.27575043 3.4990759e-39
-0.76528668 1.0398308 -0.27328736 1.6530389e-39
-0.76622808 1.0677737 -0.25739077 0
-0.76358598 1.0697881 -0.25512061 0
-0.75553799 0.44148928 -0.61799932 1.1330667e-38
-0.75818676 0.445802 -0.6165843 1.1052985e-38
-0.7597779 0.44921595 -0.61525452 1.1053718e-38
-0.75952816 0.45211795 -0.61345941 1.1513257e-38
-0.75614738 0.45411456 -0.61089319 1.1238112e-38
-0.7659269 0.46616694 -0.60792494 1.1144835e-38
-0.7658419 0.46916807 -0.60614043 1.1420341e-38
-0.76623625 0.47232503 -0.60446393 1.0961523e-38
-0.7654745 0.47525254 -0.60244161 1.0498024e-38
-0.76445252 0.47805184 -0.60038596 1.0038825e-38
-0.76542807 0.48127359 -0.59891278 1.1329223e-38
-0.76441246 0.48400763 -0.5968979 1.1326698e-38
-0.7653023 0.48796636 -0.59495962 1.1236291e-38
-0.77216601 0.49340549 -0.5946365 1.1788401e-38
-0.77256161 0.49670655 -0.59287655 1.1789841e-38
-0.77363795 0.50018215 -0.59129715 1.1604736e-38
-0.77354312 0.50327349 -0.58945602 1.1789124e-38
-0.77251118 0.50605065 -0.58740926 1.1973142e-38
-0.76954401 0.50821567 -0.58491641 1.2066424e-38
-0.76851439 0.51098621 -0.58287448 1.169729e-38
-0.77988154 0.51889759 -0.58297849 1.1974231e-38
-0.77874714 0.52167189 -0.58089083 1.2065705e-38
-0.77935231 0.52507609 -0.57915765 1.2342652e-38
-0.77895904 0.52812916 -0.57721502 1.2066777e-38
-0.77975851 0.53169817 -0.57546633 1.2068214e-38
-0.77827978 0.53435868 -0.57330221 1.2066786e-38
-0.77757168 0.53730464 -0.57129139 1.2066781e-38
-0.77600271 0.53992528 -0.56911302 1.2065707e-38
-0.78191167 0.54550892 -0.56830961 1.2249732e-38
-0.78755248 0.55101782 -0.56743854 1.2249379e-38
-0.78639871 0.55384105 -0.56531441 1.1881676e-38
-0.78382933 0.55610681 -0.56292784 1.1790552e-38
-0.78198725 0.55933219 -0.56028384 1.2157535e-38
-0.78147173 0.5624029 -0.55828011 1.224865e-38
-0.78173703 0.56587356 -0.55636722 1.197351e-38
-0.80704987 0.63385528 -0.5272429 1.2065331e-38
-0.80027777 0.63767672 -0.52220631 1.1972418e-38
-0.80114806 0.64160526 -0.52027744 1.1972781e-38
-0.80003655 0.64459181 -0.51807559 1.2064262e-38
-0.80247217 0.64939511 -0.51628625 1.1880228e-38
-0.80464095 0.65400189 -0.51450074 1.1695841e-38
-0.81218177 0.66137695 -0.5133301 1.1789107e-38
-0.81127113 0.66451806 -0.51112151 1.1604723e-38
-0.81286514 0.66972327 -0.50874877 1.151253e-38
-0.81172925 0.67276752 -0.50650316 1.1695481e-38
-0.81540221 0.67836547 -0.5047639 1.1603634e-38
-0.81550163 0.68206149 -0.50265086 1.1511794e-38
-0.81528884 0.685606 -0.50049657 1.151144e-38
-0.81639791 0.68992674 -0.49843821 1.1512166e-38
-0.81771976 0.69429404 -0.49644101 1.1603277e-38
-0.81975031 0.69916344 -0.49444506 1.1694389e-38
-0.82060498 0.7033338 -0.49236882 1.1418171e-38
-0.81867474 0.70600843 -0.49000916 1.1602919e-38
-0.81743121 0.70905209 -0.48771927 1.1418877e-38
-0.81693083 0.71250713 -0.48549783 1.1419236e-38
-0.82286829 0.71893328 -0.4842152 1.0774227e-38
-0.81916022 0.72129399 -0.48130104 1.1234122e-38
-0.81976116 0.72623444 -0.47867066 1.1233401e-38
-0.82358623 0.73142505 -0.47723189 1.1601821e-38
-0.8234762 0.73601806 -0.47450912 1.169258e-38
-0.8228696 0.73947215 -0.47224423 1.1601468e-38
-0.82623255 0.74340653 -0.47134599 1.1417434e-38
-0.82493395 0.74595642 -0.46932107 1.1782968e-38
-0.82253873 0.74902511 -0.46653885 9.937629e-39
-0.8141076 0.74735129 -0.46401703 1.0953937e-38
-0.8072558 0.74712163 -0.46130866 1.1415992e-38
-0.80015063 0.7466976 -0.45860845 1.1690777e-38
-0.7924062 0.7458446 -0.4558931 1.1783338e-38
-0.78309315 0.7448284 -0.45262215 1.1968084e-38
-0.75993323 0.85873044 -0.37662476 1.2345549e-38
-0.76067328 0.87120128 -0.36966285 1.1978194e-38
-0.75960219 0.87491304 -0.36705512 1.0779669e-38
-0.75887859 0.87793219 -0.36499518 1.2345908e-38
-0.7591123 0.88306344 -0.36210126 1.2162237e-38
-0.75983512 0.88764518 -0.35973054 1.1242447e-38
-0.75867188 0.89075798 -0.35743365 1.1793453e-38
-0.7592532 0.89524567 -0.35505903 1.1976751e-38
-0.76092374 0.90077567 -0.35252872 1.170089e-38
-0.7597546 0.90390348 -0.35022062 1.1700887e-38
-0.76094091 0.90891874 -0.34778947 1.1884554e-38
-0.76132929 0.91332251 -0.34538376 1.1976745e-38
-0.7601552 0.91646504 -0.34306502 1.1885633e-38
-0.75970107 0.92034435 -0.34061551 1.1609406e-38
-0.76211905 0.92644745 -0.33806121 1.1884203e-38
-0.76323682 0.93151438 -0.33557153 1.1240629e-38
-0.76205379 0.93467933 -0.33323601 1.1241348e-38
-0.76149553 0.93837124 -0.33085254 1.1516497e-38
-0.76263994 0.9434914 -0.32834285 1.170089e-38
-0.76107371 0.94634014 -0.3260327 1.0594912e-38
-0.76269615 0.95205998 -0.3233718 1.16087e-38
-0.76273078 0.95629567 -0.32091728 1.1884555e-38
-0.76315278 0.96031231 -0.31875116 1.1977468e-38
-0.76242822 0.964486 -0.3160179 1.1425736e-38
-0.76314676 0.96934253 -0.31348521 1.1516861e-38
-0.76183325 0.97259688 -0.3110435 1.2069315e-38
-0.76399028 0.98019648 -0.30750868 1.1609777e-38
-0.76278752 0.98341209 -0.30513549 1.2254777e-38
-0.76438946 0.99017173 -0.30186 1.2345909e-38
-0.76458848 0.99376875 -0.29984596 1.2070761e-38
-0.76435906 0.99772304 -0.29744595 1.1884922e-38
-0.76592684 1.0036283 -0.29465425 1.1516853e-38
-0.76471359 1.0068724 -0.29226014 1.179344e-38
-0.76639855 1.0354323 -0.27631232 1.1148809e-38
-0.76612413 1.0532596 -0.26580751 8.2922019e-39
-0.76830876 1.0599173 -0.26283312 3.9582926e-39
-0.76773804 1.0682534 -0.25773755 7.648252e-39
-0.76810026 1.0732105 -0.25499836 6.4486522e-39
-0.76985943 1.0795498 -0.25203314 4.4188882e-39
-0.75399059 0.37496236 -0.65613407 1.1515414e-38
-0.75255954 0.37935257 -0.65298152 1.1327786e-38
-0.7543624 0.3999221 -0.64174002 1.0500907e-38
-0.7559514 0.40314305 -0.64052176 1.0593826e-38
-0.7561605 0.40610009 -0.6388849 1.0040287e-38
-0.75655538 0.41482043 -0.63396591 1.0592388e-38
-0.76043761 0.41927701 -0.63297868 1.0132858e-38
-0.76097786 0.42238069 -0.63139379 1.114448e-38
-0.75989556 0.42501965 -0.62940657 1.1237395e-38
-0.76441729 0.42916539 -0.6288659 1.1054088e-38
-0.76120341 0.43125948 -0.62631214 1.0961533e-38
-0.76111317 0.43417254 -0.62457675 1.0962965e-38
-0.76040721 0.43697512 -0.62265038 1.1145551e-38
-0.75545245 0.43856379 -0.61966908 1.1054071e-38
-0.76675063 0.44473585 -0.62075824 1.1330665e-38
-0.76963156 0.44852468 -0.6197449 1.1698722e-38
-0.76745903 0.45148635 -0.6171174 1.1422495e-38
-0.77122521 0.45562562 -0.61626703 1.133066e-38
-0.76987559 0.45824814 -0.6141786 1.1330302e-38
-0.76895773 0.46099591 -0.61219627 1.1513973e-38
-0.77195489 0.46491089 -0.6111576 1.1513976e-38
-0.77329886 0.46846047 -0.60964614 1.1421776e-38
-0.77218628 0.47117034 -0.60760516 1.1697998e-38
-0.77073431 0.47377491 -0.60548472 1.1514329e-38
-0.77083123 0.47686058 -0.60372639 1.1698355e-38
-0.77122724 0.48010403 -0.60200012 1.1881311e-38
-0.77233064 0.48352626 -0.60046309 1.1882031e-38
-0.77536166 0.48763868 -0.59932345 1.2065341e-38
-0.77723855 0.4919748 -0.59757459 1.1881313e-38
-0.78228229 0.49685457 -0.59682262 1.1880958e-38
-0.78014433 0.49927807 -0.59452313 1.1606161e-38
-0.7808603 0.50265604 -0.59285122 1.1974952e-38
-0.78236943 0.50631624 -0.59134382 1.1882396e-38
-0.78484863 0.51039243 -0.58999628 1.1974224e-38
-0.78873491 0.51491642 -0.5889715 1.2065707e-38
-0.78541154 0.51694566 -0.58641016 1.2157899e-38
-0.78895265 0.52148765 -0.58523172 1.2158613e-38
-0.78724295 0.52408606 -0.58300793 1.2250454e-38
-0.78486854 0.52709687 -0.58026803 1.2341935e-38
-0.78684336 0.53065646 -0.57901245 1.1327419e-38
-0.78299624 0.53217959 -0.57652879 1.1790908e-38
-0.78511065 0.53624964 -0.57503361 1.1882746e-38
-0.78230554 0.53909689 -0.57221043 1.2250451e-38
-0.793347 0.54662085 -0.5724051 1.206534e-38
-0.79535264 0.55074209 -0.57083493 1.2066413e-38
-0.7960338 0.55429846 -0.56904465 1.2250806e-38
-0.79452163 0.55701089 -0.5668363 1.2341209e-38
-0.79388791 0.56006706 -0.5647921 1.2065702e-38
-0.7909494 0.56220645 -0.56232613 1.2248663e-38
-0.78978914 0.56436032 -0.56058943 1.1789491e-38
-0.79168558 0.56779772 -0.55937254 1.2064979e-38
-0.78941488 0.57068408 -0.55674821 1.1698002e-38
-0.81696641 0.63841963 -0.528696 1.1880585e-38
-0.81782281 0.64237648 -0.52674502 1.1971702e-38
-0.81552976 0.64484686 -0.52435386 1.2155736e-38
-0.81110382 0.64628392 -0.5216803 1.1880591e-38
-0.80998152 0.64929849 -0.51945764 1.1696198e-38
-0.81808263 0.65690631 -0.51838374 1.1696909e-38
-0.81760889 0.66027552 -0.51622343 1.1880574e-38
-0.82176107 0.66601938 -0.51459789 1.1787669e-38
-0.82017958 0.66885787 -0.51228738 1.1786237e-38
-0.82096821 0.67298412 -0.51020938 1.1787316e-38
-0.81969666 0.67598063 -0.5079354 1.1695479e-38
-0.82084507 0.68021685 -0.50594258 1.1602203e-38
-0.82066506 0.68460089 -0.50331259 1.1511437e-38
-0.82141095 0.68865895 -0.5012567 1.151108e-38
-0.82741499 0.69473308 -0.50020683 1.1510009e-38
-0.82640857 0.69884843 -0.49739066 1.1419247e-38
-0.82616889 0.70243919 -0.49519834 1.1695107e-38
-0.82610369 0.70614105 -0.4930135 1.1510361e-38
-0.82774293 0.71075642 -0.49100336 1.1510371e-38
-0.82792777 0.71461356 -0.48883182 1.1784794e-38
-0.82726985 0.71729583 -0.48699549 1.1141934e-38
-0.8270852 0.72105259 -0.4847292 1.1142657e-38
-0.82487869 0.72351623 -0.48237786 1.1234856e-38
-0.82948953 0.72997063 -0.48052844 1.0958622e-38
-0.82814336 0.73223937 -0.47864768 1.1786581e-38
-0.82665968 0.73520315 -0.47630471 1.2245404e-38
-0.83214164 0.7422443 -0.47447467 1.1786574e-38
-0.83336949 0.74678367 -0.47233811 1.1324507e-38
-0.83218586 0.74995661 -0.46999767 1.0861731e-38
-0.82848722 0.7516672 -0.46746641 1.0492599e-38
-0.81507331 0.74772787 -0.46419811 1.187516e-38
-0.80797422 0.74735719 -0.46146935 1.1598938e-38
-0.80056536 0.74675333 -0.45874801 1.1689703e-38
-0.76382709 0.91397321 -0.34604067 1.1424664e-38
-0.76220167 0.92100394 -0.34126833 1.1516861e-38
-0.76212317 0.92504758 -0.33887887 1.142431e-38
-0.76414263 0.93123937 -0.33610758 9.7676865e-39
-0.76395196 0.93484598 -0.33392626 1.1058407e-38
-0.76334715 0.94368368 -0.32852411 1.123956e-38
-0.7632522 0.94777155 -0.32610208 1.1331746e-38
-0.76348084 0.95128649 -0.32414818 1.1422857e-38
-0.76478505 0.95539707 -0.32229322 1.1332819e-38
-0.76332909 0.95780629 -0.32028502 1.1424297e-38
-0.7639913 0.96259809 -0.31776673 1.151685e-38
-0.76303333 0.96600169 -0.31538546 1.0871855e-38
-0.76255655 0.96998215 -0.31286758 1.114736e-38
-0.76306099 0.97466677 -0.31034636 1.1332112e-38
-0.76266605 0.97857279 -0.30790576 1.1148441e-38
-0.76459026 0.98454601 -0.3052223 1.1699816e-38
-0.76338571 0.98776346 -0.3028473 1.142395e-38
-0.76511794 0.99377728 -0.3000606 1.1147364e-38
-0.76547164 0.99834716 -0.29754373 1.1241348e-38
-0.76533937 1.0026672 -0.29497081 9.9488267e-39
-0.76651949 1.0080302 -0.29233438 1.1147726e-38
-0.76524788 1.037925 -0.27438205 9.3974522e-39
-0.76705658 1.0441387 -0.2715106 9.4885646e-39
-0.76582885 1.047491 -0.26904732 9.3034643e-39
-0.76621395 1.052397 -0.26634747 9.673316e-39
-0.76498395 1.055756 -0.26387948 1.0133582e-38
-0.7651611 1.0604665 -0.26120728 9.6740531e-39
-0.76749212 1.0736498 -0.25449014 9.3045293e-39
-0.75655872 0.35603109 -0.66823387 1.0503431e-38
-0.75320041 0.35817677 -0.66559011 1.0872214e-38
-0.7559042 0.36143622 -0.66481185 1.0871852e-38
-0.75255102 0.36357188 -0.66217607 1.114736e-38
-0.75646126 0.36991417 -0.66010135 1.0687815e-38
-0.75301743 0.37201285 -0.65744954 1.0963322e-38
-0.76151097 0.37579396 -0.65876895 1.0316868e-38
-0.76132601 0.37851343 -0.65710717 1.0501986e-38
-0.75808638 0.3802644 -0.65474266 1.0961891e-38
-0.75861061 0.38330427 -0.65318829 1.0777857e-38
-0.75848383 0.38609701 -0.65150791 1.0501981e-38
-0.75589013 0.38836637 -0.64910924 1.0962605e-38
-0.7562775 0.39128181 -0.64757061 1.1147717e-38
-0.75843227 0.39517337 -0.64619619 1.0777493e-38
-0.76872259 0.40046775 -0.64737886 1.1146276e-38
-0.7665776 0.40286145 -0.64509386 1.1146993e-38
-0.7687161 0.40629187 -0.64398146 1.1514341e-38
-0.7652123 0.40836743 -0.6413182 1.1331021e-38
-0.76517957 0.41125616 -0.63962084 1.1605091e-38
-0.76719362 0.41464666 -0.63848013 1.1606894e-38
-0.76620328 0.41731653 -0.63651311 1.142321e-38
-0.76670527 0.42035475 -0.63495052 1.1331017e-38
-0.77120227 0.42514133 -0.63402593 1.1330661e-38
-0.77081192 0.42798665 -0.63220561 1.1421782e-38
-0.77156109 0.43113253 -0.63068271 1.1607248e-38
-0.77116805 0.4339897 -0.62885427 1.1515408e-38
-0.77314615 0.43753615 -0.6276077 1.1606887e-38
-0.77214038 0.44024214 -0.62561321 1.1607248e-38
-0.77275121 0.44339189 -0.62403077 1.1423216e-38
-0.77763373 0.44784272 -0.62346184 1.2067142e-38
-0.77814323 0.45099953 -0.62183321 1.1789833e-38
-0.77744275 0.45394602 -0.61982518 1.0592739e-38
-0.77672327 0.45729446 -0.61757505 1.1238837e-38
-0.77502483 0.45983037 -0.61539239 1.1513982e-38
-0.78216898 0.46496731 -0.61536175 1.1514691e-38
-0.7815789 0.46785471 -0.61343396 1.1699078e-38
-0.7860648 0.4723821 -0.61265594 1.2159334e-38
-0.78594035 0.47549358 -0.61079073 1.1883832e-38
-0.78267837 0.47758159 -0.60822052 1.1974229e-38
-0.78166634 0.48035863 -0.6061821 1.2342287e-38
-0.78589451 0.48478645 -0.60535514 1.1697643e-38
-0.78774607 0.48855203 -0.60392833 1.1975308e-38
-0.78781307 0.49170426 -0.60211879 1.2066063e-38
-0.78491443 0.49453238 -0.59926796 1.2341205e-38
-0.79115021 0.49983305 -0.59876513 1.2525966e-38
-0.79000247 0.50261223 -0.59666908 1.2250454e-38
-0.79105777 0.50613397 -0.59505415 1.2250095e-38
-0.79266292 0.50992489 -0.59351033 1.2342285e-38
-0.79370874 0.51347357 -0.59187579 1.2342289e-38
-0.7941888 0.51684242 -0.59011132 1.2250099e-38
-0.79478556 0.52026051 -0.58836651 1.2157899e-38
-0.79969215 0.52532101 -0.58745223 1.2066068e-38
-0.79897481 0.52837723 -0.58537328 1.2157902e-38
-0.7979086 0.53124005 -0.58326238 1.2342291e-38
-0.79531425 0.53354406 -0.58084327 1.2341924e-38
-0.79632056 0.5371657 -0.57914972 1.2250807e-38
-0.79864836 0.54059851 -0.57811445 1.1423562e-38
-0.79805177 0.54303056 -0.57644945 1.2158609e-38
-0.79992914 0.54701865 -0.57490367 1.2249013e-38
-0.80715746 0.55528468 -0.57308412 1.2250102e-38
-0.80778384 0.55885571 -0.57126248 1.2249735e-38
-0.80382067 0.56064594 -0.56857497 1.2249724e-38
-0.80440933 0.56429106 -0.5666945 1.1973863e-38
-0.80316627 0.56967312 -0.56304187 1.1882387e-38
-0.8250277 0.64570075 -0.52779609 1.1880585e-38
-0.8267265 0.65019143 -0.52588326 1.1604712e-38
-0.82662231 0.65374559 -0.52376842 1.1695477e-38
-0.82672757 0.65740478 -0.52167928 1.1604361e-38
-0.82571763 0.66053855 -0.51943374 1.1329216e-38
-0.82457453 0.66360331 -0.51717323 1.1237738e-38
-0.82390505 0.66657323 -0.51516438 1.1419969e-38
-0.82282537 0.66958511 -0.51296103 1.151145e-38
-0.82537568 0.67458111 -0.51110691 1.1144462e-38
-0.82955927 0.68026125 -0.5095315 1.132741e-38
-0.82628202 0.68287164 -0.50665057 1.1696198e-38
-0.82446486 0.68561649 -0.5042969 1.1787315e-38
-0.8321408 0.69257796 -0.50342339 1.1511801e-38
-0.83086342 0.69553548 -0.50116962 1.151144e-38
-0.82976711 0.69859457 -0.49893183 1.1235213e-38
-0.8967061 0.73710424 -0.50425321 1.0679879e-38
-0.83205986 0.71115643 -0.49256095 1.0129227e-38
-0.82746542 0.71279669 -0.48969901 9.2040156e-39
-0.82640022 0.71599132 -0.48739508 9.0214222e-39
-0.83233207 0.72230208 -0.48617738 1.1234491e-38
-0.83057261 0.7303794 -0.48073947 1.1235911e-38
-0.83259863 0.73522788 -0.47875386 1.123662e-38
-0.83326238 0.73799598 -0.47741574 1.1143008e-38
-0.83894908 0.74505389 -0.47566086 1.1050081e-38
-0.83937031 0.75028527 -0.47278637 8.9267154e-39
-0.83517647 0.75150263 -0.47033712 1.0769528e-38
-0.82946396 0.75205135 -0.46764761 1.1690768e-38
-0.81602949 0.74810338 -0.46437591 1.1416342e-38
-0.80773842 0.74703538 -0.46155912 1.1324504e-38
-0.76555544 0.98494017 -0.30539298 1.1239196e-38
-0.76435107 0.98815727 -0.3030183 1.1147719e-38
-0.76671565 0.99474394 -0.30015993 1.1055162e-38
-0.76778436 1.0000179 -0.29752925 1.0963679e-38
-0.74846947 0.29374 -0.701186 9.7651431e-39
-0.75027031 0.30226859 -0.69696188 9.8573304e-39
-0.7496348 0.30481926 -0.69521159 1.0134298e-38
-0.7492761 0.30785584 -0.69329286 1.0595265e-38
-0.75215441 0.31089666 -0.69271439 1.0227563e-38
-0.75537461 0.31407464 -0.69219792 1.0135368e-38
-0.75498325 0.31671706 -0.69049537 9.6725958e-39
-0.75405794 0.31925496 -0.68863225 1.0225398e-38
-0.7510584 0.32151172 -0.68607265 1.013393e-38
-0.75312614 0.32451451 -0.68518013 9.8562457e-39
-0.75360703 0.32727069 -0.6837731 9.9498847e-39
-0.75144279 0.32963532 -0.68149704 9.9502491e-39
-0.7529555 0.33302984 -0.68014598 1.0686016e-38
-0.76271105 0.33739054 -0.681651 1.0594172e-38
-0.76156741 0.33993864 -0.67969143 1.0686369e-38
-0.75907868 0.3422679 -0.67730135 1.068745e-38
-0.75245875 0.34393609 -0.67358297 1.0685655e-38
-0.75585669 0.34878787 -0.67216456 1.0501984e-38
-0.7635386 0.35407078 -0.67227185 1.0687457e-38
-0.76542062 0.35780254 -0.67087746 1.0870766e-38
-0.76692051 0.36059642 -0.66987115 1.0408343e-38
-0.76627618 0.36307487 -0.66815919 1.1146989e-38
-0.76637524 0.36639562 -0.66626477 1.1055152e-38
-0.76464087 0.36886513 -0.66410589 1.1146985e-38
-0.76746863 0.37152556 -0.66372824 1.03183e-38
-0.7671957 0.37381136 -0.66228271 1.1239542e-38
-0.76736033 0.37666729 -0.66068637 1.1238824e-38
-0.76638365 0.37929755 -0.65874803 1.1514688e-38
-0.77035719 0.3830688 -0.65819824 1.1147706e-38
-0.77156144 0.38621992 -0.65686113 1.1331023e-38
-0.7705875 0.38886809 -0.65491354 1.1239546e-38
-0.76782328 0.39113459 -0.65244579 1.1331024e-38
-0.77470225 0.395513 -0.65274727 1.1238122e-38
-0.77574128 0.39923015 -0.65101165 1.1237758e-38
-0.77919978 0.40264723 -0.65045464 1.0409075e-38
-0.77648562 0.40472591 -0.64811718 1.1054795e-38
-0.77799696 0.4085902 -0.64649165 1.1147352e-38
-0.77909583 0.41177711 -0.64508992 1.1238827e-38
-0.77685046 0.41417766 -0.64275932 1.1331023e-38
-0.77864534 0.41759464 -0.64151227 1.1422499e-38
-0.77747059 0.42025381 -0.63947499 1.1606889e-38
-0.78547674 0.42531404 -0.63984662 1.1790929e-38
-0.78550261 0.4283025 -0.63811541 1.1607258e-38
-0.78313059 0.43126526 -0.63540453 1.1882762e-38
-0.78307056 0.43429488 -0.63361382 1.2068226e-38
-0.7814002 0.43684846 -0.63143253 1.1975666e-38
-0.78070855 0.43965924 -0.62950724 1.2160053e-38
-0.78186226 0.44297144 -0.62805521 1.2251885e-38
-0.78523242 0.44680697 -0.62721765 1.1145194e-38
-0.78925544 0.45115814 -0.62635028 1.2250822e-38
-0.78925389 0.45420587 -0.62457323 1.234301e-38
-0.78777862 0.45684147 -0.62242502 1.1976026e-38
-0.79135972 0.46098229 -0.62149698 1.2068588e-38
-0.79304123 0.46516371 -0.61975729 1.2251531e-38
-0.7957654 0.46868977 -0.61883205 1.1329941e-38
-0.79252696 0.47063366 -0.61635572 1.1975663e-38
-0.79739773 0.47593904 -0.61528385 1.2067499e-38
-0.79814565 0.47929159 -0.61364001 1.1975666e-38
-0.80116689 0.48335847 -0.61252278 1.2067503e-38
-0.79730254 0.48530039 -0.60978788 1.2159696e-38
-0.79614967 0.4881438 -0.60765231 1.2158261e-38
-0.79576665 0.49116871 -0.6057303 1.1882392e-38
-0.79683089 0.49466538 -0.60413367 1.2250454e-38
-0.79511869 0.49727327 -0.60190332 1.2250092e-38
-0.80074954 0.50239956 -0.60125113 1.2157178e-38
-0.79835093 0.50544691 -0.59847993 1.2066767e-38
-0.80172509 0.50977027 -0.59735966 1.1883471e-38
-0.80665004 0.51472825 -0.59651273 1.2249714e-38
-0.80557042 0.51759237 -0.59439546 1.2526675e-38
-0.80504048 0.5206508 -0.59239298 1.1975303e-38
-0.80596691 0.52428961 -0.59065634 1.1791271e-38
-0.80802953 0.52837908 -0.58912832 1.2065701e-38
-0.80695456 0.53126246 -0.58700174 1.1974583e-38
-0.80476445 0.53374332 -0.58464724 1.2250091e-38
-0.81067449 0.53917855 -0.58393079 1.2342281e-38
-0.81504971 0.54415709 -0.58284384 1.2158254e-38
-0.81667745 0.54726982 -0.58170474 1.1422495e-38
-0.81598425 0.54975194 -0.57997042 1.2066424e-38
-0.81597453 0.55308688 -0.5780226 1.2157537e-38
-0.8169772 0.55731225 -0.57597566 1.1788391e-38
-0.81708121 0.56063461 -0.57408231 1.1144831e-38
-0.81775516 0.56393749 -0.57243675 1.1881308e-38
-0.8148759 0.56618446 -0.56993264 1.1882017e-38
-0.8993687 0.69077724 -0.53236037 1.151252e-38
-0.89830643 0.6955713 -0.52912539 1.0222492e-38
-0.89648718 0.69697517 -0.52755249 1.1052974e-38
-0.83215833 0.68142629 -0.50993061 1.1051908e-38
-0.90132147 0.75568527 -0.49533746 1.1235209e-38
-0.90161681 0.76402825 -0.49059707 9.4845752e-39
-0.89536518 0.76469314 -0.48761621 7.1785984e-39
-0.88353044 0.76217151 -0.48417673 5.9807867e-39
-0.87210089 0.75974315 -0.48085093 5.8857282e-39
-0.84715533 0.74954915 -0.47644481 8.4679107e-39
-0.84007829 0.74938846 -0.4736028 1.0678075e-38
-0.83679795 0.75137663 -0.47108319 1.1692576e-38
-0.82885474 0.75063252 -0.46822193 1.1231952e-38
-0.82062608 0.74939221 -0.46553147 1.1139397e-38
-0.75404292 0.28807738 -0.70679855 9.6736608e-39
-0.75704545 0.29217851 -0.70565355 9.9488085e-39
-0.7626645 0.29600799 -0.70575237 1.0316869e-38
-0.75760162 0.29808149 -0.70244366 1.013356e-38
-0.75720853 0.30067882 -0.70076662 1.0225032e-38
-0.76038504 0.30370048 -0.7003231 1.0317587e-38
-0.76293081 0.3066633 -0.69965219 1.0134283e-38
-0.76447576 0.30998677 -0.69835591 1.0688177e-38
-0.76263404 0.31246462 -0.69614768 1.0134652e-38
-0.76558816 0.31566906 -0.69550532 1.0503078e-38
-0.76513135 0.31829926 -0.69378275 1.05027e-38
-0.76417845 0.32086566 -0.69189161 1.0317588e-38
-0.76593238 0.32385147 -0.69087881 1.0686727e-38
-0.76485944 0.32640919 -0.68894291 1.0501978e-38
-0.76257354 0.32879186 -0.68660587 1.0502698e-38
-0.76505256 0.33188421 -0.68583179 1.0686008e-38
-0.77040529 0.33879226 -0.6840257 1.096224e-38
-0.77177006 0.34180444 -0.68283612 1.0962598e-38
-0.77160442 0.34454206 -0.68117177 1.0871126e-38
-0.77364558 0.34765434 -0.68020439 1.0779287e-38
-0.77130145 0.35160619 -0.67692858 1.0687447e-38
-0.77221113 0.35581189 -0.67485458 1.1238827e-38
-0.77458811 0.35967186 -0.67359072 1.1422858e-38
-0.77573109 0.36237463 -0.67248952 1.0593449e-38
-0.77293271 0.36447221 -0.67010605 1.1331018e-38
-0.77417731 0.36803707 -0.66854447 1.1422867e-38
-0.77859473 0.3711313 -0.66857332 1.0963308e-38
-0.77591318 0.37284902 -0.6664598 1.1608326e-38
-0.77717757 0.37593985 -0.66518283 1.1240268e-38
-0.77607489 0.37861925 -0.66316354 1.1607607e-38
-0.77692258 0.38171947 -0.66170824 1.1515777e-38
-0.77758235 0.38476285 -0.66020793 1.1607614e-38
-0.77925652 0.38798451 -0.65902472 1.1515414e-38
-0.78076494 0.39119089 -0.65778148 1.1331388e-38
-0.78231692 0.39442182 -0.65654206 1.1422865e-38
-0.78131992 0.39710641 -0.65456367 1.1515058e-38
-0.78211278 0.40019333 -0.65309334 1.1423221e-38
-0.78753537 0.40464866 -0.65274584 1.0961894e-38
-0.78840756 0.40763012 -0.65136981 1.1883119e-38
-0.78675473 0.41076645 -0.6488561 1.1608331e-38
-0.78679591 0.41378 -0.64711672 1.197531e-38
-0.78726703 0.41684967 -0.64552289 1.206715e-38
-0.78729671 0.41982219 -0.64380258 1.2251187e-38
-0.7880916 0.42298821 -0.64228696 1.1791645e-38
-0.79310733 0.42733875 -0.6418317 1.1884191e-38
-0.79323447 0.43037426 -0.6401152 1.215898e-38
-0.79443336 0.43374076 -0.6386503 1.197567e-38
-0.79333907 0.43708187 -0.63624889 1.2068948e-38
-0.79279292 0.43996221 -0.6343435 1.1791999e-38
-0.79311413 0.44307733 -0.63266104 1.2160064e-38
-0.79201442 0.44581836 -0.63060713 1.2343014e-38
-0.79201448 0.44885939 -0.62883466 1.1975313e-38
-0.80202252 0.45485321 -0.62949258 1.2159347e-38
-0.80155724 0.45780987 -0.62757623 1.1974947e-38
-0.80087012 0.46070796 -0.62560201 1.2435205e-38
-0.80162305 0.46402118 -0.62398314 1.215934e-38
-0.80348521 0.46772516 -0.62259668 1.1883829e-38
-0.80516857 0.47148651 -0.62110257 1.1328144e-38
-0.80194819 0.47351119 -0.61858654 1.2342644e-38
-0.80582052 0.47855961 -0.61725032 1.2158977e-38
-0.80689341 0.48203507 -0.61566961 1.1883473e-38
-0.81147283 0.48667234 -0.61486632 1.1791283e-38
-0.8093794 0.48896208 -0.61266327 1.1606524e-38
-0.81224167 0.49328831 -0.61132902 1.2159692e-38
-0.8110621 0.4961116 -0.60919404 1.1882026e-38
-0.80988753 0.49893406 -0.60706168 1.2065709e-38
-0.81216162 0.50298232 -0.60564542 1.1974224e-38
-0.8142342 0.50694811 -0.60419357 1.224902e-38
-0.81426674 0.51019394 -0.60231519 1.2066063e-38
-0.81472999 0.51427758 -0.60012716 1.1883109e-38
-0.81408393 0.51730949 -0.5980919 1.2250094e-38
-0.81415474 0.51920325 -0.59701747 1.0959728e-38
-0.81341588 0.52211076 -0.5950163 1.1697646e-38
-0.81346941 0.52487826 -0.59342539 1.1883108e-38
-0.81415075 0.53058279 -0.59038305 1.1974227e-38
-0.81502992 0.53417939 -0.58865142 1.1882749e-38
-0.81841964 0.53870285 -0.58742094 1.1974583e-38
-0.82374412 0.54404485 -0.5865159 1.2251523e-38
-0.82223928 0.54683149 -0.58426744 1.2434844e-38
-0.8205055 0.54867762 -0.58247215 1.1881678e-38
-0.82053578 0.55146879 -0.58085781 1.2433775e-38
-0.82073927 0.55489647 -0.57894439 1.2157551e-38
-0.8189103 0.55763704 -0.57658827 1.2248297e-38
-0.81849092 0.56083697 -0.57454908 1.2064978e-38
-0.82102847 0.56528884 -0.57300687 1.2157183e-38
-0.82242024 0.56921756 -0.57129431 1.1973144e-38
-0.82371366 0.5731253 -0.56955314 1.1790183e-38
-0.82368082 0.57652164 -0.5675599 1.2157175e-38
-0.82442999 0.58031899 -0.56565726 1.2066416e-38
-0.82904589 0.58571947 -0.56442422 1.2066413e-38
-0.82697779 0.58848548 -0.5619542 1.1235213e-38
-0.82857287 0.5931977 -0.55986923 1.2248652e-38
-0.82613212 0.59520149 -0.55768877 1.0867133e-38
-0.82520705 0.60113347 -0.55384743 1.1697991e-38
-0.89489853 0.6432842 -0.55818838 1.178983e-38
-0.89483327 0.66542786 -0.54525441 8.8409938e-39
-0.90693724 0.69046032 -0.5356847 8.6551816e-39
-0.90580899 0.69384402 -0.53324443 9.0232523e-39
-0.90115833 0.69552475 -0.53033561 9.3909488e-39
-0.9084093 0.7228452 -0.5174191 9.0254033e-39
-0.90826362 0.75906086 -0.49624962 1.0128859e-38
-0.90826064 0.76315695 -0.4938609 7.2726129e-39
-0.9048965 0.76568264 -0.49099326 6.8109159e-39
-0.88763714 0.76016772 -0.48704818 3.9582632e-39
-0.87281507 0.75599796 -0.48333013 4.0450708e-39
-0.86561704 0.75591141 -0.48039475 8.7441389e-39
-0.85186452 0.75205046 -0.47694033 1.1140478e-38
-0.84239513 0.75054485 -0.47388986 1.1691489e-38
-0.83643633 0.75099194 -0.47115743 1.1691135e-38
-0.83171093 0.7522254 -0.46847829 1.1414551e-38
-0.76302797 0.2892586 -0.7098372 1.0225757e-38
-0.76620406 0.2933937 -0.70874441 1.0224684e-38
-0.77488548 0.29713491 -0.71016508 1.0501985e-38
-0.7737487 0.300145 -0.70793897 1.0409789e-38
-0.77279472 0.30271527 -0.70604509 1.0316879e-38
-0.77217609 0.30535945 -0.7042473 1.0502342e-38
-0.76937443 0.30770016 -0.70172077 1.0502703e-38
-0.76801693 0.31069058 -0.69941467 1.0503427e-38
-0.76706529 0.31325516 -0.69752508 1.0594541e-38
-0.77117646 0.31662467 -0.69726646 1.0594895e-38
-0.77328837 0.31961977 -0.69639677 1.0870405e-38
-0.77538252 0.3226327 -0.69550931 1.0778206e-38
-0.77563608 0.32543036 -0.69398379 1.0962956e-38
-0.77588958 0.32820565 -0.69247133 1.0961883e-38
-0.7752974 0.33086699 -0.69067442 1.1054792e-38
-0.77232081 0.33316392 -0.68810087 1.1146267e-38
-0.77153665 0.33628464 -0.68595666 1.0871478e-38
-0.77684009 0.340038 -0.68596888 1.1055516e-38
-0.77745271 0.3429088 -0.68454969 1.1147345e-38
-0.77948689 0.34602249 -0.68357867 1.1332452e-38
-0.78039342 0.34896609 -0.68223894 1.0779287e-38
-0.78038114 0.35338813 -0.67965639 1.1055878e-38
-0.78186601 0.35768759 -0.67776632 1.1239553e-38
-0.78198022 0.36118129 -0.67577726 1.1331742e-38
-0.78991717 0.36514321 -0.67676038 1.0409427e-38
-0.78563851 0.36611259 -0.67442054 1.1330298e-38
-0.78750408 0.36899629 -0.67351359 1.1423574e-38
-0.78757858 0.37187353 -0.67186737 1.1515055e-38
-0.78449404 0.37414631 -0.66926312 1.1607974e-38
-0.78603923 0.37790093 -0.66771567 1.1516497e-38
-0.78261268 0.38009226 -0.66501695 1.1332104e-38
-0.78978258 0.38449687 -0.66542387 1.1331747e-38
-0.79152137 0.3878012 -0.66421914 1.1791645e-38
-0.79157192 0.390724 -0.6625365 1.1791278e-38
-0.79185259 0.3937538 -0.660887 1.1699802e-38
-0.79271477 0.39686567 -0.65943086 1.1791642e-38
-0.79170668 0.39957729 -0.65743208 1.1791281e-38
-0.79284233 0.40276617 -0.65604448 1.1607974e-38
-0.7967031 0.40670362 -0.65535104 1.1976032e-38
-0.7964099 0.40960246 -0.65353972 1.1883117e-38
-0.80032104 0.41412434 -0.6525265 1.2067873e-38
-0.79967231 0.41696206 -0.65060329 1.2251897e-38
-0.79749453 0.41943386 -0.64825922 1.1974954e-38
-0.79762709 0.42246044 -0.64655006 1.206679e-38
-0.79940856 0.42583582 -0.64532167 1.0869321e-38
-0.80279601 0.4298822 -0.64436829 1.1699445e-38
-0.80228448 0.43277988 -0.6424672 1.1791278e-38
-0.80445206 0.43642652 -0.64124078 1.1606524e-38
-0.80365741 0.4392716 -0.63925278 1.1699438e-38
-0.80582678 0.44351327 -0.63768041 1.1791635e-38
-0.81020224 0.44781211 -0.63698971 1.1791635e-38
-0.8084864 0.45043781 -0.63474756 1.1883835e-38
-0.80917192 0.45371842 -0.6331197 1.1883836e-38
-0.81093431 0.45742375 -0.63169104 1.1976026e-38
-0.81089967 0.46052644 -0.62986833 1.1883116e-38
-0.81256026 0.46417734 -0.62842906 1.1974586e-38
-0.81083268 0.46681309 -0.62617618 1.1883113e-38
-0.8104533 0.46983474 -0.6242575 1.1791637e-38
-0.80939978 0.47266343 -0.62217176 1.2066433e-38
-0.8098076 0.47592935 -0.62043732 1.1882752e-38
-0.813609 0.48099241 -0.61906308 1.2157542e-38
-0.81807059 0.4851436 -0.61849427 1.1420325e-38
-0.81346196 0.48592925 -0.61612451 1.1238821e-38
-0.81687558 0.49134567 -0.61438358 1.1423207e-38
-0.81673688 0.49477312 -0.61232823 1.2160055e-38
-0.81936598 0.49888784 -0.61102045 1.2342288e-38
-0.81718254 0.50140947 -0.60864496 1.2065711e-38
-0.8179999 0.50439155 -0.60724586 1.1329584e-38
-0.81336582 0.50671774 -0.60396767 1.2065705e-38
-0.81631917 0.51092875 -0.60273832 1.224865e-38
-0.81847513 0.5149039 -0.60131562 1.2066051e-38
-0.81739676 0.51779747 -0.59918171 1.2157535e-38
-0.81800354 0.52153081 -0.59725738 1.0959359e-38
-0.8194375 0.52419943 -0.59629673 1.1697995e-38
-0.82155412 0.52773142 -0.59511608 1.2158618e-38
-0.8239482 0.53233337 -0.59342682 1.1696207e-38
-0.8234247 0.53538501 -0.59143102 1.1514332e-38
-0.82247734 0.53949839 -0.58864039 1.1515051e-38
-0.82435417 0.54356611 -0.58704799 1.1606165e-38
-0.8260718 0.54950017 -0.58430171 1.188168e-38
-0.82523614 0.55251664 -0.58219683 1.1974596e-38
-0.82403964 0.55582964 -0.57976949 1.1326705e-38
-0.82563967 0.56057006 -0.57767016 1.1973864e-38
-0.88834167 0.60242146 -0.57928616 1.2157897e-38
-0.89476055 0.61611819 -0.57396543 1.1881308e-38
-0.90929431 0.70288748 -0.52941895 9.5756932e-39
-0.91568738 0.76645464 -0.49501956 8.1942021e-39
-0.90380239 0.76407689 -0.49147531 4.2290963e-39
-0.88610131 0.75833273 -0.48748067 5.5187646e-39
-0.8735317 0.75625098 -0.48347995 1.1232312e-38
-0.86591357 0.75591469 -0.48051584 1.1324141e-38
-0.8555178 0.75396371 -0.47734061 1.1416705e-38
-0.8453846 0.75209159 -0.47422838 1.1691853e-38
-0.77643675 0.29088679 -0.71445042 1.0686375e-38
-0.78078145 0.29532918 -0.71366328 1.0319392e-38
-0.77963299 0.29835552 -0.71142292 1.0594541e-38
-0.78027278 0.30114958 -0.71005976 1.0778573e-38
-0.77889079 0.30368698 -0.70800745 1.0409791e-38
-0.77810532 0.30629835 -0.70615959 1.0778929e-38
-0.77732944 0.30891031 -0.70431525 1.0686732e-38
-0.77535367 0.3118434 -0.7017861 1.0594894e-38
-0.77521592 0.31453225 -0.7001617 1.0686375e-38
-0.78028542 0.31804702 -0.70021594 1.1055512e-38
-0.78137124 0.32096013 -0.69896847 1.0778929e-38
-0.78628147 0.32438707 -0.69900781 1.0963321e-38
-0.78843385 0.32745615 -0.69811177 1.123954e-38
-0.78689903 0.33001035 -0.69598633 1.1331377e-38
-0.78634703 0.33270261 -0.69418818 1.1147343e-38
-0.78332233 0.33505744 -0.6915608 1.1515413e-38
-0.7903598 0.33956811 -0.69185102 1.1147353e-38
-0.78829587 0.34204775 -0.68954957 1.0780014e-38
-0.78910851 0.34498265 -0.68817598 1.1239545e-38
-0.78876942 0.34774053 -0.68642777 1.1148427e-38
-0.78811949 0.3504912 -0.68455487 1.1331744e-38
-0.78910065 0.35507739 -0.68228877 1.1056229e-38
-0.78907561 0.35917827 -0.67988813 1.1424299e-38
-0.79547608 0.36778754 -0.67752504 1.1423577e-38
-0.79522842 0.37061825 -0.67577237 1.1148068e-38
