# .PCD v0.7 - Point Cloud Data file format
VERSION 0.7
FIELDS x y z rgb
SIZE 4 4 4 4
TYPE F F F F
COUNT 1 1 1 1
WIDTH 1074
HEIGHT 1
VIEWPOINT 0 0 0 1 0 0 0
POINTS 1074
DATA ascii
1.5478854 1.0480081 0.23278119 1.0138298e-38
1.5393428 1.089818 0.24744478 8.8468526e-39
1.5317494 1.127346 0.25291136 1.2892969e-39
1.5305884 1.1328864 0.25784761 7.3505251e-40
1.5304059 1.1336076 0.26173899 3.6770632e-40
1.5492828 1.0416954 0.21943289 6.7277713e-39
1.5483999 1.0458782 0.22381121 9.0312271e-39
1.5474268 1.0505675 0.22701165 1.0136852e-38
1.5379134 1.0973504 0.23872554 3.1314256e-39
1.5311488 1.1304227 0.25110099 1.0116338e-39
1.5492791 1.0419075 0.21539581 6.8181648e-39
1.5485328 1.0454354 0.21927068 7.188748e-39
1.5470682 1.0526279 0.22128658 8.3851374e-39
1.5391896 1.0913328 0.23180315 1.0872973e-38
1.5306145 1.1335907 0.24050859 1.9296384e-39
1.5301299 1.135818 0.24433343 1.4693763e-39
1.5468173 1.0541162 0.21630415 9.0301383e-39
1.5368507 1.1033428 0.2241184 3.2236171e-39
1.5296342 1.1385232 0.23938785 1.1031078e-39
1.5384223 1.095734 0.21967728 6.2592289e-39
1.5296025 1.1392515 0.22754395 1.1038252e-39
1.5291289 1.1414011 0.23182957 1.1027462e-39
1.53704 1.1029729 0.21220489 3.315084e-39
1.529245 1.1412596 0.22277023 1.5644432e-39
1.5288965 1.1427853 0.22710697 9.187235e-40
1.5293326 1.1410823 0.21737714 2.0243354e-39
1.5292099 1.1414571 0.22229749 9.1907243e-40
1.5282304 1.1462983 0.22300099 1.7495408e-39
1.5288182 1.1436468 0.21729438 5.5244931e-40
1.5288581 1.1439863 0.20610662 6.4356734e-40
1.5284401 1.1458462 0.21068707 4.6061241e-40
1.5277305 1.1491952 0.21448711 8.279544e-40
1.5288424 1.1445233 0.19657169 9.2015143e-40
1.5283694 1.1466742 0.20080118 8.2759987e-40
1.52793 1.1486443 0.20531012 1.3782527e-39
1.5274497 1.1515727 0.1940942 1.1031078e-39
1.5277593 1.1497911 0.19912 1.7481114e-39
1.5924197 0.81472653 0.47481573 7.4635244e-39
1.605297 0.74675238 0.55563641 1.2898381e-38
1.5455017 1.0475774 0.48839343 2.7587083e-40
1.5661526 0.94609565 0.46149516 4.6980086e-39
1.5651032 0.9512068 0.46380666 4.8805964e-39
1.5435357 1.057397 0.48766142 1.8403533e-40
1.625724 0.64071494 0.64661449 3.4058307e-39
1.6241635 0.64866173 0.64284587 1.0781852e-38
1.6177045 0.68664694 0.52142304 5.5209338e-40
1.6135271 0.70865417 0.4961288 1.2344834e-38
1.6133912 0.70960152 0.49048474 1.1607996e-38
1.6146419 0.70361173 0.48560828 9.4896563e-39
1.569813 0.9127667 0.77569926 6.9081968e-39
1.5700079 0.91235226 0.76414174 6.2628316e-39
1.5682749 0.92214596 0.73984987 4.2363228e-39
1.567063 0.92848146 0.73352349 4.5132629e-39
1.5653311 0.93757254 0.7237218 3.5016263e-39
1.5649852 0.9395647 0.71809328 3.6842183e-39
1.5648055 0.94104826 0.70583731 3.3186811e-39
1.5633683 0.9486984 0.69549519 3.6838651e-39
1.5643563 0.94409537 0.6889506 1.3811338e-39
1.56344 0.9485876 0.69037622 2.2101714e-39
1.5642796 0.94500822 0.67790884 3.6849371e-39
1.5634687 0.94897759 0.67928904 3.5012577e-39
1.5646505 0.9434948 0.67100954 3.0399278e-39
1.5641687 0.9466843 0.65453291 5.4330556e-39
1.5607101 0.9646191 0.63955498 6.3502867e-39
1.5602267 0.96921641 0.59396666 1.050201e-38
1.562466 0.95853913 0.58425748 1.1333213e-38
1.5610745 0.96536362 0.58634591 1.0595645e-38
1.5586485 0.97724611 0.59032345 9.6726056e-39
1.557279 0.9840461 0.59065181 8.2900327e-39
1.5607083 0.96745753 0.58071339 1.0688191e-38
1.559052 0.97561812 0.58241695 1.1239205e-38
1.5576217 0.98268747 0.58343112 9.2112645e-39
1.5630771 0.95593399 0.57518077 1.2068623e-38
1.5618644 0.96187413 0.57717401 1.1425047e-38
1.5599848 0.97131056 0.57545787 1.0594923e-38
1.5586278 0.97796667 0.57747799 9.7655229e-39
1.5572537 0.98479015 0.57778758 9.0279564e-39
1.5623013 0.96004838 0.56991529 1.1793462e-38
1.5611219 0.96590281 0.57022727 1.0873308e-38
1.5596458 0.97318333 0.57158822 8.4747925e-39
1.5587418 0.97759342 0.57344609 7.7386694e-39
1.5560519 0.99098969 0.57327032 8.6609704e-39
1.5625051 0.95934635 0.56342983 1.1516529e-38
1.5612938 0.96527773 0.56543154 1.1056265e-38
1.5599216 0.97209287 0.56572241 1.0227224e-38
1.5585681 0.97873282 0.56773382 9.673693e-39
1.5573554 0.98467135 0.56973857 9.2134323e-39
1.5632113 0.95619822 0.55579895 1.1884586e-38
1.5621364 0.96145105 0.55780786 1.1056272e-38
1.5609254 0.96738207 0.55981207 1.0871861e-38
1.5595522 0.97420222 0.56009692 1.0227944e-38
1.557541 0.9842447 0.55940175 1.1239222e-38
1.5626552 0.95922053 0.55048722 1.1423606e-38
1.5607116 0.96871501 0.55420411 1.1054825e-38
1.559351 0.97547668 0.55442852 1.0503458e-38
1.5577631 0.9832806 0.55646223 8.0145374e-39
1.5564675 0.98961937 0.5587427 9.4896591e-39
1.5547664 0.99818558 0.55665815 8.8439267e-39
1.5623444 0.9609791 0.54610217 9.3967544e-39
1.5612303 0.96648586 0.54689169 1.1055907e-38
1.5600212 0.97240704 0.54890037 1.0871513e-38
1.5584902 0.98001391 0.54915488 1.0135386e-38
1.5571378 0.98664802 0.55115527 9.8573598e-39
1.5559355 0.99253422 0.55318689 7.6479101e-39
1.5606421 0.96968269 0.54127055 1.0688205e-38
1.5613489 0.96642119 0.53596193 8.5695076e-39
1.557817 0.98676097 0.4785347 4.7869771e-39
1.5642835 0.95099318 0.5530588 1.1978578e-38
1.5638541 0.95340222 0.54741597 1.1149896e-38
1.5528009 1.011797 0.47703478 2.8551793e-39
1.548025 1.0450076 0.28071859 8.0174451e-39
1.5467098 1.0517391 0.27684623 9.6769678e-39
1.5453428 1.05843 0.27919063 9.9546393e-39
1.5490215 1.0408776 0.26346621 9.9531946e-39
1.5480446 1.0455868 0.26664889 1.0139742e-38
1.5468359 1.0514747 0.26929855 9.309986e-39
1.5457871 1.0565522 0.27225775 9.9542764e-39
1.5441504 1.064548 0.2753866 9.86278e-39
1.5487756 1.0423321 0.25868404 9.4943702e-39
1.5475674 1.0482178 0.26133558 9.954984e-39
1.5466217 1.0527691 0.26454708 9.7702397e-39
1.5458163 1.0566099 0.26803926 1.0414167e-38
1.5443069 1.0640197 0.27017912 1.1428315e-38
1.5431244 1.0698979 0.27030328 6.3586356e-39
1.5483861 1.044513 0.25362709 8.8493638e-39
1.5473225 1.0496647 0.25657651 7.7430218e-39
1.546381 1.0541955 0.25979793 9.4950933e-39
1.5453417 1.0592256 0.26276505 9.5851239e-39
1.5443563 1.0639787 0.265885 8.570602e-39
1.5416244 1.0773845 0.26985002 7.1887508e-39
1.5475316 1.0491325 0.2460084 9.3078364e-39
1.5469749 1.0517026 0.25016907 6.9139716e-39
1.5460335 1.0562322 0.25340906 9.2177847e-39
1.5448394 1.0620817 0.25536975 9.309972e-39
1.5440197 1.0659934 0.25884458 8.7560765e-39
1.5433972 1.0689808 0.26114735 9.0294236e-39
1.5422218 1.0747104 0.26365653 8.755701e-39
1.5483836 1.0451488 0.24066792 7.9252467e-39
1.5478215 1.047871 0.24223317 9.3078013e-39
1.5470198 1.0516937 0.24570699 9.9546183e-39
1.5460485 1.0564657 0.24699636 9.3103377e-39
1.5451345 1.0608915 0.24955158 1.0966266e-38
1.5444139 1.0643668 0.2518754 8.8486393e-39
1.5429392 1.0715392 0.25533915 8.1099868e-39
1.5419139 1.076499 0.25831565 8.2940236e-39
1.5480858 1.0467803 0.23756793 8.8464827e-39
1.5469995 1.0520772 0.23984005 9.3088958e-39
1.5462072 1.0559299 0.24173072 9.216354e-39
1.5446786 1.0634378 0.24379338 1.0781875e-38
1.5435182 1.069121 0.24570544 7.6508122e-39
1.5425586 1.0737126 0.24952811 8.6620984e-39
1.5415461 1.078637 0.25191224 7.3720729e-39
1.5466371 1.0541011 0.23525418 1.0046452e-38
1.5454668 1.0599105 0.23557173 1.1153163e-38
1.5442221 1.0659862 0.23803665 9.8606332e-39
1.5429776 1.0720618 0.24050172 8.4766324e-39
1.5418402 1.077598 0.24309996 7.0972782e-39
1.5404885 1.0842123 0.24543211 8.3876457e-39
1.5461998 1.0566174 0.22819671 8.4798484e-39
1.5447856 1.0636332 0.2286545 7.3745882e-39
1.5440196 1.0672684 0.23233648 7.1894809e-39
1.5425209 1.0746114 0.23474772 7.8326909e-39
1.5397372 1.0882617 0.23898749 8.7542772e-39
1.5457178 1.0592699 0.22292013 7.8337573e-39
1.5447602 1.063952 0.22466533 4.8845691e-39
1.5429533 1.0729284 0.22501022 5.5299595e-39
1.5420212 1.0774069 0.22832225 6.5430255e-39
1.5408189 1.0832627 0.23099099 7.1873075e-39
1.5453115 1.0615339 0.21789327 6.9092927e-39
1.5438774 1.068572 0.21997227 4.976776e-39
1.5418973 1.0784217 0.22004953 6.1753276e-39
1.54066 1.0844246 0.22327043 8.9376035e-39
1.5391183 1.0920134 0.22503424 6.6312652e-39
1.5460296 1.0583417 0.20995323 6.7245272e-39
1.5441831 1.067399 0.2126918 4.7923875e-39
1.5429775 1.073271 0.2153749 5.6217936e-39
1.5414673 1.0807655 0.21582411 7.1873075e-39
1.5399323 1.0883579 0.21679799 7.2795087e-39
1.5437732 1.0696965 0.20734204 5.9880594e-39
1.5425253 1.0757884 0.20982218 7.5575445e-39
1.5412773 1.0818802 0.21230243 8.6620858e-39
1.5393028 1.0917419 0.21157688 1.0410197e-38
1.5389192 1.0939424 0.20551389 7.4617742e-39
1.5614026 0.95064902 0.85834527 8.384029e-39
1.5608029 0.95354944 0.86009276 9.8584374e-39
1.5634257 0.94093174 0.85104686 7.2784115e-39
1.5525308 0.99334091 0.88873738 1.0689281e-38
1.559848 0.95805824 0.8651734 1.041161e-38
1.5639368 0.93838185 0.85117227 8.5666238e-39
1.5661954 0.9276042 0.84154725 1.1424694e-38
1.5655215 0.93094772 0.84177339 9.7648026e-39
1.5670016 0.92394578 0.83419573 1.1149878e-38
1.5665299 0.92630851 0.83388311 9.6726196e-39
1.567605 0.92123777 0.82805067 1.0686037e-38
1.567233 0.92318493 0.82606679 9.1205122e-39
1.5676011 0.92164755 0.81994087 8.6584677e-39
1.5682148 0.91891414 0.81327587 8.843568e-39
1.5675991 0.92196733 0.81350118 7.3716819e-39
1.5682652 0.91898549 0.80657071 7.3713274e-39
1.6180139 0.67888027 0.65090096 1.2711457e-38
1.6292245 0.62390351 0.63391012 0
1.623896 0.65027201 0.63705605 5.7168437e-39
1.618816 0.67524391 0.643511 1.4188035e-38
1.6011558 0.76235813 0.65967661 1.0594567e-38
1.6196821 0.67129618 0.635957 1.3544825e-38
1.6184678 0.67724818 0.63785976 1.3820694e-38
1.6173421 0.68276513 0.63963157 1.4003998e-38
1.601117 0.76285934 0.65327972 1.1976776e-38
1.619015 0.67487502 0.63057494 1.169874e-38
1.6178032 0.68081498 0.63247859 1.1238847e-38
1.6166716 0.68636036 0.63427365 1.1792741e-38
1.6008803 0.76431698 0.64745778 1.2253373e-38
1.5995711 0.77073246 0.64954281 1.2807623e-38
1.5968788 0.78400791 0.65211827 1.400473e-38
1.6260453 0.6404348 0.61918348 0
1.6212149 0.6643464 0.62185389 8.845363e-39
1.6197206 0.67171431 0.62328094 9.3041902e-39
1.6185915 0.67724758 0.625085 1.031619e-38
1.6174552 0.682818 0.62684119 1.1332126e-38
1.6163237 0.6883623 0.62864757 1.372814e-38
1.6006294 0.76584369 0.6416738 1.2622155e-38
1.5973463 0.78197592 0.64598799 1.5294744e-38
1.5896894 0.81972051 0.65352869 1.1979667e-38
1.621388 0.66370833 0.61722451 1.7506324e-39
1.619732 0.67196542 0.61688101 9.3041902e-39
1.618518 0.67791557 0.61879718 1.1421439e-38
1.6173526 0.68362564 0.62066984 1.2899455e-38
1.6160232 0.69015646 0.62245202 1.5846466e-38
1.5971067 0.78342223 0.64070696 1.3451556e-38
1.5907458 0.81482899 0.64591867 1.0502017e-38
1.6210617 0.66554123 0.6128577 2.5793098e-39
1.6194936 0.67343169 0.61108011 1.0043552e-38
1.6180997 0.68026358 0.61326611 1.2343399e-38
1.6170021 0.68564105 0.61503005 1.3174607e-38
1.6161311 0.6898846 0.61693203 1.1149189e-38
1.6146007 0.69744498 0.61809486 1.584647e-38
1.601011 0.76437461 0.63273799 1.2254089e-38
1.5979412 0.77970988 0.63154274 1.2622518e-38
1.5967225 0.78568274 0.63347775 1.3820334e-38
1.5955036 0.79165578 0.63541257 1.3729573e-38
1.5941176 0.7984494 0.63755476 1.4280591e-38
1.592896 0.80443662 0.63949388 1.3544113e-38
1.5890943 0.8231473 0.64385998 1.4006527e-38
1.5863595 0.83675843 0.64384252 1.437386e-38
1.6233643 0.65454966 0.60311347 0
1.6207945 0.66714483 0.60716015 1.0130799e-39
1.6177471 0.68228996 0.60761303 1.1884587e-38
1.616835 0.68672234 0.60985547 1.0596012e-38
1.6153439 0.69414359 0.60982996 1.3635936e-38
1.6141236 0.7000919 0.61244309 1.5937224e-38
1.6130822 0.70522755 0.61341608 1.4096559e-38
1.6118739 0.71114939 0.61532897 1.4004713e-38
1.6103801 0.71867615 0.61340433 1.4096206e-38
1.5996301 0.77153093 0.62682807 1.1884953e-38
1.5979636 0.77984959 0.62632626 1.4096565e-38
1.5953101 0.79291791 0.62918049 1.3728856e-38
1.5940887 0.79890394 0.63112336 1.4004728e-38
1.5901673 0.81820226 0.63564891 1.2713991e-38
1.5882279 0.82775652 0.6376825 1.1978226e-38
1.6204447 0.66915619 0.60154915 0
1.6190485 0.67600048 0.60371977 7.0043385e-39
1.6183517 0.67958999 0.60119331 8.1081722e-39
1.6164906 0.68861449 0.60612893 1.2898378e-38
1.6157749 0.69229144 0.60375446 1.5015628e-38
1.6146058 0.69807076 0.60456067 1.3267875e-38
1.6133945 0.70400614 0.60648417 1.3451553e-38
1.6122699 0.70951658 0.60827953 1.3635943e-38
1.6112063 0.71473902 0.60976249 1.1976783e-38
1.5992764 0.77356279 0.62117523 1.2161895e-38
1.5963383 0.78817606 0.62138081 1.3636304e-38
1.5951198 0.79414684 0.62332147 1.4096559e-38
1.5939014 0.80011767 0.62526208 1.3912893e-38
1.5912064 0.813407 0.62782091 1.3450482e-38
1.5892721 0.82288516 0.63089913 1.3173527e-38
1.5880522 0.8288635 0.63284481 1.4282031e-38
1.5853181 0.84247124 0.63282216 1.4004732e-38
1.5840982 0.84844923 0.63476849 1.363667e-38
1.6187232 0.67792243 0.59742671 5.2533432e-39
1.6181644 0.68078494 0.59572029 7.4631699e-39
1.6169649 0.68659884 0.59894407 1.1977866e-38
1.6156008 0.69341278 0.59844726 1.2898015e-38
1.6142536 0.70009404 0.59892344 1.3082766e-38
1.6130427 0.70602816 0.60084933 1.3543026e-38
1.6119266 0.71149409 0.60270727 1.3636296e-38
1.5988255 0.77607369 0.61564839 1.2253371e-38
1.5976089 0.78203416 0.61758882 1.3174966e-38
1.5945048 0.79746699 0.61792386 1.4188403e-38
1.5931654 0.8040362 0.61996156 1.381998e-38
1.5904686 0.81733412 0.62250978 1.2806551e-38
1.5892488 0.82331127 0.62445921 1.243848e-38
1.588029 0.8292886 0.62640852 1.4097997e-38
1.5868092 0.83526599 0.62835771 1.4005803e-38
1.5852956 0.84289438 0.62638009 1.4004721e-38
1.5840756 0.84887129 0.62833011 1.3637022e-38
1.5792003 0.87283832 0.63451272 1.2807263e-38
1.6194433 0.6746639 0.59065521 0
1.6179085 0.68227017 0.59133589 6.9114198e-39
1.6164346 0.68950069 0.5935086 1.1518324e-38
1.6153415 0.6949048 0.59425575 1.0595298e-38
1.6139007 0.70212191 0.5932886 1.2989496e-38
1.6129043 0.706999 0.59499353 1.3266433e-38
1.6117927 0.71244204 0.59685498 1.3358637e-38
1.5981184 0.77984947 0.61030078 1.298986e-38
1.596903 0.78580546 0.61224228 1.3728147e-38
1.5958066 0.79117179 0.61410117 1.4097288e-38
1.5941496 0.79950702 0.61226654 1.3912891e-38
1.5929335 0.8054657 0.61421096 1.3636303e-38
1.5915774 0.81219375 0.61465782 1.3359359e-38
1.5903546 0.8182078 0.61615795 1.0688924e-38
1.5890208 0.82472295 0.61869532 1.2346276e-38
1.5878032 0.83068949 0.62064505 1.3913965e-38
1.5865854 0.83665609 0.62259489 1.4189834e-38
1.6179619 0.68231452 0.58486766 3.9593758e-39
1.6165875 0.68905574 0.58692878 1.0413053e-38
1.6153033 0.69534981 0.58894736 1.2253726e-38
1.613876 0.70255184 0.58689886 1.2345922e-38
1.6127579 0.70802671 0.58878344 1.2713984e-38
1.6119462 0.71197277 0.59070551 1.1147384e-38
1.6109134 0.71702713 0.59249425 1.1056632e-38
1.5977675 0.78186566 0.60470492 1.3267525e-38
1.5965525 0.78781939 0.60665101 1.3729218e-38
1.5954521 0.79320759 0.60846388 1.3913609e-38
1.5925775 0.8075093 0.60855836 1.3544473e-38
1.591098 0.81484616 0.60913026 1.3083492e-38
1.5898805 0.82081145 0.61108261 1.2807264e-38
1.5886629 0.82677668 0.6130349 1.2345207e-38
1.5876094 0.83193272 0.61484444 1.3913249e-38
1.5863944 0.83788586 0.61679256 1.409692e-38
1.5850354 0.84469181 0.61590177 1.2067544e-38
1.5836688 0.85145187 0.61675894 1.345191e-38
1.5822005 0.85869414 0.61813492 1.5385858e-38
1.5781132 0.87877512 0.6235522 1.2806186e-38
1.5768958 0.8847397 0.62550759 1.24392e-38
1.6177213 0.68378317 0.57922578 3.2207346e-39
1.6162484 0.69101226 0.58134365 1.0042824e-38
1.6150384 0.69694132 0.58327866 1.1884582e-38
1.6124409 0.70987564 0.58311278 1.3083487e-38
1.6114798 0.71445376 0.58740729 1.3360066e-38
1.6101782 0.72097522 0.58647746 1.5847189e-38
1.6091968 0.72585231 0.58662879 1.216046e-38
1.59741 0.78391594 0.59905791 1.3635587e-38
1.5961951 0.78986847 0.60100651 1.3728496e-38
1.5938096 0.8017804 0.60018903 1.3820698e-38
1.5922973 0.80928063 0.60072339 1.3636663e-38
1.5910801 0.81524456 0.60267925 1.3360089e-38
1.5898629 0.82120872 0.60463524 1.3083491e-38
1.5888076 0.82637268 0.60646468 1.2438123e-38
1.5872513 0.83398592 0.6092006 1.4096565e-38
1.5861682 0.83928657 0.61107469 1.4004358e-38
1.5789728 0.87486362 0.61593753 1.2439915e-38
1.5777556 0.88082677 0.61789519 1.2713632e-38
1.6186749 0.67940229 0.57164079 0
1.6172206 0.68653977 0.57371223 3.2239604e-39
1.6158075 0.69347572 0.57574129 9.9495526e-39
1.6145957 0.69941342 0.57768065 1.1884943e-38
1.6134611 0.70497012 0.57954174 1.2621792e-38
1.6119589 0.71254188 0.57757044 1.326752e-38
1.6111211 0.716591 0.58007419 1.1241024e-38
1.6103822 0.72035182 0.57832718 1.3729222e-38
1.6094859 0.72465366 0.58165365 1.4004724e-38
1.6082666 0.73070455 0.58200991 1.3727783e-38
1.5973928 0.7843104 0.59262848 1.3728136e-38
1.5961783 0.79026198 0.59458059 1.4372066e-38
1.594702 0.79758555 0.59505355 1.4005447e-38
1.5935024 0.80352527 0.59569329 1.1425776e-38
1.5918732 0.81160313 0.59632814 1.5018516e-38
1.5906215 0.81775278 0.59799981 1.5109272e-38
1.5896654 0.82247078 0.59880805 1.289695e-38
1.5885066 0.82814509 0.60076129 1.0594221e-38
1.5876104 0.83254462 0.60202378 1.2713633e-38
1.5865247 0.83785689 0.60391265 1.4279873e-38
1.5852748 0.84398448 0.6058569 1.3912524e-38
1.5840855 0.84988636 0.60621482 1.3728137e-38
1.5747914 0.89570808 0.61520165 1.3727065e-38
1.6168667 0.68856966 0.56814998 4.0526294e-39
1.6155837 0.69486135 0.57009989 9.7633677e-39
1.6141635 0.70183164 0.57211888 1.1791309e-38
1.6132443 0.70633626 0.57358295 1.0226502e-38
1.6122577 0.71133304 0.57177049 1.0594936e-38
1.6111653 0.71673888 0.57241333 1.3174966e-38
1.6101127 0.72196472 0.57268834 1.3728855e-38
1.6089079 0.72786778 0.57462507 1.382033e-38
1.607703 0.73377079 0.57656175 1.3818531e-38
1.6065866 0.73923761 0.57842219 1.3081683e-38
1.5970355 0.78636086 0.58698195 1.3819968e-38
1.5958209 0.79231149 0.58893651 1.400436e-38
1.594458 0.79902041 0.5904761 1.5663875e-38
1.5930945 0.80576158 0.59140384 1.3452272e-38
1.5921743 0.81030697 0.59211731 1.1424337e-38
1.5909888 0.81611514 0.59402502 1.0872965e-38
1.5865128 0.83822548 0.59747785 1.4097996e-38
1.5787436 0.8765896 0.60375762 1.2713994e-38
1.5775287 0.88254148 0.60571945 1.2713991e-38
1.5761822 0.88914347 0.60780144 1.2346286e-38
1.5749656 0.89510328 0.60976708 1.1794909e-38
1.5734494 0.90262353 0.61030257 1.216082e-38
1.5720812 0.90933442 0.61235112 1.2161186e-38
1.5708611 0.91531169 0.61432421 1.271471e-38
1.5701987 0.91878384 0.61066276 1.2714705e-38
1.6162504 0.69189411 0.56280422 6.4471921e-39
1.6148601 0.69871515 0.56483781 9.6718867e-39
1.6134379 0.70569754 0.56683946 1.1792022e-38
1.6122056 0.71185726 0.56627607 1.0227949e-38
1.6109741 0.71796483 0.56671035 1.3175681e-38
1.6096237 0.72466552 0.56713134 1.3452269e-38
1.6086495 0.72942424 0.56900376 1.3819252e-38
1.6073481 0.7358067 0.57095879 1.3911088e-38
1.5967906 0.78785324 0.58130527 1.4095129e-38
1.5950987 0.79616052 0.58364427 1.3911452e-38
1.5938843 0.80210972 0.5856021 1.3636304e-38
1.592525 0.80885553 0.5860095 1.3451553e-38
1.591429 0.81424993 0.58724791 1.087189e-38
1.5862854 0.83963108 0.59178638 1.4188747e-38
1.5848531 0.84668958 0.59324163 1.5662079e-38
1.5837147 0.85231137 0.59414303 1.3635943e-38
1.5825026 0.85824996 0.59610277 1.3176044e-38
1.5812904 0.86418843 0.59806222 1.3172811e-38
1.5758216 0.89120907 0.60215235 1.2254097e-38
1.5740999 0.89974248 0.60288662 1.2253374e-38
1.5725797 0.90720361 0.6050536 1.2161181e-38
1.5713601 0.91317922 0.60703021 1.216154e-38
1.615864 0.69408405 0.5572356 6.5422744e-39
1.6145042 0.70075625 0.55922389 9.9499169e-39
1.6130174 0.70813608 0.55962539 1.2161537e-38
1.6118975 0.71361661 0.56157267 1.2991292e-38
1.6108276 0.71888155 0.562814 1.1241019e-38
1.6095042 0.72550511 0.56204146 1.5294019e-38
1.6083808 0.73103321 0.56335443 1.3727417e-38
1.6071799 0.73691702 0.56529045 1.3634858e-38
1.6058787 0.74329937 0.5672372 1.2899098e-38
1.594595 0.79901373 0.57644105 1.3819619e-38
1.5934993 0.80437416 0.57837397 1.3359718e-38
1.5922872 0.81031233 0.58033401 1.3267165e-38
1.5898629 0.82218885 0.58425385 1.3724907e-38
1.5885066 0.82886279 0.58583987 1.4555378e-38
1.587139 0.83574808 0.58419412 1.2806905e-38
1.585927 0.84168607 0.58615464 1.4279163e-38
1.5847149 0.84762418 0.58811516 1.3819975e-38
1.5833557 0.85437012 0.58850807 1.3636306e-38
1.5822632 0.85971445 0.59043026 1.3267882e-38
1.5777198 0.88221157 0.59280914 1.2714707e-38
1.5766336 0.88752562 0.59472877 1.280726e-38
1.5754217 0.89346236 0.59669477 1.2438123e-38
1.57356 0.90269297 0.59741408 1.2253731e-38
1.5722101 0.90931326 0.59944636 1.2069702e-38
1.5709904 0.91528785 0.60142797 1.2438847e-38
1.5699697 0.92027897 0.6032905 1.2807264e-38
1.568392 0.92816561 0.60255969 1.0964442e-38
1.5673691 0.93322784 0.60316664 1.2898738e-38
1.6158512 0.69445562 0.55084765 6.9074668e-39
1.6144459 0.70135349 0.55284977 9.9492009e-39
1.6130923 0.70807016 0.55325294 1.1884592e-38
1.6119652 0.71358812 0.55516493 1.2529954e-38
1.6108898 0.71884805 0.55708081 1.3358983e-38
1.6098877 0.72378778 0.55806041 1.133286e-38
1.6071676 0.73728406 0.55891782 1.3820686e-38
1.6058762 0.74361581 0.56090927 1.3358636e-38
1.5944322 0.80005646 0.57160091 1.5385142e-38
1.5931396 0.80643433 0.57273769 1.345083e-38
1.5919279 0.81237143 0.57470012 1.3450837e-38
1.5907159 0.81830859 0.57666248 1.3359357e-38
1.5895039 0.82424599 0.57862484 1.3357922e-38
1.58838 0.82975662 0.58035582 1.0503099e-38
1.5871278 0.83611149 0.57780159 1.2713987e-38
1.585916 0.84204817 0.57976788 1.4003286e-38
1.584407 0.84947759 0.58143705 1.593759e-38
1.5831628 0.85558939 0.58310765 1.5292231e-38
1.5814227 0.86414796 0.58523458 1.2898388e-38
1.5802109 0.87008399 0.58720225 1.2529965e-38
1.5773351 0.88439423 0.58723509 1.2071131e-38
1.5761217 0.89033884 0.58920753 1.2345919e-38
1.5746019 0.8978799 0.58968061 1.2345923e-38
1.5731949 0.90478271 0.59175366 1.2069693e-38
1.5719769 0.91074854 0.59373611 1.2070058e-38
1.5707591 0.91671443 0.5957185 1.2162971e-38
1.5695411 0.92268038 0.59770095 1.2623234e-38
1.6155809 0.696069 0.54526758 7.7383022e-39
1.6140889 0.70340002 0.54723066 1.0134307e-38
1.6126497 0.71048605 0.54883319 1.4463899e-38
1.6117386 0.71498698 0.54953468 1.3265723e-38
1.6105343 0.72088623 0.55148125 1.4002567e-38
1.6093302 0.7267856 0.55342788 1.4095486e-38
1.6083096 0.73177332 0.55534011 1.4463548e-38
1.5946139 0.79942942 0.56583899 1.3358278e-38
1.5932815 0.80596322 0.56787181 1.3542311e-38
1.5919219 0.81271064 0.56825358 1.3450124e-38
1.5908176 0.81811261 0.57020628 1.3266806e-38
1.5896075 0.82404095 0.57217056 1.2897665e-38
1.5884625 0.82964474 0.57413852 1.2252662e-38
1.5860044 0.84184021 0.574947 1.1884594e-38
1.5848467 0.84758425 0.57529175 1.4003639e-38
1.5837592 0.85290658 0.57717955 1.3636297e-38
1.5821306 0.86098558 0.57772201 1.3544106e-38
1.580917 0.86692959 0.57969648 1.2806184e-38
1.5797038 0.87287372 0.58167076 1.280583e-38
1.5786103 0.87826341 0.58274561 1.4372072e-38
1.576984 0.88633066 0.58329505 1.0411265e-38
1.5757585 0.89241648 0.58357221 1.2436685e-38
1.5746549 0.89787763 0.58424205 1.4004008e-38
1.5733845 0.90415555 0.5851745 1.2346283e-38
1.5719744 0.91107291 0.5872432 1.252996e-38
1.5707567 0.91703796 0.58922946 1.2254453e-38
1.5691752 0.92477274 0.59204966 1.2530684e-38
1.5669502 0.93577397 0.59355628 1.2347724e-38
1.5661433 0.93975979 0.59419781 1.0228309e-38
1.6087159 0.73009509 0.54819179 1.4187692e-38
1.6060137 0.74354655 0.54812056 1.3358281e-38
1.594237 0.80157238 0.56027657 1.3449752e-38
1.592878 0.80831832 0.56064928 1.3358644e-38
1.591668 0.8142454 0.56261617 1.3543028e-38
1.5904582 0.82017255 0.56458288 1.3175688e-38
1.5896438 0.82413989 0.56635618 1.0778974e-38
1.5884798 0.82990158 0.5670107 1.418696e-38
1.5875709 0.83433348 0.56891882 1.169984e-38
1.5847074 0.84858513 0.56891656 1.4187675e-38
1.58328 0.85562795 0.57017881 1.5569885e-38
1.5821288 0.86130571 0.57125115 1.3359362e-38
1.5809156 0.86724883 0.57322925 1.3265724e-38
1.5797023 0.87319189 0.57520723 1.2806905e-38
1.5784889 0.87913519 0.57718533 1.2897663e-38
1.5772755 0.88507849 0.57916337 1.2621435e-38
1.5760528 0.8911975 0.57847804 1.0319068e-38
1.5746105 0.8982749 0.58058 1.0226511e-38
1.57302 0.9062416 0.57952583 1.2437044e-38
1.5714666 0.91386849 0.5816679 1.2438123e-38
1.5707935 0.9171201 0.58371967 1.0594944e-38
1.5696796 0.92261481 0.58474523 1.2714714e-38
1.5684619 0.92857867 0.58673364 1.2347368e-38
1.5675112 0.93333429 0.58623993 1.2438124e-38
1.6133722 0.70750767 0.53599888 1.0964076e-38
1.6117884 0.71535224 0.53678632 1.2439205e-38
1.6106788 0.72078055 0.53872353 1.3451554e-38
1.6094754 0.72667611 0.54067785 1.3911801e-38
1.6083603 0.73213267 0.54260564 1.4095479e-38
1.6071584 0.7380206 0.54455614 1.4095485e-38
1.5953524 0.7962693 0.55511171 1.3174613e-38
1.5942595 0.80166829 0.55596328 1.1055205e-38
1.5920566 0.81265873 0.55539763 1.3543034e-38
1.5910202 0.8177231 0.55734265 1.3543757e-38
1.5894173 0.82559913 0.55946398 1.4924877e-38
1.5881729 0.83171082 0.56113857 1.4186241e-38
1.5870769 0.83705938 0.56335932 1.1607284e-38
1.5857273 0.84367698 0.56540793 1.3542668e-38
1.5847108 0.84876102 0.56488597 1.1883884e-38
1.5820423 0.86201078 0.56553435 1.3267878e-38
1.5806866 0.86865991 0.56757998 1.3266081e-38
1.5794752 0.8745935 0.56955874 1.271507e-38
1.5782638 0.88052708 0.57153755 1.2896584e-38
1.5768988 0.88730371 0.57188392 1.2345926e-38
1.575547 0.8939355 0.57388282 1.2252651e-38
1.574177 0.90065473 0.57594973 1.2161896e-38
1.5721192 0.91097432 0.57431197 1.2436688e-38
1.5707549 0.91766697 0.57633185 1.2530676e-38
1.5696847 0.92289901 0.57830083 1.2621435e-38
1.5684673 0.9288615 0.58029532 1.234557e-38
1.5669415 0.9364382 0.5806601 1.2530321e-38
1.5527925 1.0062708 0.59281176 4.2363144e-39
1.6148113 0.70062983 0.53007436 9.0272306e-39
1.6140542 0.70437807 0.53048676 8.2900439e-39
1.6127729 0.71077114 0.53014386 1.3543377e-38
1.6116409 0.71635509 0.53119737 1.2623233e-38
1.61044 0.72223723 0.53315014 1.3083492e-38
1.6090608 0.72900623 0.5351361 1.556917e-38
1.6078234 0.73508447 0.53680074 1.6213446e-38
1.6068022 0.74006194 0.53897458 1.3543735e-38
1.605476 0.74660438 0.54017186 1.4925236e-38
1.5945367 0.80058163 0.54986531 1.3358641e-38
1.5882322 0.83167708 0.55572957 1.2160101e-38
1.5867147 0.83913285 0.55772775 1.142433e-38
1.5853353 0.84597892 0.55813438 1.3543744e-38
1.584263 0.8512221 0.56006104 1.363666e-38
1.5831945 0.8564471 0.56197894 1.3543749e-38
1.5816797 0.86408585 0.55991298 1.3083129e-38
1.5803223 0.87074262 0.56195283 1.3082412e-38
1.5791112 0.87667543 0.56393421 1.2531404e-38
1.5778999 0.88260829 0.56591552 1.2529604e-38
1.5760384 0.89183784 0.56664938 1.2345573e-38
1.5748255 0.89777875 0.56863761 1.234557e-38
1.5735707 0.90394121 0.57034755 1.0593508e-38
1.5705345 0.91903716 0.57065094 1.2529948e-38
1.5693173 0.92499888 0.57264781 1.243776e-38
1.5682495 0.93022162 0.57456827 1.1978949e-38
1.5667254 0.93778712 0.57497299 1.2437404e-38
1.6149876 0.70002437 0.52441692 1.0039566e-38
1.6137496 0.70612806 0.52561706 1.0962988e-38
1.6125386 0.71208513 0.52708483 1.0317988e-38
1.6114017 0.7177937 0.52601999 1.4740847e-38
1.6051702 0.74840665 0.53434414 1.5016002e-38
1.5931358 0.80772889 0.54621524 1.3635224e-38
1.5919294 0.81363845 0.54818714 1.3542671e-38
1.590723 0.81954807 0.55015916 1.3267526e-38
1.5890775 0.82783484 0.54814214 1.2345563e-38
1.587869 0.83375335 0.55011922 1.1976784e-38
1.5862428 0.84182954 0.55048209 1.1791663e-38
1.5848432 0.84869874 0.55248678 1.3451549e-38
1.5838984 0.85330653 0.55443615 1.3637016e-38
1.5826874 0.85923868 0.55641937 1.3267519e-38
1.5796181 0.87450337 0.556651 1.2806184e-38
1.578407 0.88043481 0.55863571 1.2438126e-38
1.5771961 0.88636631 0.56062049 1.2345211e-38
1.5756729 0.89392841 0.5610128 1.2161907e-38
1.5744599 0.89986873 0.56300354 1.2161179e-38
1.5731044 0.90651679 0.56505519 1.2253017e-38
1.5718898 0.91246545 0.56705004 1.2162612e-38
1.5703641 0.92015928 0.56495869 1.234521e-38
1.5689491 0.92710352 0.56699663 1.2253011e-38
1.567732 0.93306488 0.56899601 1.1794551e-38
1.5663563 0.93989617 0.56931818 1.2529594e-38
1.6150147 0.70015961 0.51881528 9.1194318e-39
1.6136564 0.70690215 0.5191747 1.1424684e-38
1.6123847 0.71309674 0.52197337 1.4002204e-38
1.6114609 0.71767747 0.52231455 1.0686413e-38
1.5878744 0.83403718 0.54366302 1.1884952e-38
1.5865287 0.84063786 0.54568076 1.1516165e-38
1.5849737 0.84836119 0.54600734 1.2715067e-38
1.5837607 0.85430157 0.54799849 1.4004357e-38
1.5828478 0.85877597 0.54943842 1.0965871e-38
1.5819845 0.86299181 0.55112386 1.3176044e-38
1.58022 0.87179929 0.5505923 1.0503821e-38
1.5792539 0.87658644 0.55102557 1.2898021e-38
1.5740755 0.90205038 0.5574249 1.2069344e-38
1.5727365 0.90861869 0.55941796 1.1885319e-38
1.5715221 0.91456664 0.56141531 1.2345926e-38
1.5694251 0.92500424 0.56139594 1.013468e-38
1.5679439 0.93232441 0.56244934 1.179491e-38
1.5666085 0.93890893 0.5637213 1.4002566e-38
1.5511287 1.0151819 0.57970482 6.1702408e-39
1.6143732 0.70364547 0.51269513 1.1791652e-38
1.6132427 0.70918757 0.51445931 1.3082402e-38
1.6120787 0.7148999 0.5161342 1.3910007e-38
1.6109569 0.72039872 0.51788777 1.4555733e-38
1.5877147 0.83505934 0.53894258 9.5836722e-39
1.586665 0.84026879 0.53925413 1.2067188e-38
1.5854849 0.84616846 0.53869623 1.2252283e-38
1.5842723 0.85210758 0.54069084 1.3637015e-38
1.5830594 0.85804677 0.54268533 1.3635941e-38
1.581962 0.86341262 0.54470032 1.317533e-38
1.5805866 0.87016749 0.54657912 1.446355e-38
1.5768073 0.88888019 0.54858196 1.2253374e-38
1.5752968 0.89638191 0.54892403 1.2069699e-38
1.5740839 0.9023214 0.55092329 1.1978575e-38
1.5727457 0.90888566 0.55291313 1.179419e-38
1.5715314 0.91483283 0.55491406 1.1701634e-38
1.570317 0.92078018 0.55691522 1.1885661e-38
1.5689429 0.92760444 0.55721807 1.1793834e-38
1.5666959 0.93865407 0.55998755 1.004248e-38
1.6208557 0.67190224 0.50192243 0
1.6194375 0.67889041 0.50338608 0
1.6130099 0.71062648 0.50862449 1.3082759e-38
1.6118857 0.71613669 0.51039183 1.3451187e-38
1.6108255 0.7213279 0.51215202 1.4279153e-38
1.5923463 0.81250691 0.52857071 1.3174603e-38
1.5873084 0.83733439 0.53367704 9.675858e-39
1.5863148 0.84234643 0.53229159 1.381746e-38
1.5851194 0.84825873 0.53305721 1.2160097e-38
1.5839069 0.85419703 0.53505427 1.382033e-38
1.5827574 0.85982043 0.53708482 1.3359712e-38
1.5816605 0.86518192 0.53910893 1.2899457e-38
1.5737153 0.90442652 0.54528993 1.1793113e-38
1.5725303 0.91021764 0.54751712 9.7673306e-39
1.5694503 0.92537826 0.55101502 1.3635218e-38
1.6216122 0.66850072 0.49435619 0
1.6201292 0.67580074 0.49602261 0
1.6134437 0.70880663 0.50158727 1.2437753e-38
1.6117518 0.71707797 0.50467753 1.3358993e-38
1.586233 0.84300035 0.52715755 1.1608372e-38
1.5812297 0.86759752 0.53345323 1.2622513e-38
1.6121846 0.71526104 0.49767181 1.3357551e-38
1.5874957 0.83688229 0.52369469 1.1884237e-38
1.6198463 0.6777854 0.48403507 3.3165049e-39
1.6181803 0.68598598 0.48593271 6.9092436e-39
1.6183043 0.68563062 0.48048505 5.8961763e-39
1.6173459 0.69029087 0.48277101 5.0639171e-39
1.652212 0.51911855 0.43387002 0
1.6508329 0.52597392 0.43404967 0
1.6496359 0.53183645 0.43602324 0
1.6468863 0.54553753 0.43568087 0
1.6457224 0.55122834 0.43779111 0
1.6567425 0.49710381 0.42281866 0
1.6557876 0.50192428 0.42138064 0
1.6545599 0.50795174 0.42310661 0
1.6533606 0.51382601 0.42508337 0
1.6518543 0.52126783 0.42621106 0
1.6506211 0.52732533 0.42788377 0
1.6494827 0.53295219 0.42868221 0
1.6482759 0.53886217 0.43067521 0
1.6472703 0.54379958 0.43207318 0
1.6457076 0.55164266 0.43071064 0
1.644596 0.55703324 0.43366715 0
1.6435339 0.56223047 0.43550101 0
1.6423331 0.56815112 0.43665394 0
1.6411324 0.57407171 0.43780687 0
1.6397951 0.58072877 0.43777773 0
1.6357416 0.60075355 0.44085464 3.5934898e-39
1.6661501 0.45099205 0.40806425 0
1.6621878 0.47055811 0.41126388 0
1.6567466 0.49732995 0.41767317 0
1.6543013 0.50946826 0.4183321 0
1.6531339 0.51518399 0.42028999 0
1.651706 0.52226305 0.42085648 0
1.6504326 0.5285306 0.42231071 0
1.6489702 0.53577214 0.42307132 0
1.6466981 0.54698038 0.42514545 0
1.6452504 0.55404174 0.4281221 0
1.6445363 0.55756289 0.42881718 0
1.643178 0.56425792 0.43017009 0
1.6404294 0.57790935 0.43075329 0
1.6394202 0.58286542 0.43213344 0
1.5805645 0.8731131 0.48762095 1.3633776e-38
1.6695586 0.43442348 0.39984864 0
1.6615224 0.47404748 0.40758669 0
1.6592656 0.48526254 0.40790704 0
1.6575463 0.49368927 0.41060391 0
1.6564803 0.49891514 0.4122681 0
1.6553807 0.50428587 0.4143877 0
1.653855 0.51193285 0.41327262 0
1.6527005 0.51752281 0.41649783 0
1.6174991 0.6911881 0.44824931 2.7550649e-40
1.6162876 0.6971209 0.45027068 2.7550649e-40
1.6665998 0.44933209 0.39604148 1.836822e-40
1.6655369 0.45458996 0.39671549 2.755191e-40
1.6643687 0.46029967 0.39887765 6.4286108e-40
1.6629781 0.4670535 0.40236628 9.1838299e-41
1.6604229 0.47965965 0.40466061 0
1.6831892 0.36770844 0.37653041 9.1835496e-41
1.6820059 0.37354162 0.37768817 0
1.6793282 0.38688216 0.37739795 0
1.6817384 0.37517911 0.37132165 0
1.5569236 0.97141719 0.89001739 9.6751265e-39
1.5588905 0.96209222 0.88036811 1.0226509e-38
1.5572662 0.97007662 0.88244504 9.4900332e-39
1.6157064 0.69210124 0.61477739 1.3636652e-38
1.6015407 0.76143622 0.63901263 1.225409e-38
1.6108073 0.71696496 0.60478169 1.372885e-38
1.6104395 0.71949291 0.59025961 1.3636655e-38
1.6072646 0.73561263 0.58363408 1.3357915e-38
1.6613947 0.47491148 0.40282547 0
1.5835174 0.85644239 0.52867156 1.3176404e-38
1.5816975 0.86565995 0.52535003 1.2807984e-38
1.5729904 0.9083268 0.53920466 1.1795639e-38
1.5717782 0.91424882 0.54151917 1.1335016e-38
1.5764087 0.88750738 0.6183545 1.2346645e-38
1.5827533 0.85658121 0.60486674 1.5109272e-38
1.5815067 0.86270416 0.6065346 1.5108914e-38
1.5804956 0.86769909 0.60732114 1.2990935e-38
1.578614 0.876921 0.61028028 1.253104e-38
1.5760443 0.88955396 0.61352432 1.4096205e-38
1.5736625 0.9012863 0.61604917 1.2161892e-38
1.5901557 0.82037807 0.59160525 1.3081691e-38
1.5889416 0.82632703 0.59356284 1.2437045e-38
1.5877272 0.83227611 0.59552032 1.2436685e-38
1.584985 0.84580457 0.5979926 1.3728144e-38
1.5840729 0.85025734 0.59978014 1.3727421e-38
1.5886118 0.82820791 0.58854836 1.0686417e-38
1.5873699 0.83432555 0.58987492 1.2252655e-38
1.5960702 0.79169226 0.57601726 1.4186603e-38
1.5910751 0.81625044 0.58229387 1.3174972e-38
1.6063689 0.74151009 0.55371201 1.4279507e-38
1.6149396 0.69953072 0.53965765 8.6591641e-39
1.6137309 0.70545131 0.54161364 1.031941e-38
1.6126504 0.7107349 0.54357255 1.2437758e-38
1.611472 0.71658164 0.54395896 1.354267e-38
1.6102699 0.7224707 0.54590636 1.4188035e-38
1.6148412 0.70023483 0.53518754 7.0904063e-39
1.612638 0.71101362 0.53907096 1.0134673e-38
1.6158125 0.69562656 0.53050715 6.8141669e-39
1.5991269 0.78448796 0.40948278 6.6280044e-39
1.562317 0.96486306 0.46817708 6.5394031e-39
1.5715696 0.91948211 0.4542973 3.2243247e-39
1.625109 0.64442128 0.63317913 0
1.6239264 0.65089768 0.62089235 0
1.6238291 0.65162891 0.61575645 0
1.6226194 0.65761077 0.61657673 0
1.6238428 0.65183204 0.61011142 0
1.6220977 0.66075683 0.60512418 0
1.6218278 0.66237247 0.59946042 0
1.620175 0.67077011 0.59588599 0
1.6194239 0.67514068 0.58274138 0
1.6191062 0.67699081 0.5771516 0
1.6185584 0.68022156 0.56665987 0
1.6177758 0.68432456 0.56234312 0
1.6162243 0.69392502 0.52328032 5.0639227e-39
1.617515 0.68790352 0.51489443 4.0526112e-39
1.6159225 0.69573474 0.51688355 8.1045554e-39
1.6168567 0.69144726 0.5093466 6.5379388e-39
1.6156151 0.69754642 0.51102078 1.0036719e-38
1.6181444 0.6852175 0.50563401 2.6682699e-39
1.6167098 0.69236547 0.50545049 6.902778e-39
1.6144763 0.70381063 0.49860731 9.7655145e-39
1.6182073 0.68555313 0.49212754 4.8823943e-39
1.6171433 0.69074613 0.4942708 6.7241419e-39
1.6160351 0.69616061 0.49636191 8.4744169e-39
1.6153191 0.69981647 0.4944483 7.5521173e-39
1.6170735 0.69140869 0.48771694 6.9067423e-39
1.6159531 0.69689459 0.48960143 1.0040299e-38
1.6148669 0.70226192 0.49039975 9.3967334e-39
1.6163932 0.69504267 0.48254123 9.0254341e-39
1.6157188 0.69827974 0.48501807 8.1964063e-39
1.6109363 0.72653502 0.3924225 8.7485081e-39
1.6163682 0.69259143 0.53610653 4.1448237e-39
1.5684628 0.91834021 0.79952717 5.7128963e-39
1.5694114 0.91375828 0.79663569 9.0297613e-39
1.5687079 0.91723281 0.79720056 6.4475774e-39
1.5696298 0.91308105 0.78812259 7.277694e-39
1.5689347 0.91651207 0.78871572 5.1582805e-39
1.5682296 0.91999102 0.78934461 4.0533707e-39
1.5695289 0.91388708 0.78180987 6.0798753e-39
1.5690058 0.91647691 0.78206992 5.1586337e-39
1.5697485 0.91312671 0.77488512 5.5249023e-39
1.56971 0.9135834 0.76937902 5.8947568e-39
1.56971 0.91362303 0.76855296 5.0653632e-39
1.5694826 0.91502368 0.76297027 5.4341444e-39
1.5691183 0.9168365 0.76296437 5.1586379e-39
1.5689614 0.91787344 0.75763637 5.5263302e-39
1.5684742 0.92028284 0.75797123 5.251558e-39
1.5686175 0.91985887 0.75194848 5.6181713e-39
1.568133 0.922252 0.75232673 5.526333e-39
1.5681362 0.92251754 0.74646872 6.0787935e-39
1.5681313 0.9225654 0.74597859 5.8025695e-39
1.5677899 0.92451549 0.74076259 5.6181727e-39
1.5671366 0.92774087 0.74130177 4.6976583e-39
1.5679749 0.92391402 0.73412299 5.707846e-39
1.5673732 0.92687356 0.73486716 5.4334073e-39
1.5667249 0.93042356 0.72813058 5.0664464e-39
1.5663302 0.93236685 0.7285651 4.6054571e-39
1.566532 0.93167776 0.72201526 4.2370403e-39
1.5660193 0.9341954 0.72272992 4.697287e-39
1.5659804 0.93463647 0.71757829 3.8693326e-39
1.5656712 0.93619907 0.71707088 4.605813e-39
1.5666804 0.9314037 0.71235693 1.4733364e-39
1.5656385 0.93666685 0.71073908 2.8573373e-39
1.5649214 0.94018209 0.71184933 3.8689781e-39
1.5654283 0.93809074 0.70289296 2.2105413e-39
1.5646311 0.9422105 0.69971091 3.2243317e-39
1.5640451 0.94538277 0.69440162 2.9473903e-39
1.5644517 0.94379145 0.68539989 3.4079929e-39
1.5634201 0.94892323 0.68546706 2.9473791e-39
1.5651121 0.94093585 0.67644054 3.7760566e-39
1.564113 0.94867814 0.61886233 1.2252284e-38
1.5675942 0.93183249 0.60887885 1.2990215e-38
1.5624908 0.95782465 0.5965302 1.1700554e-38
1.5664454 0.93854707 0.58813983 1.2438124e-38
1.5650363 0.94542956 0.59086043 1.2437405e-38
1.5658747 0.94165492 0.58257371 1.2620718e-38
1.5646574 0.94761741 0.58456749 1.2253371e-38
1.5655082 0.94374835 0.57697147 1.225373e-38
1.5644468 0.94893956 0.57888901 1.2344489e-38
1.5651392 0.94585675 0.57131916 1.2254441e-38
1.5641327 0.95077246 0.5732615 1.2528515e-38
1.5644352 0.94961709 0.56598723 1.2345564e-38
1.5633559 0.95489252 0.56798238 1.2437037e-38
1.5645826 0.94919705 0.5594582 1.2252655e-38
1.5633675 0.95514834 0.56146514 1.1884592e-38
1.5558407 0.99663198 0.47778368 3.775702e-39
1.5686524 0.92573082 0.6262477 1.2990213e-38
1.5548971 1.001286 0.47867242 3.3161644e-39
1.5518293 1.0129093 0.55444688 6.9981994e-39
1.5493459 1.0251075 0.55782455 5.3383306e-39
1.5542574 1.0010595 0.5495857 8.6602557e-39
1.5527701 1.0084161 0.55053324 8.6570257e-39
1.552408 1.0102706 0.54943252 4.9717229e-39
1.5512266 1.0160539 0.55144489 4.3292345e-39
1.5500451 1.0218372 0.55345756 3.7767796e-39
1.554041 1.0024451 0.54316175 7.7372344e-39
1.5537442 1.003832 0.54503697 5.8947526e-39
1.5519861 1.012605 0.54455101 6.6308869e-39
1.5500157 1.0222634 0.54763681 6.2646197e-39
1.5489887 1.0272785 0.54962575 4.4185575e-39
1.5665243 0.94127983 0.52315569 0
1.5653112 0.94721961 0.52517784 9.1835496e-41
1.5640981 0.95315951 0.5272001 4.5146978e-39
1.5545647 1.0001863 0.53592259 7.8312125e-39
1.5533166 1.0062952 0.53807431 6.7245174e-39
1.5521801 1.0118692 0.53977835 7.0000267e-39
1.5510603 1.0174652 0.53929079 5.5266889e-39
1.5754105 0.89773256 0.50906587 0
1.5741969 0.9036746 0.5110901 0
1.5726706 0.91115928 0.51341277 0
1.5714571 0.91710097 0.51543832 0
1.5702437 0.92304271 0.51746404 0
1.5690637 0.92890143 0.51776189 1.8367099e-40
1.5680307 0.93394405 0.51979482 1.8367099e-40
1.5660681 0.94382143 0.51751661 7.8297916e-39
1.5531286 1.0075253 0.53194815 6.3557335e-39
1.5518049 1.0140115 0.5340544 6.2642526e-39
1.5492089 1.0268179 0.53641075 6.3571586e-39
1.5484512 1.0304928 0.53843063 3.1303326e-39
1.5829128 0.86095852 0.49733001 0
1.581827 0.86628234 0.49900323 0
1.5804888 0.87282801 0.50137621 0
1.578997 0.88024408 0.50155151 5.5281084e-40
1.5777836 0.88618582 0.50357759 2.7550649e-40
1.5765702 0.89212745 0.50560379 9.1835496e-41
1.5747246 0.90140259 0.50372458 8.0123752e-39
1.5735112 0.90734375 0.50575238 8.0145346e-39
1.5721625 0.91396183 0.50770855 8.0145374e-39
1.5709475 0.91991097 0.50973833 7.9223376e-39
1.5698712 0.92516738 0.51183671 7.8294245e-39
1.5684896 0.93203187 0.51207846 9.6733371e-39
1.5672761 0.9379729 0.51410818 9.3045503e-39
1.5645678 0.95146972 0.51374149 9.3034601e-39
1.5633863 0.95724738 0.51587451 8.8428519e-39
1.5620413 0.9637596 0.51964563 6.909629e-39
1.5536761 1.0051603 0.52446264 6.9081828e-39
1.5526607 1.0101333 0.52613449 7.0925741e-39
1.5515031 1.0158106 0.52789491 6.6323162e-39
1.5501024 1.0225809 0.53207344 5.6199593e-39
1.548315 1.0315229 0.53107488 5.4359324e-39
1.5891262 0.83050668 0.48752642 1.0101905e-39
1.5877488 0.83735001 0.48778188 1.1942202e-39
1.5865375 0.84328157 0.48980328 0
1.5853261 0.8492133 0.49182507 9.1836897e-41
1.5840715 0.85535789 0.49387926 2.7551069e-40
1.582751 0.86204523 0.49146941 8.2925522e-39
1.5800278 0.87532121 0.49724934 5.7089432e-39
1.5783126 0.88390702 0.49621221 9.8591562e-39
1.5770993 0.88984764 0.49824196 1.0041752e-38
1.575886 0.89578855 0.50027162 9.6726182e-39
1.5733293 0.90851516 0.50020868 1.0410896e-38
1.5719243 0.91541523 0.50214916 1.0411254e-38
1.570711 0.92135608 0.50417984 1.0964067e-38
1.5693079 0.92832714 0.50440329 9.7662488e-39
1.5681267 0.93410426 0.50653744 9.9509945e-39
1.5668844 0.94020504 0.50823641 1.013466e-38
1.5657758 0.94563967 0.50996625 1.0777866e-38
1.5655137 0.94689691 0.51094234 9.3960229e-39
1.5627831 0.9604944 0.51077241 8.4747855e-39
1.5521508 1.0129675 0.5199762 6.9085416e-39
1.5510306 1.0184385 0.52212423 7.093293e-39
1.54992 1.0238829 0.52387077 6.9088975e-39
1.549381 1.0264267 0.5267368 5.3444571e-39
1.5481567 1.0325829 0.52542591 5.1582693e-39
1.5887548 0.83262593 0.48190823 7.643943e-39
1.5865635 0.84346628 0.48326516 9.3034755e-39
1.582116 0.86524278 0.49070895 7.8301559e-39
1.5797402 0.87701023 0.49187338 9.3041902e-39
1.5780141 0.88565171 0.49081239 8.843582e-39
1.5767254 0.89197946 0.49260965 1.0685676e-38
1.5755122 0.89791971 0.49464187 1.013431e-38
1.5744886 0.90291172 0.49676847 1.0317263e-38
1.572014 0.91528308 0.49562311 9.9506344e-39
1.5707409 0.92152172 0.49762565 1.1423611e-38
1.569592 0.9271515 0.499457 1.0227221e-38
1.5680569 0.93476725 0.49996841 1.0319416e-38
1.5666754 0.9415431 0.50203228 1.0410525e-38
1.5662397 0.94364065 0.50352293 7.6475443e-39
1.5648474 0.95048934 0.50520313 9.0293872e-39
1.564045 0.95435458 0.50786972 6.4482837e-39
1.5536531 1.0056479 0.51670879 6.4486354e-39
1.5529925 1.0091425 0.51239741 7.4610035e-39
1.5506475 1.020528 0.51834536 6.631247e-39
1.5484712 1.0313981 0.51752496 7.091858e-39
1.5477084 1.0351343 0.51877534 5.7110858e-39
1.5467601 1.0397528 0.52087992 1.7491946e-39
1.6095777 0.7302258 0.45629081 5.0646262e-39
1.6083767 0.73610544 0.45829174 4.4207015e-39
1.6072018 0.74192643 0.45885512 6.5397632e-39
1.6047437 0.75403988 0.46135741 5.9851601e-39
1.6038325 0.75849777 0.4629567 4.6976611e-39
1.6024833 0.76508796 0.46555457 5.5212981e-39
1.6008565 0.77329141 0.46330363 9.0272404e-39
1.599967 0.77759635 0.46584213 6.4475732e-39
1.5989474 0.78263855 0.46652207 9.2116358e-39
1.5876718 0.83822775 0.47750452 1.0684249e-38
1.5861921 0.84558541 0.47764024 1.0317619e-38
1.5849808 0.85151571 0.47966799 1.0132506e-38
1.5843599 0.85452104 0.4814449 8.1045638e-39
1.5830628 0.86090648 0.48290947 1.0316543e-38
1.5805513 0.87332767 0.48452753 1.0041041e-38
1.5791084 0.88041747 0.48643959 8.9372112e-39
1.5777731 0.88712507 0.48514578 1.2068251e-38
1.5756338 0.89765304 0.4876228 9.3056279e-39
1.5743066 0.90415734 0.48970774 9.6733329e-39
1.5731499 0.90979069 0.49226406 1.0042476e-38
1.5705515 0.9227128 0.4924832 1.0042477e-38
1.5697796 0.92642581 0.49514043 9.7648138e-39
1.5686102 0.93230551 0.49390426 1.0595644e-38
1.5671469 0.93956846 0.49432027 9.7662389e-39
1.5659622 0.94536018 0.49647251 8.844284e-39
1.5647775 0.9511525 0.49862462 7.92126e-39
1.5635929 0.95694554 0.50077653 7.4617223e-39
1.5623468 0.96306425 0.50248134 8.2900467e-39
1.5514163 1.0169698 0.51277083 7.831567e-39
1.550069 1.0236673 0.51293045 7.1829803e-39
1.5486697 1.0306298 0.51295781 7.1844096e-39
1.5465661 1.04096 0.5158568 8.2796841e-40
1.609328 0.7317977 0.44943091 1.0040672e-38
1.6082171 0.73722357 0.45156008 1.0133222e-38
1.6069511 0.74343222 0.4534992 9.6715378e-39
1.6055796 0.75024527 0.45374486 9.6715336e-39
1.5878036 0.8377859 0.47303894 8.842496e-39
1.5830376 0.86135036 0.47627282 8.289325e-39
1.5803905 0.87447357 0.47732833 9.3967474e-39
1.5789788 0.88146007 0.47815904 1.0135026e-38
1.577817 0.88715219 0.48002192 9.0290438e-39
1.5749421 0.90136021 0.48210284 9.58114e-39
1.573806 0.90691018 0.48426321 9.8580842e-39
1.5726227 0.91269559 0.48641062 9.949561e-39
1.5717069 0.91714382 0.48869893 9.8580842e-39
1.5688196 0.9314602 0.48980224 7.6479143e-39
1.5667652 0.9417482 0.48849842 8.6584551e-39
1.5641074 0.95479268 0.49229568 7.4595447e-39
1.5633099 0.95864993 0.49461114 6.1709821e-39
1.5523069 1.012898 0.5052579 7.0003785e-39
1.5508238 1.0201788 0.50735903 6.1731331e-39
1.54959 1.0263429 0.50685352 4.8802433e-39
1.5484433 1.0319418 0.50909883 4.3299506e-39
1.5465893 1.0412238 0.50796413 5.5252456e-39
1.6092179 0.73255891 0.44499919 8.4747911e-39
1.607787 0.73963791 0.44589075 1.0501286e-38
1.6066595 0.74514532 0.4480449 1.0133228e-38
1.6051079 0.75286835 0.44802251 1.0409815e-38
1.5883732 0.83531421 0.4655149 8.3833185e-39
1.5849936 0.85208166 0.46657681 1.0410896e-38
1.5837806 0.85802054 0.46861538 1.0502732e-38
1.5792518 0.88030052 0.47400475 6.817076e-39
1.5757129 0.89788562 0.47457615 1.013252e-38
1.5742918 0.90484166 0.47699362 1.0502375e-38
1.573222 0.91005826 0.47924006 9.8577227e-39
1.5719374 0.91635036 0.48133621 9.48895e-39
1.5706769 0.92257303 0.48239809 1.0871513e-38
1.5692452 0.92966324 0.48311767 9.8587947e-39
1.5681019 0.93525106 0.48525149 9.488936e-39
1.5653752 0.94862092 0.489407 7.4599147e-39
1.5528841 1.010414 0.4971984 6.4479221e-39
1.5516226 1.0165865 0.49937531 6.1702549e-39
1.5501404 1.0239601 0.49944094 6.0798599e-39
1.5489492 1.0297832 0.50162798 6.6319617e-39
1.547225 1.0382575 0.50385487 4.4207141e-39
1.5461795 1.0433874 0.50538307 2.7590446e-39
1.5450453 1.0491083 0.50382006 2.7586662e-40
1.6089641 0.73397875 0.44174066 1.2249769e-38
1.6079359 0.73907393 0.44218293 8.8424932e-39
1.6067681 0.74478984 0.4441945 8.5659077e-39
1.6044325 0.75648648 0.4427048 1.0593842e-38
1.6031436 0.76280987 0.44459099 1.059348e-38
1.601935 0.76872671 0.4466176 1.1052667e-38
1.5982189 0.78705144 0.45015046 9.1194374e-39
1.5875032 0.83987659 0.46065634 8.2911215e-39
1.5861355 0.8465963 0.46247783 8.4755155e-39
1.5833505 0.86044663 0.46268159 1.077859e-38
1.5821478 0.8663435 0.46452799 1.1607646e-38
1.5809749 0.87205952 0.46704018 9.7662375e-39
1.5797386 0.87818021 0.46771315 9.672244e-39
1.5783998 0.88476813 0.4692885 8.290397e-39
1.5771109 0.89108467 0.47133437 8.2911173e-39
1.5738833 0.90715468 0.47117865 9.9481205e-39
1.5726824 0.91300535 0.47381604 9.580061e-39
1.5715657 0.91849869 0.47513694 9.0276103e-39
1.5702926 0.92475224 0.47684902 1.0779678e-38
1.5687501 0.93240893 0.47727761 9.028325e-39
1.5529816 1.0102146 0.49122995 5.4334101e-39
1.5487972 1.0308615 0.49494064 6.5397562e-39
1.5476623 1.0364739 0.49570361 4.5128943e-39
1.5471332 1.0389878 0.4981795 6.7245048e-39
1.5460138 1.0444887 0.49963701 2.5742946e-39
1.6085707 0.73617059 0.43688431 1.0962265e-38
1.6069062 0.74444318 0.43713516 8.7510192e-39
1.6056041 0.75083727 0.43891332 8.5662706e-39
1.6039435 0.75919747 0.43693876 1.0868989e-38
1.5816299 0.86916542 0.45944664 8.9368398e-39
1.5806713 0.87385821 0.46105838 8.8424974e-39
1.579676 0.87879163 0.46148142 7.4592126e-39
1.5787938 0.88309002 0.46341848 7.9216145e-39
1.5774571 0.88971633 0.46396437 7.5532005e-39
1.5611759 0.9700883 0.47760475 7.0925587e-39
1.6090089 0.73434848 0.4294132 1.1238135e-38
1.6078019 0.74025792 0.43144149 1.0961907e-38
1.6063886 0.74728239 0.43164533 1.0684242e-38
1.6051809 0.75319493 0.43367845 1.0776073e-38
1.5880611 0.83770472 0.44808751 9.025804e-39
1.583382 0.86069733 0.45420548 7.0029036e-39
1.5818322 0.86845672 0.45324916 6.5415681e-39
1.5797186 0.87886691 0.45551786 7.1851383e-39
